ply
format ascii 1.0
element vertex 1398
property float x
property float y
property float z
end_header
1242.876953 -629.904602 632.041199
1161.298340 -743.458618 572.380737
1042.634644 -48.597931 656.102234
1046.657715 7.862472 530.424683
862.691223 -365.084137 544.785339
820.576660 -354.257813 577.127380
1188.643188 -741.251892 600.723145
959.470337 159.044006 523.000793
976.672241 -659.972290 984.990601
840.543213 -273.560364 689.421143
1237.483154 -622.092163 702.309753
995.923157 19.633356 599.299744
867.263672 -267.613281 692.507507
890.383850 -319.305603 518.010925
1032.751343 36.576233 536.895874
1209.410278 -736.094055 509.522339
919.301575 -791.228577 752.396973
1147.052490 -634.315735 847.766663
869.013733 -345.680817 520.035461
1182.231934 -680.006470 691.032288
1400.242065 -340.914276 913.118652
1137.894531 -590.090210 612.638977
992.683655 -244.089325 574.961121
1092.240967 -735.013123 678.758484
1267.703125 -474.009491 964.289978
1207.465210 -728.665527 544.591003
1107.957764 -528.024475 974.143250
1012.423645 -175.579926 683.164917
1040.993774 83.192627 443.259003
1073.569946 -612.589966 949.343445
933.253052 114.236702 609.771606
793.232666 -307.262024 721.048157
1401.678711 -351.206390 932.667847
1226.547241 -629.355225 638.907776
944.683472 183.492584 551.948547
1017.183716 -40.919209 640.319397
950.662354 167.806213 528.832031
1093.652588 -630.095947 908.861633
762.526245 -372.115997 627.864258
782.857117 -353.608582 634.287903
1236.946167 -597.125488 680.307190
1124.434570 -591.423157 879.317200
1063.590332 -77.828911 680.954163
1251.170044 -638.618958 673.554810
964.827881 -647.856201 965.234314
903.251465 66.365479 716.504639
1018.815552 31.638008 559.117615
1145.217529 -591.318481 876.633972
1262.983765 -421.489075 965.670837
869.825317 -200.965027 761.417053
1079.723877 -124.626541 683.538025
977.734131 60.352333 590.523499
1052.604370 47.064434 466.280823
1001.974548 -738.747803 724.012573
1008.662659 -249.580582 606.113708
764.320068 -323.903107 711.222351
1064.999023 -21.751724 546.686462
1441.391724 -316.993530 1009.300476
896.213989 -290.660522 569.083923
1027.717773 101.458809 465.463318
930.513428 -362.081024 402.841705
1253.661743 -675.917297 601.356995
978.537964 -157.080246 788.617310
1205.580200 -679.514771 602.096313
1019.497864 -626.661011 947.800598
1033.750854 -589.344482 1029.159912
885.755676 -374.897339 479.275574
1149.709106 -654.927490 748.435364
958.422668 -769.772705 801.137939
930.597778 -800.696045 756.901367
1120.109375 -738.618164 612.703430
1123.217773 -718.208679 707.775818
1154.786255 -517.040283 926.125610
1006.342651 -46.844486 662.276062
1143.820679 -537.249817 824.359802
1076.196167 -145.695816 640.969055
935.567444 -803.032654 746.712158
915.299255 159.683868 632.857727
981.506653 -692.525085 931.000610
1044.569092 -579.695374 988.391357
1046.989136 -695.241455 832.761230
1009.528076 141.337189 442.884735
1052.090332 56.418159 426.457306
1346.981323 -568.643738 691.529968
944.784424 -245.804642 649.813843
1228.578735 -637.948669 612.845154
1107.604126 -531.110901 848.750610
869.601501 -250.798279 673.151001
1212.306763 -504.588318 749.800598
971.488281 -203.785294 676.299622
1084.144043 -54.794270 545.910400
955.381409 -780.317749 714.387390
1289.861328 -620.497437 563.015015
934.023560 -758.590637 804.314514
1052.921265 13.333259 483.404510
1198.533325 -523.050720 879.650024
1045.632813 90.668251 428.238220
980.860352 84.982315 552.564941
794.543823 -424.591827 555.080322
1258.309814 -646.125671 645.559143
1004.698059 -740.238403 784.498413
965.211548 60.234749 637.402893
766.614380 -425.416199 608.075989
1122.073608 -532.217163 944.369995
1007.871887 -595.590271 1029.400391
1047.996826 -45.762714 645.657959
986.611450 -691.033875 714.305481
1065.865234 -166.765366 613.786560
934.227905 147.339218 565.343750
1233.625244 -484.868134 758.884705
1009.254028 -715.502625 742.367004
1022.034424 34.729309 549.205627
1064.949707 -8.934976 530.852112
1001.424255 29.845072 566.514099
1479.670410 -342.767334 905.494019
786.612610 -295.096405 731.511047
1061.803711 -565.896851 1010.866516
1001.467285 -692.229309 846.656616
1181.060791 -690.397949 670.363220
1240.031616 -668.466919 605.845520
843.657654 -226.816269 786.042175
1150.434814 -494.818909 1024.717285
957.697693 -299.831940 500.116943
1009.227417 -589.460327 1059.408081
1073.880249 -693.298401 728.634460
1364.724976 -514.012024 707.165344
1132.530518 -623.005981 828.182800
1083.588623 -684.857422 760.923035
1026.410645 -702.360291 867.752625
843.874512 -408.201050 486.435730
1013.208374 -697.241516 885.775879
1366.700195 -580.009033 656.457764
985.732178 -651.335754 704.208130
1219.966431 -724.727478 560.329163
844.531372 -241.539444 737.146240
994.653442 -192.841827 674.428894
959.183167 -339.956604 440.182892
1050.107666 0.791348 542.925903
1038.212891 10.636616 572.689636
1228.058472 -725.500427 520.596680
1094.368286 -80.365128 515.102051
963.775452 -227.240585 670.121521
984.726257 -11.305789 672.622192
1137.643066 -758.322632 578.866882
1022.047729 104.223640 436.688110
1304.628906 -471.101532 836.733398
1014.272034 -271.809235 464.265320
922.159790 151.453445 600.929626
1016.480957 -728.776428 830.402283
894.878113 -284.113892 605.122620
954.750610 -769.281799 750.543396
926.250183 -393.395691 402.723053
1374.222046 -603.669861 602.957703
1006.739014 -205.626572 669.065491
786.002319 -309.077118 700.529785
930.490417 -750.404053 819.862915
1179.146484 -110.742287 672.944824
974.315979 -41.391609 745.360718
895.059753 136.992432 673.266296
1060.583130 -566.400085 1038.147339
1073.490112 21.610292 412.225281
945.781921 125.075577 570.499451
931.074768 -805.115051 710.733093
1122.864990 -758.550964 599.683167
1108.246582 -50.748482 441.972107
1042.626831 19.221767 524.176086
1087.215210 -662.810120 849.293396
1149.568115 -751.739136 574.198975
926.142456 184.511673 596.555176
1211.930420 -624.964172 682.981018
1040.694824 -72.399292 647.978149
923.035278 -798.108826 769.920837
1045.995728 7.058086 501.159698
994.957642 -625.861755 729.359802
838.512634 -244.704041 750.124146
776.422363 -389.261536 623.822693
1051.412598 -44.248421 633.184937
1079.542114 -45.843925 553.820129
1248.371826 -651.163635 644.161926
1151.971069 -744.215576 595.741577
1034.845093 -640.499390 963.857788
915.464722 182.129868 627.348938
989.927612 -4.381830 662.491638
1014.349915 -48.611637 714.459290
930.606750 -314.713715 516.682434
782.641113 -363.339752 660.525940
884.590210 -258.404480 696.489014
969.332520 -43.032349 731.295715
1084.133789 -42.354034 482.034424
1042.119507 110.516533 433.709106
940.578613 14.956399 752.330994
1042.812500 -703.160461 837.064392
993.439758 -661.117554 912.551941
1068.764771 -742.670166 705.443237
908.594482 -389.067993 405.312927
1268.180054 -700.066284 529.020447
899.817932 -346.386871 481.317352
960.878967 143.239578 533.398865
1277.128418 -426.469116 972.613586
943.304260 -745.746521 857.255432
1030.806030 185.903900 438.763275
1115.193970 -82.650604 467.803711
1260.505005 -603.188660 669.222473
929.554443 -746.985046 832.269531
1043.159180 -647.281738 942.608032
888.006836 -280.431427 614.908569
829.912964 -247.607529 754.972900
1125.675171 -533.317078 898.489990
1037.509521 121.211876 392.007660
997.517761 -595.378784 1012.104004
1038.309814 -582.965088 1024.015503
781.426086 -399.207977 577.623962
1208.352417 -638.471436 591.864624
1003.802551 105.249611 496.474304
1113.208984 -648.215515 729.366272
1083.083374 -526.272583 895.192505
1092.516846 -42.232933 483.489655
1083.852905 -759.680176 652.324402
1209.792480 -592.303040 765.882690
933.357544 79.888824 666.442383
1041.133301 -765.406372 693.443237
1034.440063 -640.012268 772.070068
1157.216431 -683.396545 676.068359
1026.568604 107.828255 461.365753
971.618408 -789.331482 723.631470
819.890625 -313.233307 642.471436
1008.031616 -176.896790 718.221985
1293.560059 -456.703979 959.319763
1137.986816 -734.039612 587.797424
962.239990 -790.904663 732.232117
992.248474 -319.918518 434.135986
923.112122 67.725098 716.527771
990.457642 -606.381470 699.801208
769.546021 -373.030670 644.057129
935.869934 162.230347 552.588928
782.219482 -351.519348 684.378662
970.101685 -682.227112 721.637634
1016.255981 -675.757385 919.316467
1047.288574 -597.745605 715.758240
1138.726563 -580.475830 929.362061
930.971497 125.184586 611.698853
1067.615112 -762.504517 625.708435
1039.597534 -282.413483 462.116302
852.775024 -446.226135 488.123383
992.132324 123.052444 497.153259
937.070984 89.217430 654.861328
927.555542 -361.087860 439.895081
969.643555 138.834473 512.445007
1095.552124 -520.561401 1048.871948
849.669800 -294.496826 645.456787
1083.732422 -666.015686 840.997986
828.391602 -347.889923 577.313354
1129.456421 -515.446167 909.195557
1072.409302 33.157238 407.303925
1123.647827 -548.748230 882.628479
1196.221680 -566.433838 679.390503
978.278198 -801.268066 685.329773
907.824158 114.526947 677.688354
1418.274414 -539.034241 661.898438
1243.565796 -616.916443 719.642761
937.635071 206.913391 574.773132
1263.248901 -383.366760 952.472229
968.722290 141.752884 507.163116
1023.145691 138.094818 398.630188
1044.286987 -562.123230 1006.532104
988.100769 -681.729492 872.771973
996.564758 -259.698090 562.899963
1005.130859 17.678005 627.320557
1113.944092 -615.379822 881.779114
913.555298 173.855804 601.132690
1050.585083 -772.838989 620.951904
834.806946 -346.434479 590.980408
1232.026611 -735.285461 537.463257
1128.625854 -546.333191 849.981140
1145.834839 -753.967285 536.882935
981.047363 31.908482 627.397278
1137.259644 -643.160034 836.937012
1201.127563 -716.647400 581.240051
1065.660034 65.161217 406.288147
1045.083496 -644.809265 738.863953
1119.479614 -158.254547 623.423279
745.751160 -391.183044 671.712402
933.439758 -738.703491 861.854492
1166.869263 -720.180359 680.702942
1093.807983 -624.734375 915.054260
1041.853882 -258.597839 497.110535
787.445129 -408.148590 591.874939
1073.790283 101.135330 379.885529
1028.701416 28.068544 571.078979
871.352783 -236.145340 697.721802
1101.471802 -16.620466 410.937531
1239.204224 -449.063293 931.736206
749.541382 -369.973022 667.193542
1069.752441 -42.333542 597.812317
947.056763 -221.162491 694.934082
1208.644653 -533.257324 957.784668
1062.826416 -218.980408 512.481323
996.193359 -171.312469 690.444702
876.783936 -346.965729 522.069763
1053.614990 -559.896484 1038.056274
1018.211243 -583.960510 1032.510864
1164.929810 -681.693787 691.542236
999.376770 -667.896484 938.193298
1024.567505 -771.826050 695.022705
1097.183594 -589.960449 927.971802
780.180725 -354.721954 653.926758
930.426025 -266.885712 642.362915
1246.830322 -470.855774 973.521606
1239.656860 -658.950439 617.678223
928.546143 111.819824 635.049500
814.579712 -385.932861 539.752319
866.861694 -431.647369 445.398346
1022.559448 -561.981201 1045.688843
1121.049927 -205.557114 531.115356
933.544617 -393.204651 424.265442
1218.670410 -702.608154 517.608887
1026.288696 -217.523834 605.125061
1251.870605 -713.145447 482.172028
1398.017334 -341.549896 1018.759155
926.299805 -236.755203 268.154266
949.922913 155.422852 537.159973
792.614441 -409.162872 553.710693
1193.052490 -662.732483 676.087280
938.174683 134.899048 576.270020
1055.590820 7.786718 495.913940
937.205872 -352.207428 468.726135
1073.939575 -214.432693 507.604767
1014.585632 -709.866150 846.997742
886.063049 -261.438629 688.876709
893.184875 -205.281143 737.786194
1095.377563 -629.961914 902.310669
1087.272705 0.577767 410.045959
1003.988464 -32.640526 676.752625
1184.344116 -484.441772 978.003052
1355.454102 -541.149475 707.470764
1132.118408 -605.837891 900.626099
1006.984863 -679.690247 725.606628
1089.418701 -652.552368 853.625061
1178.505371 -682.183594 643.410400
1215.094604 -686.027344 649.562195
1291.351929 -434.831238 956.564148
1121.643555 -537.696777 1027.296143
1174.754517 -694.731506 556.181091
1109.184570 -92.805946 493.529114
1136.072021 -623.023376 813.482849
1007.763916 -699.922913 867.747986
926.671326 -251.055267 610.874573
979.820496 -325.220642 436.039093
837.217102 -237.463165 765.117371
1066.030762 -716.249817 735.859192
991.896362 -786.537354 706.567444
840.141541 -319.069824 574.721375
972.817383 -747.787170 828.648315
1093.851929 -31.242987 469.032227
1193.413208 -496.734131 954.852112
1166.544678 -683.302551 706.087280
1029.527832 -794.032043 683.425293
1007.677429 -723.569519 763.340088
919.919250 156.625595 591.955261
1305.825562 -465.962280 844.221436
1175.261597 -591.737305 800.047791
1174.358398 -503.536407 842.948975
1007.944641 -712.035034 746.319763
927.496399 -799.304016 748.853271
988.959106 -789.345215 689.042358
1014.849243 65.273026 520.839539
1084.196167 -667.988647 860.797852
1026.858887 -34.163277 663.202026
1005.557007 -788.895447 705.556641
1029.602417 -778.156067 664.351501
1009.816284 -608.631470 1048.018066
825.424744 -380.021637 525.138977
1249.037231 -545.990845 751.615234
758.844727 -405.931458 614.165710
822.788635 -433.550171 533.585938
1242.687500 -686.148804 591.399658
942.520813 160.584930 565.486572
869.531006 -422.246460 426.175323
997.724548 -737.931580 793.253906
767.437988 -424.473267 633.129517
916.009155 -212.261932 729.885498
807.633911 -237.795868 761.900879
869.521118 -222.089630 737.487610
882.219788 -377.397827 428.001770
1132.597778 -638.767944 785.154480
950.937195 -777.911133 767.829773
777.535828 -328.103851 679.828857
1373.219238 -339.025330 1052.872681
1113.488770 -684.582336 737.580505
1063.565186 -24.393238 557.735657
1074.338867 0.433094 466.176086
895.502869 -236.124222 697.617798
1225.563599 -577.500122 734.774902
997.504089 -674.692017 876.109924
1185.914673 -584.349609 786.971252
1168.336548 -752.059204 546.058838
1120.453857 -639.185059 829.418030
1118.272583 -228.092606 512.630554
1068.544312 20.655281 409.590912
1143.641235 -635.338867 766.403198
795.203064 -353.844788 587.280151
919.109558 81.207458 708.077087
785.864624 -290.608154 725.569763
948.762573 -729.423950 899.463501
817.047424 -384.923645 547.498840
953.376343 -806.050964 708.365479
944.496460 123.937004 591.102112
1159.130493 -567.767029 726.998108
1005.092285 -0.986912 598.256592
1033.814209 -736.412598 698.837524
1045.532349 -570.491028 1065.373901
1015.017151 132.298752 486.810486
900.183777 127.744652 659.131409
1031.074463 104.267632 454.864105
976.663879 68.500145 621.499084
983.634155 -653.000732 964.267517
1405.809082 -339.037811 1049.045288
1008.088867 -703.865723 864.945007
1012.187622 -290.558960 499.875122
924.698669 -333.278839 509.578125
1325.230469 -645.246155 571.385437
971.483215 27.875547 671.420959
956.741089 54.202950 651.128357
1112.273804 -83.767952 493.318970
1314.307495 -425.354431 933.685364
1048.236572 -665.682739 772.469116
985.406189 -336.424774 405.286194
932.878174 157.275742 587.884033
833.740540 -370.821503 521.304565
891.166748 -394.477753 423.496582
859.113647 -435.526276 434.723572
932.981140 67.954430 681.283691
1030.616455 88.025406 473.433685
1155.168335 -558.758667 849.234863
966.950256 -768.018188 733.391479
721.298340 -96.101196 739.206055
804.960754 -354.558533 600.315186
1107.469360 -669.140930 755.447632
934.926453 -751.260010 846.804932
992.814880 37.997967 606.057373
976.347107 86.464096 602.849121
1277.596436 -494.666992 923.611328
999.386169 9.841919 648.372559
1286.721436 -468.725342 954.212891
1200.814941 -632.890381 728.409851
898.618896 166.963181 641.242065
1064.896851 -671.448853 741.499939
760.890564 -273.331116 734.475952
1056.204468 -539.334534 1067.373535
1348.868286 -380.856415 964.320740
823.903198 -283.339813 728.268494
1005.799011 -173.667343 726.129517
998.676086 128.540848 459.758820
1216.579102 -696.369141 565.192688
1075.460205 -547.670776 975.766968
1032.990112 23.089046 556.078064
975.639282 -775.933167 706.778259
811.359314 -291.958740 723.374084
1297.206909 -425.176605 972.492249
1005.672424 60.660313 548.741943
942.505920 36.845020 680.734680
1031.575562 -219.873001 586.263123
812.844116 -381.031403 541.587097
1063.582275 -653.187805 910.593018
1035.940430 -168.532516 640.286255
1101.000366 -587.644226 943.361267
956.234314 180.366379 518.178650
1003.109680 -754.303528 731.401306
940.105225 -300.596954 312.936218
1014.187317 139.442551 483.049561
770.991333 -396.606384 647.313782
933.300110 122.643578 608.646301
1109.005127 -160.528122 570.834290
1228.596313 -590.145203 616.408508
1145.471313 -747.456665 624.072388
1093.591309 -232.898697 495.885834
1163.088623 -681.966980 736.259766
953.005493 -182.726425 737.215881
1041.970581 -9.585279 579.282898
952.955688 -372.206116 425.279877
974.805359 -262.226318 534.198547
976.598938 -203.594833 641.395508
866.762878 -392.665497 443.108551
946.675476 -212.132568 658.552856
1193.424072 -736.422485 595.215576
853.028381 -320.657684 597.060059
1256.684448 -603.783936 637.877197
1052.537109 -49.935150 631.045471
1068.374634 -51.478554 558.272644
1205.085571 -699.833679 600.979309
1057.399536 -625.807434 955.121216
998.833191 116.384109 474.728027
1193.752808 -93.414520 687.605774
884.604675 -301.826538 558.263733
1308.987915 -429.735199 862.810974
1028.473877 -224.848511 588.939636
972.223145 32.884449 644.374268
978.217407 -786.288452 719.131958
994.409485 -661.017212 905.228638
1160.526733 -601.470886 779.736877
1034.479736 42.602367 516.681641
993.388123 -739.790039 728.757690
1051.783447 -277.957794 440.504578
1072.511230 -534.534790 965.966064
1004.285950 -634.729614 1001.580750
755.732422 -358.969116 723.600098
1056.057861 24.659534 460.743622
1143.694824 -719.302307 650.653870
986.072510 36.164459 619.556885
864.474426 -265.792358 700.844238
955.030029 -680.981689 919.093018
1126.758301 -749.647705 605.755127
1133.297119 -513.072144 880.091980
789.910522 -327.080902 702.483582
994.201172 -736.058167 842.637878
799.682495 -312.135712 749.030945
1028.089844 74.935097 455.280823
851.189392 -403.192657 465.129578
935.927979 -760.149597 828.094788
1244.769531 -649.509216 640.029907
1216.834473 -682.222900 624.726379
1383.669312 -593.723206 609.490540
1001.775879 141.313934 446.782074
1057.076538 -560.472107 1040.558716
846.746704 -314.822906 601.444214
1006.565918 -308.271820 412.019104
993.858643 -683.560364 879.064087
1032.419678 36.886402 513.948364
1141.469482 -742.884705 651.839294
1013.284180 -713.275513 844.477905
945.923889 -271.905548 540.596069
1293.436646 -456.846497 928.163513
1092.604980 -48.074207 507.498932
1147.917480 -521.022095 983.654358
1146.241333 -556.836487 951.112671
1163.469116 -703.279175 669.135437
1061.662109 28.742579 476.925446
981.848511 -657.631653 936.656677
1034.695190 -703.216431 822.596741
1036.193848 -776.773132 667.397888
1232.429810 -723.594055 547.625061
848.561523 -329.067352 624.853577
1207.356812 -697.391296 570.642029
925.210205 49.839119 707.293335
1115.004761 -140.261047 717.652222
999.035278 -801.626709 627.949890
1001.077698 -697.735229 797.270325
1055.815063 -764.962158 663.451843
1000.310547 -607.856750 1036.569214
1022.169373 -296.674896 506.324707
888.924561 143.105927 676.351135
807.253723 -294.058807 708.596069
1189.454712 -658.529053 723.129089
1053.468872 -726.400269 733.989990
743.795227 -180.577652 725.733215
1158.001099 -678.213379 715.597107
1057.637817 -762.476624 720.135437
935.906433 202.360367 566.689026
1301.997314 -433.252045 976.084656
934.523254 -798.556885 749.935242
1398.574341 -372.722107 1041.976807
1177.128052 -592.061218 676.142029
871.823914 -348.731903 542.868591
1037.829834 81.292717 404.280060
986.082825 -728.497314 831.316345
981.740173 27.871912 610.384888
1162.688232 -564.198975 882.193298
1090.690918 -18.816921 434.477600
888.673096 -287.581940 601.440613
919.589539 94.604538 652.523987
962.482300 -726.269104 854.869812
986.457520 4.809030 641.216736
977.201477 -249.306671 578.862000
937.397583 -368.770325 392.525146
800.350708 -362.263458 607.196228
1041.479858 -678.755127 818.687073
1164.892822 -503.864655 941.016479
1063.486694 -564.309753 1027.045776
948.879578 169.476440 523.791748
1025.989258 -595.105835 1030.057129
1026.182617 24.584724 562.415955
1031.550171 -617.903076 981.006348
884.433899 -264.888702 671.497070
1390.198730 -557.080872 646.704834
969.316589 -246.554123 614.334106
844.299622 -286.314697 637.952698
1058.059814 -741.593079 707.014709
931.842590 -203.345535 706.668457
1242.632080 -641.370850 676.220093
856.506897 -212.076111 781.454285
1046.460449 -16.819855 565.390869
791.914673 -301.574249 734.654114
1004.266602 33.489727 588.416809
923.260437 -370.310150 414.866516
971.654541 -689.200317 938.694702
892.853027 -280.932159 615.096436
1037.889893 -267.569733 493.084686
1011.171265 23.360909 585.493347
856.376038 -359.184906 501.929932
1052.295166 -19.429993 565.741333
1111.689087 -58.794662 463.794037
1035.941406 -220.234695 609.500244
991.983521 -684.448486 763.488953
1135.480835 -509.622040 889.581787
991.366577 48.039238 601.504822
1009.956848 -12.271423 647.911133
1096.968018 -746.813904 681.513855
1028.337280 53.763931 482.082703
745.020325 -97.027168 710.549927
1086.074951 -775.067932 609.131287
1016.341431 -684.688721 774.765686
1024.791016 -706.798462 861.514221
1132.546387 -723.611816 663.998718
1076.835938 -688.322693 819.981567
858.607422 -268.906128 707.988220
1022.347229 -246.816483 507.622650
1080.857910 -519.348877 1087.853638
1025.940186 79.005379 477.930695
1157.654419 -179.452118 542.791809
1072.227783 -624.411377 940.625305
1439.064941 -314.767426 1015.491150
1088.335205 9.351205 421.872864
893.868408 -383.518982 458.707153
1414.966309 -523.631226 726.435791
1400.371948 -330.645752 1036.897705
1048.863037 -271.372040 413.920319
1003.798096 -784.643433 688.036011
826.234375 -424.730408 520.195313
1173.511841 -672.308960 702.398010
1128.223877 -540.678894 823.867371
834.242615 -308.386139 628.049744
1279.406738 -655.715454 555.039856
1153.909058 -521.372070 711.550720
968.264099 156.719391 511.341187
951.513977 -307.810059 496.318726
979.804626 -663.233398 987.054199
998.509094 -191.095383 669.035889
999.257813 -308.385681 475.102081
1030.203979 59.864334 486.813171
1153.938232 -671.513611 760.724304
852.026917 -387.992340 467.957367
946.262939 -248.925415 642.023926
1048.423096 -170.332504 671.932678
1011.664429 -650.596191 905.612549
953.422180 -726.413086 892.374512
949.326294 -779.020996 770.459167
1104.599976 -573.933594 922.675781
1020.398071 110.022400 464.942749
1331.481689 -374.813934 947.585266
1086.463867 -547.393616 1010.518860
1280.393188 -622.577393 597.614685
1052.110962 93.420731 382.869965
1230.164185 -662.200012 501.486084
896.698608 -335.489746 508.043915
884.393311 -344.461487 473.105896
882.457336 -372.744537 441.150391
1057.267822 42.174629 456.342102
1252.512573 -452.708282 943.482056
955.491455 118.435234 589.191162
960.606567 -814.746887 694.829712
1036.128174 -580.632385 1062.879883
997.655212 -254.747681 560.359558
1015.077576 -25.470802 652.406677
1086.645752 -777.520264 631.861816
990.353149 191.299026 492.249268
1066.058594 -199.640610 612.049805
919.679321 -337.154449 473.811920
1028.820313 -46.664688 646.587341
758.200806 -368.313538 686.488708
957.538513 -753.642761 828.300659
988.950073 17.802372 631.151917
818.563843 -421.994202 530.208679
1100.451416 -22.886765 433.736603
1007.971619 -708.597595 823.391724
1210.089233 -509.438538 943.878052
1268.420898 -511.217926 880.277893
872.342224 -290.849823 595.722778
750.765808 -390.450775 683.699951
868.141235 -264.212372 679.760986
1086.816895 -14.009026 443.463806
1102.340332 -673.413208 796.740906
1153.682983 -499.663605 1010.093994
807.970581 -367.203064 566.472046
968.859924 139.165451 527.583435
855.791687 -313.884064 645.626709
1138.590332 -528.132263 815.088501
919.309875 -379.046509 448.766357
1014.128296 -277.216522 449.511597
851.516907 -424.621613 465.641083
853.025879 -350.530182 501.956329
1392.742676 -581.061584 629.673889
776.237427 -361.120544 719.995667
1042.086182 103.987228 404.592377
1227.361938 -629.088257 661.372620
959.701904 142.904022 553.328979
1428.226807 -330.232758 1018.299927
1100.688354 -213.462845 473.699860
1208.870728 -619.608215 692.831665
1186.098755 -687.038391 664.639221
1368.930176 -364.684784 1046.759399
811.505737 -282.737671 723.136719
1215.532227 -654.111145 692.325562
1235.638916 -719.322815 548.574158
993.739624 -789.232971 692.175171
948.897278 -771.100830 768.448120
769.249023 -430.394226 524.344055
1041.463135 -45.683674 645.074890
1016.587585 -787.431274 674.921448
974.142700 -38.171795 721.023132
1379.295044 -512.116211 728.933777
1019.969604 -785.499878 667.636536
967.921631 11.607436 708.687622
1060.109375 54.465202 411.861267
1057.327026 -655.926453 900.222412
965.835083 -798.243835 674.162842
1019.322388 -549.317627 1002.959839
844.585693 -406.221497 493.823944
1149.271851 -479.991180 722.688538
1002.514954 -746.256165 711.760010
827.144226 -391.680664 495.379974
953.868347 36.899277 686.746399
1058.523193 24.907385 475.498108
978.960022 130.762878 521.937561
934.324585 -292.369202 600.992432
944.101624 202.057312 535.700378
1183.194336 -680.423645 690.748962
937.304260 -794.965393 743.439514
997.985291 150.430176 462.844818
1009.989746 -592.047974 708.194763
1125.371094 -731.845215 651.477722
1023.846069 -710.645142 780.848328
944.130615 -240.762344 631.573242
920.814270 154.747437 624.525330
1057.753540 -522.552795 939.942566
1116.524292 -556.348022 863.989258
822.850098 -342.776825 560.637817
964.521973 -765.853882 743.267883
1011.786011 -591.288330 1056.363647
919.318665 121.634834 667.644470
1028.877319 -762.259460 699.991211
1023.764343 -196.944260 685.106506
977.839294 83.922653 588.306458
1068.874634 -35.978424 552.798889
1000.562927 -807.081482 651.285034
1206.084595 -516.215881 906.356018
794.190918 -359.084351 596.590515
1213.250488 -605.271484 583.266846
1062.698364 -726.734314 739.125732
956.074707 -277.979218 563.837524
942.208984 -751.251953 808.734375
855.707520 -295.468353 607.533264
1027.446533 -722.826965 739.798889
1475.682495 -362.281281 970.535706
1236.901489 -649.070679 633.061768
885.616089 -225.911240 756.097290
839.997131 -213.934357 780.196533
849.588257 -294.649902 675.728333
1047.793091 -210.766998 546.734436
933.468811 76.176163 671.042664
1052.542480 46.579910 447.404510
995.721375 -183.227890 668.301636
1057.884155 -572.269592 985.398987
886.834290 -29.885305 782.478516
849.015015 -423.073059 471.316711
1059.063477 -788.003174 618.067200
927.681824 71.546471 678.956055
1187.086182 -725.368469 618.297913
903.189392 -327.487091 511.959290
993.668091 25.891613 609.081238
957.524719 47.006943 653.226318
1003.169556 160.949738 419.472351
1014.614685 -639.440186 929.410217
966.095032 -751.089417 721.953552
937.782288 61.762867 683.542419
1018.863708 152.973282 416.990082
1020.227173 3.636639 616.751099
1214.325073 -499.950897 957.503784
785.910400 -306.940063 737.022705
1039.821777 -665.420044 889.848694
912.828552 -274.794952 619.274231
1013.615173 160.744003 438.863129
975.274719 -10.867885 729.131897
1128.248901 -684.614502 757.637146
838.914856 -345.848969 532.071350
861.448669 -404.170135 486.316895
1115.810791 -629.391907 828.324951
1085.973022 -252.543243 453.741364
954.883118 118.561386 575.484619
981.606750 -747.020996 795.597046
1211.590820 -685.751160 666.274231
908.838135 -299.425476 604.798218
1052.534790 -678.018005 782.957397
966.151611 -284.746857 559.611755
837.775635 -407.759705 517.030273
798.025391 -416.653168 577.269470
951.131165 163.661179 527.253601
1162.474365 -732.061340 594.097778
945.668701 -727.290649 892.951355
1008.585938 99.302101 503.094849
908.217346 181.659302 610.032043
1211.645630 -715.307861 543.316833
1005.646240 -45.421200 704.049561
924.990234 -192.782150 753.961792
1014.329346 -150.608643 732.517944
1238.509033 -723.372437 499.084137
1014.631470 -796.354980 619.233459
1120.345459 -678.111206 741.601318
934.069397 123.969864 612.473450
1015.586731 -641.291443 979.260071
1301.232544 -498.162720 892.971497
873.461426 -345.362915 529.488342
1143.760864 -220.137863 482.029541
964.845337 121.132576 564.682373
1236.846558 -643.781128 608.294067
918.761047 80.906944 667.117493
928.732605 -327.093262 487.474731
951.677917 -300.522614 510.178467
810.362671 -328.816132 625.279175
1016.593933 -205.215561 659.117065
1285.961426 -365.207672 906.463013
975.149353 -662.543884 955.765564
953.521423 112.380478 594.279480
1037.744263 -538.551697 1088.157593
1084.585571 -553.054321 754.347961
967.714966 -694.819946 937.031311
905.061401 -267.010345 596.039551
1007.489746 -643.892883 711.512939
924.952148 121.775208 608.067688
942.861877 73.762398 660.152344
1027.042969 -24.881582 647.835632
1041.833008 -678.457458 889.729675
1012.311707 102.812332 519.746765
873.701965 -346.860962 523.533691
885.888428 -371.703125 501.459442
956.663391 -709.998474 889.806335
954.540771 -812.659607 659.432068
1182.949951 -661.784058 538.829102
1321.098022 -394.193024 960.887268
833.829285 -277.785065 672.694824
1030.720703 -42.354210 661.163208
1050.794556 -282.694702 443.566315
805.787476 -290.497131 701.277344
1210.398804 -702.671448 629.918762
959.227478 53.837116 653.594971
901.993408 160.836472 634.835693
976.492310 -768.812012 703.945435
836.266296 -402.658722 498.412506
826.535156 -349.069275 572.187866
974.268250 -327.640869 466.744415
1182.572388 -573.174255 652.455383
997.080688 165.712708 486.198853
1007.132080 -696.871643 731.953003
953.339111 -732.757690 878.107971
1249.184570 -653.375183 564.380554
1321.158447 -407.961151 916.391113
1045.690186 41.365383 520.637512
1012.173523 -699.170044 854.799622
1326.839600 -395.139526 990.705505
976.373962 -6.671534 735.762085
1183.214966 -571.698120 689.177734
1083.196655 -644.280334 871.702698
986.550110 170.870316 498.624603
1167.876709 -515.525757 823.106079
883.869751 -419.255493 403.578491
1107.909424 -750.078369 637.450012
980.052551 -647.692505 985.016418
1121.208862 -609.165161 906.607361
1359.821411 -379.726318 969.250427
962.362061 -239.202209 649.777649
785.054932 -360.088715 595.688477
960.569519 -317.993866 458.265961
771.111145 -368.415314 627.742859
1063.573242 -48.646282 565.467346
1038.210205 -765.767517 649.345764
1308.921143 -663.850342 528.426819
1082.346558 19.540171 453.242767
1213.171387 -617.894226 677.718994
971.598022 -227.779068 608.110901
1160.344971 -617.142395 843.686951
933.034546 -735.941223 835.226868
1006.673157 -266.606720 521.260010
811.627991 -417.314545 527.252197
1097.965454 -518.665833 911.629944
991.435303 -327.431885 473.226685
760.254456 -32.145374 748.012634
975.344482 186.370026 455.552368
781.499573 -356.363434 729.535217
1086.000000 -37.900394 503.978027
1300.233276 -467.098328 938.282104
783.678284 -392.565735 597.771729
1098.597778 -10.620306 417.469543
1087.123413 -238.870667 493.614410
1022.358398 135.258041 454.052399
1004.833191 51.176430 577.029175
978.113708 29.010618 660.303223
1071.908691 -700.636414 742.644775
1139.729736 -595.813171 760.380676
797.381958 -268.338409 724.294312
1039.303101 -184.694656 692.428467
1026.957642 64.774422 504.654785
1116.534302 -195.184631 487.620667
997.681458 -153.620117 775.959229
979.909729 -726.381714 863.462341
943.634521 27.357155 713.902100
911.884705 -405.926178 430.855072
950.174194 35.176815 702.127502
1235.819458 -490.024750 725.316895
988.129333 32.783314 591.426758
1001.534668 -725.662537 752.690857
1114.064087 -528.908813 842.290466
1036.239746 7.003161 555.683960
945.180298 95.142403 622.420227
968.523499 -314.475098 478.242523
1015.702881 -650.629517 700.399109
1296.940308 -473.219147 913.284546
1077.722046 -609.305054 950.045532
968.240967 -662.311584 939.255676
1046.630371 8.879186 544.777771
795.503601 -298.165497 710.014832
1099.445679 -627.122620 738.072083
968.963440 122.503479 534.060486
1189.973877 -609.188660 768.936829
1095.068970 -62.324577 482.931122
1018.601074 -504.935150 730.420593
1081.164307 -546.203796 1007.111206
1102.255737 -532.701538 933.208313
1033.190918 -678.842285 896.720581
882.669312 -352.366119 461.908600
781.781799 -401.970856 600.774841
1153.289063 -593.001831 824.812378
1050.288574 -499.409210 702.960144
943.332275 65.965912 643.830627
1083.219116 -547.901001 1050.564209
1010.429199 -609.030823 997.722290
966.279907 -30.217768 769.835083
1054.145752 -569.139587 1000.825195
904.999084 140.860672 632.478394
1192.018799 -574.800232 852.666138
1094.466553 -765.097595 676.997253
960.368042 -193.618835 731.825073
786.242004 -311.291229 698.019409
821.259888 -336.043457 601.634766
1034.202881 35.702801 498.752716
1093.472778 -48.185726 488.057495
1006.921326 -41.292015 649.852295
999.253052 -148.345749 738.171265
1104.717163 -587.515015 941.094727
798.487427 -266.672729 745.427246
1062.452271 -48.677994 549.430115
1269.619263 -612.688477 644.103638
821.943726 -367.130432 553.185059
1294.645752 -446.283600 942.920898
1140.750977 -543.146912 874.645630
1235.259277 -677.224121 564.954407
1115.872314 -523.108643 900.018860
914.487061 -217.749496 709.425842
863.566162 -227.487167 738.852722
1056.902710 -676.418640 731.896973
1075.661499 -663.040222 867.033447
1165.623779 -534.347961 882.143433
779.403809 -350.338409 725.250793
921.203674 191.368423 585.320740
1184.254272 -683.660889 631.532288
919.519531 -377.468903 419.031311
949.714844 158.131073 533.487549
838.646606 -442.607880 509.930664
1414.549316 -311.771667 1058.670654
1007.438538 -776.845337 692.762146
1131.162354 -611.141541 866.796326
777.141907 -404.709808 586.257935
886.737549 -320.194946 558.041504
974.929993 -758.916321 742.236328
961.448181 105.236458 557.385620
1108.106934 -593.425598 933.717041
1299.646484 -513.218384 847.301575
1177.485840 -480.132019 801.773315
958.522583 112.910812 553.846313
1095.770508 -262.671631 461.422058
961.917725 -298.634369 476.026489
1042.657715 -223.576538 570.825073
956.838623 128.772354 561.633545
848.130798 -441.763153 447.281982
986.891113 -688.534607 750.151855
1131.843994 -528.937805 742.193726
1004.969421 -317.850067 452.942505
914.706543 -283.680450 598.107849
784.958008 -379.390228 603.289490
978.005859 -3.951354 680.588562
985.296814 -278.195862 511.983704
1179.264282 -550.865417 753.280701
889.066467 -364.049072 477.924530
1138.062378 -599.662903 908.124939
1270.941162 -697.355408 532.209045
688.819336 -108.825119 727.687744
1003.900269 -644.165222 977.631531
1171.715576 -672.590149 692.473633
1114.748657 -570.974670 903.589722
1230.373535 -631.373230 624.547974
1142.226196 -598.110352 844.151062
793.625854 -422.743866 554.240906
748.195435 -392.329590 648.616028
874.383911 -206.909546 784.406738
1302.608765 -586.296509 605.747375
1020.116211 -550.197571 1086.054565
1075.360229 -12.287751 458.617493
1049.725098 -25.943945 582.443604
909.379517 110.227608 672.765442
1197.799805 -649.237061 724.721741
925.817871 149.159134 593.327332
1017.966736 -696.732361 853.820129
986.160522 -22.122950 681.616821
1052.621582 53.810474 430.530212
958.320618 -744.541260 825.718323
989.546387 74.041862 594.217407
1055.259888 -539.986633 994.031433
1073.970703 -586.226807 979.195496
1034.037598 -699.430908 853.882935
946.388977 -270.719574 549.531799
1098.133179 -774.456543 623.612793
979.504883 -9.302518 684.637268
1160.039673 -482.683563 784.008911
1121.567139 -639.771179 804.065979
1116.517944 -225.102097 503.064636
792.790894 -319.261536 683.813110
1104.699463 -6.496788 412.390259
926.752869 -808.001221 736.929993
773.021484 -402.870667 660.842834
940.981567 175.431503 570.609131
914.171692 -336.398895 518.604431
886.217346 -230.272278 750.488647
921.290222 -327.349854 524.318542
1067.291016 -18.517628 514.885437
825.311707 -343.093933 586.085999
854.945007 -388.236267 499.354156
1014.556213 -16.971062 637.972839
771.614197 -367.613434 640.608582
838.035828 -357.621826 510.471649
1229.493408 -611.143127 717.179688
922.254028 -802.124329 771.405762
968.227112 -340.619446 418.708618
1053.234009 -685.756714 846.984680
918.738281 114.407387 644.581238
1311.166504 -497.507538 860.391724
1079.342896 -273.250305 430.458374
942.786316 51.149372 683.256226
1145.155396 -592.703186 843.669739
1126.875244 -732.682678 651.243958
1417.495483 -540.036804 632.901245
965.316467 -227.753250 664.727295
1018.347473 -652.019592 934.238403
1113.001831 -559.790955 957.309814
1066.327393 -532.429749 949.288513
984.629456 -697.999329 903.952881
923.437683 95.042778 673.924683
1008.783020 -571.736023 1063.354492
855.232971 -346.483673 535.145874
838.581299 -259.167908 751.137695
764.214539 -384.919250 658.314758
1490.376953 -355.024292 926.430664
1003.169067 44.432655 566.621521
689.486267 -132.163879 747.110840
1015.464233 -254.938217 589.898743
1053.445557 77.128540 436.823090
1196.250366 -642.652100 732.683350
801.447083 -333.239868 629.715942
1004.782654 -672.816345 712.156982
1164.872803 -574.211487 733.455627
1016.299500 -616.077515 969.700928
976.101990 -264.488586 521.289978
1096.848145 -611.520569 928.927307
1240.001831 -651.404724 687.537598
771.686890 -422.309937 584.357117
1189.810791 -698.540955 631.983826
809.855225 -290.543457 678.211914
1016.453064 -513.432800 948.927551
983.662781 -247.503784 573.973816
986.332092 0.705540 687.746765
1294.965576 -461.801819 951.360962
994.200073 -270.639252 525.151001
1095.456299 -767.987549 618.666443
1060.901855 -2.685819 510.127472
1104.617065 -538.762878 863.292725
826.600342 -331.478760 575.456726
1073.282959 -3.092910 484.377319
854.344055 -379.019135 466.830994
930.222717 -767.623413 808.731445
919.040161 -295.536987 584.329529
1117.524536 -601.707458 913.028198
1226.235352 -721.844910 509.432556
1026.174927 -792.772339 657.580750
909.157654 -299.748505 539.186584
1005.229919 -288.819763 431.892822
867.216614 -353.311096 560.385132
978.091675 -3.898788 708.846008
937.005981 -771.744812 822.598755
1015.672119 -772.126160 693.829529
912.724426 -211.097794 730.897156
1022.762329 43.089638 541.910950
1031.900513 -755.786621 715.196777
983.678589 -13.694373 665.207520
872.410095 -284.335083 637.484802
826.543213 -312.621521 630.954956
1002.522034 -678.680115 914.797668
869.402893 -278.377930 650.934814
1137.381470 -615.018127 779.547913
973.199585 -211.798065 629.369568
941.735352 -212.541870 683.522156
763.074829 -382.862762 658.762695
883.156128 -247.186920 699.877563
916.775513 150.509277 634.482605
798.215088 -344.752930 609.882690
1008.950317 -303.770966 506.171112
1015.515198 -587.390198 1036.828735
1250.720947 -530.429199 908.604431
823.918213 -419.543121 492.064056
826.780212 -378.227173 525.832886
1060.757690 -652.288574 918.695801
928.277283 -776.837280 770.990662
942.567810 -767.445129 762.283813
913.650269 -229.688309 723.774292
945.900452 -318.020599 491.026672
932.904785 109.978783 630.462830
980.566406 -287.833405 518.847351
769.309814 -367.370575 612.952881
799.142029 -304.842651 736.061951
828.336548 -403.248932 534.981750
1103.470947 -761.666687 610.056824
785.641418 -395.674469 592.253357
1410.063477 -355.100098 947.791321
805.375061 -307.189575 712.353088
853.300110 -334.004211 610.210754
1063.986328 -133.826553 680.750610
1041.221191 54.662769 486.325897
901.648682 -271.202637 653.506531
1161.491089 -708.279724 616.571228
825.126770 -246.526413 724.194031
1114.796387 -614.113281 889.420776
905.941650 -399.244415 398.240265
1065.748169 -559.274780 1037.230835
976.193359 156.724609 488.731323
884.970093 -414.699158 423.981750
890.852478 -441.738007 436.711945
1127.085938 -626.184143 877.418823
1260.512329 -482.432159 937.012207
1119.071167 -519.135071 843.465088
995.937988 37.770615 590.872070
1425.174438 -346.147644 1056.536377
816.903198 -327.886383 665.860107
925.214966 -279.295685 549.242004
1082.714722 -534.236877 945.379700
1426.104980 -544.670410 642.828125
1216.296387 -503.998383 854.474121
979.726563 -21.937323 691.371765
955.876160 -765.729492 828.135925
1228.154907 -620.602844 549.291870
968.126648 -281.446228 541.703735
981.984680 -760.049377 777.568298
912.424377 39.422245 717.288635
1071.561768 -607.811035 954.891235
1135.904175 -496.361847 708.915222
981.408752 -272.733490 498.887573
1212.461548 -655.837830 693.215332
1038.807983 -308.559113 423.980072
1036.588379 -796.253540 622.473755
958.751526 -757.223999 766.948547
939.255676 175.017349 528.636292
1060.744263 -175.120956 670.375061
1093.832764 -588.288757 939.992371
1030.080444 -645.270142 950.261719
1032.635376 -36.391544 593.648438
942.147034 -776.372986 786.341125
1084.280640 -515.060852 896.207825
926.277832 58.061806 702.077393
879.668701 -263.798065 714.165833
875.484985 -229.953598 737.216187
1003.783813 106.796303 472.491241
1010.493530 -297.267487 450.407806
959.665588 -359.325592 389.315430
969.722290 130.126968 514.390747
792.346863 -434.263306 500.182098
1282.760742 -421.802704 935.377136
1047.685913 -648.590271 933.132935
769.199524 -402.253754 657.048218
1092.675171 -527.230042 1023.016174
1204.396484 -483.459839 966.065125
1072.316772 15.448967 429.760712
1087.091919 -69.300056 544.857666
773.113037 -349.986633 632.203308
879.096130 -313.072052 543.050598
960.646606 50.534008 623.306824
995.803467 -33.484028 680.828857
964.743042 17.444971 704.047363
1061.359131 -781.760132 600.507141
1024.259888 -198.480453 596.977539
1008.406799 -802.778381 641.944763
956.735901 25.862476 680.251282
790.997681 -336.670624 637.977112
1058.011841 -548.878540 975.832458
964.695313 -721.512634 832.929138
1063.465820 -191.675888 618.055481
1088.027588 -513.992615 940.110779
1284.161011 -515.811768 889.312012
941.438660 -747.581726 866.315613
1169.891724 -734.487183 553.043762
1011.968994 -764.398315 718.627441
827.870056 -329.739319 598.422241
1006.683350 -712.793701 731.482971
941.992371 183.452911 567.735291
1003.853088 -176.754318 696.104675
956.033813 -691.569580 929.957275
979.283875 -679.385620 924.630432
1253.146729 -579.514221 712.389099
1218.804199 -698.947937 517.937073
977.912781 -672.117371 955.094910
1035.478638 -782.328735 663.296082
1051.803833 -571.679810 989.174500
1020.725769 28.277651 550.184753
1018.814026 -643.272888 976.406433
1029.848633 -585.302063 1031.872803
965.146545 -265.067596 539.375244
1018.775146 -53.550488 678.160645
975.554504 -327.215546 436.906860
1131.576416 -64.406487 427.627045
1200.583984 -661.869385 703.486694
873.783691 -295.882324 582.854065
1137.254272 -521.222778 913.612244
772.765076 -354.698151 715.429260
1026.702148 -269.682678 492.359131
900.492371 -369.793854 454.266418
1303.623413 -478.434448 842.136169
896.880554 -422.583344 401.720001
974.748535 -31.211750 695.565430
1039.665039 -783.978149 612.369995
918.526978 -253.297836 268.828217
1091.821655 -49.034634 486.258820
821.337280 -288.507874 734.901245
1024.263672 53.478043 498.835632
1042.141724 -532.925964 1090.544434
1183.334595 -737.697815 562.457581
952.787476 -279.133240 595.087280
1234.331665 -655.511963 601.604553
1032.552979 -261.091797 462.341400
1001.206177 97.524734 547.835754
1006.595825 -188.745590 682.215881
944.987000 101.820786 592.783386
1035.559814 -221.830032 540.675537
1081.116821 -742.267822 686.553284
832.489807 -373.863037 498.200928
1034.264648 -213.395050 626.346985
1057.346558 -682.165527 819.263733
1050.738647 -163.880814 674.774658
930.804749 -786.484863 783.979736
966.849854 50.433918 619.579102
841.726257 -404.898254 484.035004
808.836975 -245.928894 743.485474
1008.649170 -638.519043 969.996094
1161.217773 -571.025879 794.954712
1077.983154 -47.004635 547.689148
1184.803711 -704.887268 624.914673
1031.730103 -67.476158 683.330200
786.621948 -373.941589 592.198120
840.347412 -262.776215 689.290100
791.969910 -360.435059 595.656677
1029.635376 33.413914 499.183197
1052.319946 -51.670101 602.819702
954.156311 45.830296 642.100708
1147.306763 -487.470886 764.522339
911.093323 104.610153 686.095398
1008.565308 -728.631348 735.695679
772.031372 -366.627197 655.753235
992.912354 36.654766 610.146729
1049.729492 -674.953796 819.861389
1025.337158 -678.400452 891.215088
904.851196 -266.411621 625.545227
1080.307129 -583.221924 982.681213
1069.158203 -562.120483 1025.503784
778.956665 -320.097351 709.622681
1392.576416 -361.699097 1025.598145
834.385864 -320.962128 615.130554
990.574524 -334.927399 436.547699
1012.053833 -716.458008 842.002075
958.255005 -0.286049 695.756531
799.175598 -361.578766 599.901428
1402.197021 -548.383667 639.073792
976.265381 29.432068 644.095703
802.416931 -384.182007 571.644592
978.812500 27.182251 650.910461
750.556885 -384.401947 697.246338
895.320251 91.664970 701.476379
933.991882 -220.799469 680.302185
1009.461365 50.622410 560.749451
967.158203 -807.864563 695.199036
950.410095 193.978027 528.451233
932.189209 -787.262939 743.809937
1137.560791 -527.388733 876.548340
1291.329102 -458.307587 983.885803
955.595276 27.827671 691.775208
1250.723511 -720.390015 537.203247
955.581543 -788.808472 716.360291
1158.547485 -183.634445 535.106689
972.666260 128.436066 520.113281
1037.737793 -17.857660 594.703064
967.882996 64.958229 623.928284
1077.010986 -738.197998 692.629700
1117.613037 -697.122620 717.773315
1191.533936 -684.047180 692.883972
963.944214 54.595562 632.588257
918.548401 114.281311 677.483826
1079.889526 -262.916199 512.751892
965.402161 -689.148804 922.151978
980.762268 127.177017 536.668945
1034.329468 -629.699463 981.016663
750.753906 -394.017090 668.460815
922.071533 95.996681 663.937134
1063.699341 18.797018 428.744812
854.398010 -296.711578 606.424927
1001.921021 -23.278025 695.471313
1199.866943 -596.571594 729.597839
1018.055664 -579.427368 1028.844604
1286.432495 -481.435059 971.056702
961.631409 -744.586487 840.336060
1013.788696 -777.003418 689.437500
1289.784668 -441.996887 961.602783
1189.779053 -692.809082 545.643433
796.100342 -423.928741 526.921692
989.467285 55.857601 612.869202
1198.219360 -720.894531 563.073181
1032.050537 -254.084259 528.945557
993.832520 -722.019470 829.492493
1044.284424 -783.399841 699.854553
979.739197 164.844803 513.503906
1107.295288 -534.031128 1006.182556
1075.754517 14.328279 422.062164
977.293274 -796.063843 672.887634
1007.196350 -605.012390 1055.509644
875.524109 -407.013672 467.057800
1110.467163 -556.778137 874.226746
1192.027100 -560.332458 695.795227
1022.623474 -301.262634 439.612274
1114.385864 -554.705872 929.823181
813.442017 -291.257721 704.548096
1158.769531 -541.770752 735.077087
939.245056 -247.911011 595.729553
1178.236694 -703.007751 605.597107
998.944946 -697.145630 834.038513
1143.029175 -631.108398 846.872925
1282.178101 -556.414001 718.065002
1456.889282 -377.773346 959.054504
1127.558472 -595.490662 753.372742
1240.366943 -729.233948 511.063751
1106.939697 -771.844543 596.281738
1309.560059 -415.762695 950.101501
1024.850586 -179.706757 667.769043
957.332947 17.265753 684.768127
934.976929 84.467598 633.806702
855.171692 -240.435913 729.136841
939.318298 -313.855103 498.645935
1185.846680 -593.410339 631.488647
1280.702026 -441.880005 985.031067
1020.089722 -670.944946 926.200134
933.162903 95.512444 636.898560
1011.582642 12.747818 599.392029
938.194580 -226.387192 666.616516
1015.761353 -268.810028 514.522156
1281.390625 -453.902802 980.023071
1179.393188 -677.036804 649.900208
1158.479858 -555.703613 701.726807
1309.267944 -443.077545 928.281860
1002.700623 -48.540974 677.776367
943.156982 -735.859375 857.722229
911.736328 -313.103912 542.751160
967.701965 38.730019 650.272888
1088.661987 -188.701752 582.804016
1202.631592 -563.072021 662.046814
1080.109985 -35.199638 506.738525
1118.851440 -227.494019 484.964783
864.502380 -403.653107 450.201080
1438.180786 -327.006042 982.630737
1144.864624 -749.695190 591.909241
934.145874 72.265800 671.622375
1013.655273 24.845716 580.646118
1072.452271 -653.101379 874.000427
1012.539124 -628.549683 982.134583
1194.068604 -666.020081 718.225098
839.509583 -340.423676 566.784119
1012.676514 -727.483643 816.407349
1038.033325 36.021626 480.696320
1172.476318 -689.847351 684.187256
1107.884155 -515.025024 905.057922
1047.424194 -50.429626 639.316223
1033.847534 -649.638611 882.973633
903.586731 -374.456146 402.357758
1406.647217 -530.941711 713.974670
1051.749756 -252.787277 515.361389
1100.166260 -578.926575 923.224548
1292.694580 -448.704498 981.959717
952.071167 -251.567154 601.547668
1091.944946 -260.904297 469.411163
