ply
format ascii 1.0
element vertex 1351
property float x
property float y
property float z
end_header
1.143005 774.598328 -791.361450
84.964127 1125.665894 -1106.202393
-216.582718 1094.707764 -1015.714844
-315.261078 1037.691040 -466.629486
1.197602 1000.867126 -1166.638062
13.332937 1113.201782 -1110.695190
76.081764 968.725464 -1150.223389
-156.332062 990.749207 -684.758240
-209.041916 1053.338501 -501.713959
-356.420990 1164.273315 -1118.326416
-41.981930 870.040710 -1191.468628
-101.172150 1080.251343 -428.314911
-101.361099 1089.236572 -432.965302
-354.229797 939.925537 -681.392090
-300.473145 1033.053833 -496.055511
-122.637016 1047.828979 -1137.956909
75.162300 1196.801636 -1086.720703
-110.982193 740.073242 -759.344727
-278.474365 1031.104126 -270.478882
-165.798386 778.121582 -720.165466
-290.717743 1043.675415 -524.097107
-212.372940 1045.226074 -344.748138
-118.725655 1080.524414 -280.929596
-292.579163 1036.203857 -324.065033
-142.284393 1086.912842 -1117.653809
-71.277901 748.893311 -1206.677490
-224.602676 1163.670288 -624.022278
-268.297150 1035.113525 -332.500092
-131.468185 1082.339722 -440.845551
-212.388641 753.109131 -738.755310
-314.345032 1092.637695 -1093.118042
-136.485275 959.970459 -1142.535522
-235.713318 1054.814087 -282.037323
-132.475983 989.876831 -1084.785645
-196.807632 1060.305298 -346.584229
-262.792206 1000.067566 -1148.794067
-263.743866 1037.683838 -245.625778
-156.295181 1071.512695 -417.554871
-54.136303 870.927673 -1172.382446
-332.481934 1028.316040 -328.570740
-203.709396 997.851074 -998.044800
-24.049707 959.975586 -674.513245
-35.168030 1046.960327 -1129.899780
-122.101990 995.561218 -673.349304
-12.606341 1071.980225 -1130.492798
-268.189850 692.093445 -771.934998
-113.248764 696.034424 -770.700378
63.636333 1046.282349 -1139.291870
-197.969208 1069.725220 -481.478485
-291.790253 1027.047363 -328.304413
-181.098480 723.601135 -762.440674
-301.772034 1049.987427 -646.555176
-345.140625 869.449524 -672.021240
-4.828382 1051.819580 -1137.332153
-183.336533 1072.984375 -463.292175
-59.134232 975.264404 -658.656189
-361.125366 764.960327 -696.640198
-135.630325 778.271790 -1193.146362
-217.670364 1052.087280 -354.147827
-148.373535 836.151428 -685.615051
-142.794495 870.035095 -1186.078613
-140.132324 1074.128662 -440.972260
-77.476494 805.101868 -1197.063965
-173.483536 1226.317993 -1081.744751
22.444180 797.253174 -739.964111
-203.752914 805.866455 -692.423645
-35.537659 742.042419 -760.403198
-292.005432 1066.221191 -534.388977
26.436853 974.538452 -1162.475830
-352.228546 996.501709 -670.409790
-447.569214 924.526978 -1172.719482
-381.646912 1007.990051 -412.433685
-277.041992 1030.809937 -307.168762
-159.373215 1062.236084 -365.208435
-22.872869 764.104797 -733.209106
-224.748718 1023.512146 -1135.181152
-82.724594 1086.160889 -309.763672
-200.095932 845.232361 -696.959045
-267.890503 797.123657 -713.013916
-134.071442 734.945801 -740.551880
37.490116 1081.009399 -1133.306152
-333.902740 1123.354126 -1117.181763
-41.024544 876.330261 -693.346191
-105.750389 753.127136 -719.032715
73.876907 949.566101 -1152.515625
-350.573059 1025.785645 -500.417053
-58.541771 885.852295 -676.861328
-180.841919 1065.241943 -499.115021
-275.119415 1010.007263 -1131.853394
-156.316544 1447.683350 -1038.202271
42.360443 1014.963501 -1151.296387
-100.905891 1086.414307 -416.277740
-293.929626 1036.353516 -376.848999
-99.901596 852.540405 -1181.020508
38.309322 1015.310669 -1149.576416
46.647900 848.166077 -736.793457
-164.143906 1049.830200 -331.548401
-293.022369 1069.214355 -1088.032593
-260.657623 726.574768 -735.185059
-53.318947 810.479248 -1202.406372
-235.756149 876.447510 -1179.116455
64.393532 1111.227539 -1105.343140
-149.496094 882.706787 -951.216431
-163.465408 877.413269 -1173.724121
-180.154602 918.818176 -1075.724854
-116.574013 1114.398682 -1060.823120
3.436657 821.455933 -1206.614258
-11.719924 929.063354 -677.828003
-322.404114 1029.487549 -659.609497
46.793972 907.477600 -671.173523
-282.225037 897.226501 -688.091675
-78.670410 1098.200073 -1119.279419
-342.162781 1061.080811 -659.771118
7.621243 927.195313 -676.434448
-329.685272 901.898621 -700.040344
-273.069916 927.322937 -674.669250
-14.466124 1007.575684 -1153.701538
19.087263 787.127502 -752.763062
-346.648865 1054.531128 -552.161133
-136.524323 1070.170044 -370.060303
-313.238739 1032.336792 -351.711334
64.323502 1034.553711 -1143.949097
-182.418259 842.314758 -1189.840698
-286.900970 1024.153564 -654.416382
-120.744034 1058.503540 -1126.165894
-69.275665 1083.294067 -339.726196
-252.801376 1068.788940 -504.429260
-162.331161 1060.765259 -239.393585
-210.139328 1070.331787 -445.459106
-126.892654 1058.137939 -355.760132
-271.965454 752.107544 -736.276245
-191.332870 1055.513428 -383.471680
-157.088120 781.642578 -1210.232910
-57.842728 888.236694 -683.270813
-429.833893 1151.383545 -1097.687500
38.589333 907.068909 -1187.084717
-52.744911 1026.963379 -1159.952515
-154.993958 1140.154419 -649.408752
-70.230209 1215.796265 -1075.314941
-301.869934 1011.407898 -1132.926147
-68.085335 1251.985107 -1068.007446
-67.767914 754.880432 -1205.115112
-69.580704 1097.479126 -530.860291
-144.608963 862.137329 -1131.970703
-85.845573 890.173218 -1167.571655
-150.116150 1068.230103 -408.544373
-253.146439 835.130310 -684.327759
-214.275772 1029.999512 -1117.901245
109.516884 1100.972900 -1128.449707
-332.918365 974.412109 -1075.247070
-293.494537 817.684143 -698.173950
55.882885 1052.459473 -1143.514526
110.131943 1155.686279 -1119.115356
-161.837128 952.653748 -694.305542
-114.500298 1168.104370 -1078.131226
-106.978058 799.417908 -1211.241577
-164.393982 803.651123 -1221.783691
-135.327209 1067.790527 -1105.344727
-37.964420 763.017212 -1211.284424
-355.175720 916.995728 -1105.257324
-26.094301 898.316101 -684.191528
-109.917328 1168.919067 -1114.006226
-49.141361 782.516479 -1219.165771
-310.215912 1032.157593 -311.507233
-101.481705 726.242004 -744.187134
-107.892860 1227.761719 -1075.984985
-14.646942 882.079956 -686.666199
-318.501251 870.921143 -1174.847168
-201.050751 1050.431641 -370.099030
-211.999298 994.564087 -1139.794312
36.538525 898.668274 -1181.042847
-85.861343 854.093140 -1175.027344
-241.779617 1046.914429 -1108.817627
-133.130539 1089.785645 -480.623138
-122.424316 763.352905 -1213.673706
-230.941635 753.550354 -725.224121
-75.577507 856.858582 -1177.320679
-340.919312 1200.439453 -1113.992920
-248.952789 902.892029 -670.800659
-66.091782 1085.214600 -388.970520
-128.616959 1100.123291 -640.035095
-243.231018 1051.301880 -308.224213
-82.325958 1082.809448 -319.532593
-128.968109 786.920715 -1214.995850
-85.544197 842.152100 -1183.744995
-250.790314 1062.575928 -468.382050
37.324825 1048.186646 -1124.937378
-66.759193 1009.562195 -1156.432373
-168.099258 948.226074 -1147.956909
-185.481293 1005.993958 -1035.600708
79.931961 965.593872 -1174.287354
-283.749207 1039.101196 -1114.898071
-28.250933 780.563843 -724.622437
-462.101807 1018.932678 -1128.469849
-106.168846 820.246033 -1178.995850
-227.551605 917.087463 -1194.818481
-146.784180 978.267822 -1029.602295
-178.826157 1020.427124 -660.674438
-191.185272 1050.261230 -632.049988
-281.531616 1073.624146 -552.902527
2.571656 1095.702515 -1100.729004
63.806782 957.800110 -688.416077
-251.075287 950.639587 -677.560364
-4.014112 1079.328613 -1116.648315
-140.106171 927.859741 -684.481445
-248.528793 1045.110352 -312.839020
46.159187 825.417419 -728.072937
-292.277161 1045.310791 -458.166565
-348.296448 1039.974487 -496.493896
-47.826080 729.942139 -756.927246
-233.645767 849.921631 -1173.283203
-119.395874 1087.059570 -492.384094
-243.667755 1048.148804 -242.197464
-142.013718 1081.296997 -1104.361816
-291.940308 1053.223633 -460.544464
-302.087189 819.517883 -1176.033936
-333.802246 1038.038940 -1106.642944
-209.102142 1070.588989 -491.022614
-43.583870 1071.862671 -1066.062622
-278.467316 972.024658 -1150.481323
-351.749054 892.645264 -1166.128662
-333.965790 1034.186279 -430.506439
-356.553680 1024.481445 -512.388245
-200.507111 1048.684692 -647.907288
-386.284668 1017.908508 -504.961761
-118.039047 1178.883423 -1075.398926
36.658791 881.092712 -1193.383423
-12.561589 850.409851 -691.817566
-328.996002 1023.750732 -414.372253
134.079071 1147.295410 -1095.750244
-140.344803 1073.008423 -383.147400
-114.888870 890.282837 -1134.554321
-231.373550 717.299561 -761.672852
-59.420033 763.668823 -730.770264
-129.287445 721.188049 -794.388855
-385.350616 962.971252 -1121.432739
-48.179607 734.398804 -738.416748
-326.689056 1029.219971 -469.628357
17.221188 851.002625 -724.140076
-111.216057 1251.943970 -1031.605591
-148.683411 908.557434 -691.583801
-198.727707 1059.209595 -308.743958
-65.511101 1078.161865 -1126.510254
-282.799896 1033.259399 -347.204529
33.425373 1133.994751 -1115.516113
-86.072212 932.724792 -1137.218262
-196.675217 1063.872192 -414.325439
-273.848541 917.119080 -707.022888
-280.394684 743.097290 -715.616150
24.984682 875.095520 -1187.294556
-110.258896 795.010681 -724.974854
-117.444443 1009.090027 -1159.751587
-334.844849 919.238770 -675.937439
-171.019943 1068.497314 -664.794250
-445.671692 915.466064 -1162.343262
-80.862640 1079.841553 -392.919373
-27.472708 749.998779 -761.633362
-239.181992 1055.171509 -284.984283
-104.300316 1110.552368 -1130.065918
-164.446793 1233.671387 -1086.909790
-101.257637 871.215515 -1074.656860
-203.848160 954.419495 -1166.784058
-321.692169 744.943359 -732.756836
-233.422150 1068.061890 -468.397461
-195.549500 1058.589600 -472.059814
-180.841446 1063.642456 -370.736115
-162.363754 1079.470337 -264.783081
-257.071808 778.969788 -715.720032
-190.983948 1061.204956 -480.825958
-344.135040 1044.821899 -1100.590942
-258.707672 1076.633057 -1044.517944
-195.824356 1048.729858 -272.552887
65.978287 943.175293 -1177.722168
-93.435249 1088.361084 -287.389221
-279.645264 951.372070 -1160.856445
-293.233551 1016.950562 -1127.918579
18.732189 844.756775 -711.603821
-87.448364 1079.779663 -1120.757080
-247.515182 1053.627197 -475.280579
-35.241302 1064.471069 -1057.265747
-270.470215 989.013123 -1147.783813
-371.665680 910.150391 -1156.530396
-7.545270 847.392761 -1211.494385
-106.835526 826.609924 -1170.683228
-106.277443 1041.008301 -662.021362
-267.587189 1048.296387 -415.192230
2.196156 993.161011 -1157.695190
-254.628677 759.064758 -738.786377
-212.111633 1168.897095 -1056.643066
-185.743546 1299.516968 -993.889038
-40.454521 820.446655 -1199.759521
-198.409607 1432.519897 -1010.521301
-39.065018 846.575867 -1184.167114
138.616776 1156.905273 -1099.498291
-17.682398 1022.860779 -1131.515625
-270.089691 867.727722 -1181.829712
-266.068665 988.670044 -1152.360962
-169.760818 1069.126953 -533.005432
-85.585716 1081.791382 -411.572388
-335.609314 1026.900879 -354.417328
-114.606216 870.208313 -1136.833374
-59.958035 873.604248 -1188.143799
-292.455841 878.097778 -1179.481567
-365.049347 896.773682 -1151.145996
-293.382141 799.932068 -1184.104126
-307.442017 850.926514 -709.048706
3.550851 938.421570 -1172.143555
-214.568115 1064.374023 -320.166168
99.876984 1053.137817 -1151.020874
-260.930481 836.391235 -715.513428
-158.124313 705.950012 -779.228882
117.342621 1059.599854 -1124.006592
-45.243263 1168.572388 -1073.144775
-365.247162 887.934082 -1091.560669
-296.415131 1146.999512 -1082.634399
-364.210449 887.125916 -1087.135010
-343.403290 896.663940 -1159.439453
-45.258724 841.899658 -706.100403
-193.423203 996.314819 -684.249084
-246.550034 698.614990 -742.878601
-188.177368 710.494324 -767.054749
-25.619408 819.383484 -1186.079956
-90.221176 1214.540039 -1062.308960
-48.855873 1018.182800 -1147.550049
-83.933998 1092.740723 -502.995239
-194.268829 1079.105591 -501.892151
-76.021271 883.172485 -680.301575
-71.232918 1112.791992 -1078.463013
-112.394165 1270.538330 -1056.977905
-320.040894 1029.436279 -458.950104
-161.721786 1076.770142 -460.886932
-240.428680 1050.570190 -380.417114
-281.784912 1045.707031 -429.008270
15.344327 1091.079346 -1077.564453
-265.334869 1048.269165 -327.490875
-157.963379 1034.831665 -1081.093262
1.917485 1025.046387 -1132.495117
-140.203522 1238.735107 -1047.419556
-24.876778 1078.666992 -1126.205566
-36.341423 1015.314514 -1163.609253
-216.135971 1053.671021 -317.578583
-210.802750 931.533691 -700.485291
79.949600 953.612854 -670.093262
60.641922 848.278076 -730.358948
-155.340240 1094.390991 -512.861572
-63.979927 786.426147 -1197.791504
17.449270 933.603149 -1158.664429
-32.730801 797.309631 -722.671204
125.425819 1133.842529 -1118.793579
-212.152420 692.790710 -781.956299
-27.523407 902.077576 -674.453369
-203.169022 1085.145142 -492.278534
-122.225937 962.410706 -685.260803
71.601425 1157.485962 -1097.851929
-36.534515 892.194702 -696.454285
61.836693 902.671021 -1182.304810
-193.025360 1069.274536 -454.876465
-312.708618 1048.920288 -449.319183
-148.523544 1119.096680 -1114.313477
-317.303040 1029.097534 -263.580933
-301.438354 977.244507 -1124.021484
-238.223999 962.765015 -673.421204
-211.498047 1414.919189 -1030.212524
-135.538437 891.502869 -675.409058
-32.884865 756.111694 -749.527283
-172.843781 1050.459473 -356.844147
41.619518 946.085693 -1183.394043
-125.384071 727.077820 -751.801147
-320.056488 847.087769 -697.914856
-279.873779 1045.598877 -281.001648
-222.698105 1045.396362 -258.690369
12.336422 1199.335205 -1080.937622
-21.479042 836.137939 -1196.384155
-272.953766 1049.067261 -396.932983
-21.322218 891.634033 -1181.354004
-84.124580 1323.664917 -1054.424316
-4.332839 876.363892 -694.898132
-151.950790 1010.248352 -669.951172
-401.664246 1043.972778 -1121.228394
-41.864601 796.632385 -1207.942627
-316.517883 898.777222 -684.729248
-28.317720 974.657166 -1172.157593
-33.268372 825.258118 -1209.514893
-60.110947 897.866150 -1188.810669
74.281471 1110.465820 -1105.792236
-224.392761 856.393799 -712.292969
-172.968674 726.156616 -738.038269
-310.431091 883.459412 -1190.373901
-86.761787 859.669250 -685.580200
-262.205322 982.026245 -1148.311768
-243.237244 983.757446 -690.365173
-66.898590 776.105164 -1212.453613
-266.204834 732.838745 -715.084656
-126.402000 1092.310913 -1108.843262
81.855240 991.648376 -1154.855469
-244.755783 843.614075 -714.962524
-140.877777 1353.008301 -1017.001282
-100.691483 1071.564941 -1061.109619
-71.804199 777.585571 -711.931335
-118.224831 1375.236206 -1037.073975
51.067627 945.069275 -689.250671
37.202888 1023.269104 -1159.916504
-254.095016 1043.566528 -375.173615
-294.327362 1023.859009 -311.872681
-296.291840 1065.386353 -1081.285156
-118.879631 977.700623 -1160.465088
-46.589260 921.194214 -1176.143311
-170.213409 1079.436768 -476.931000
87.737640 1096.765015 -1120.628052
-69.308533 924.397095 -684.471619
50.435474 974.205139 -1148.682983
-41.150475 740.173401 -761.626160
25.502483 954.084229 -1175.819092
-209.239471 894.939575 -686.933716
129.545486 1121.214478 -1115.354004
-163.684418 1050.885376 -281.006439
26.746634 888.635498 -701.841675
-251.296432 1020.289917 -1133.266235
-17.020435 947.643799 -1167.260254
-113.914101 719.716125 -753.805786
-362.350403 1018.210388 -309.907684
-1.599863 778.877136 -732.113708
60.986023 1092.599243 -1108.095825
60.973080 949.951355 -1168.951172
52.587261 898.484924 -1196.329224
-231.856171 1044.275391 -268.532562
-361.265228 892.008545 -665.501953
-145.349945 945.915588 -1053.715454
-227.696869 1054.022705 -390.472809
-216.948837 1074.377563 -639.837036
-149.138214 1167.940308 -1086.622559
-116.042511 1091.873657 -483.743408
-211.582626 1475.378540 -1027.743774
-332.682434 1030.252197 -397.171234
-223.516327 1041.769897 -286.106445
-135.201645 1087.997070 -527.606689
-121.059776 1217.286255 -1055.217285
-420.646393 905.602722 -1135.414185
-137.781067 1067.933472 -362.686035
-210.212341 1058.938110 -419.053009
-6.543536 814.739380 -1219.320435
-393.497101 1150.326904 -1064.686035
-397.258423 1001.987427 -350.075714
-327.479584 1017.635010 -397.283112
-446.492798 960.519592 -1134.383789
-345.884491 1011.144958 -295.810760
-271.289276 1016.089478 -1047.069946
-180.787567 1073.404053 -286.956573
-147.172852 1224.247192 -1103.553955
-87.897263 760.261047 -1213.490112
-112.304138 967.175537 -1088.223999
-235.501785 699.322571 -759.185913
-162.176270 1376.551636 -995.126404
-105.544228 865.675598 -681.680115
-174.012924 879.417297 -1185.283936
-50.308319 1112.182495 -1119.741699
-326.688416 868.838562 -694.758667
-283.624115 1038.735840 -1126.090820
-140.675262 729.354309 -742.618225
-197.034897 819.565979 -1182.633667
-101.284729 977.833008 -1155.257690
-241.847687 1037.212036 -278.606506
-100.147797 1077.441650 -350.517731
7.251575 776.451233 -764.079407
-332.343964 1031.982178 -432.776031
-198.161011 1065.251465 -418.245209
-72.649559 997.515259 -675.120667
-188.072708 1031.770752 -666.683594
29.649403 1157.824341 -1090.574707
71.773117 963.327271 -1178.297241
-39.923115 1118.150513 -1072.447632
-130.737259 1023.886047 -649.733154
100.507080 1152.571899 -1084.275146
-88.377754 877.508911 -1182.157593
-345.280182 806.069519 -710.209900
-294.491791 1038.446167 -455.768463
-75.359497 1012.451965 -1158.543579
-173.939209 1061.881714 -364.182159
-79.705513 1053.564087 -650.118164
-149.999084 937.242981 -664.657471
-219.039841 851.699646 -1204.151733
-127.526299 1071.550293 -272.580719
0.563899 935.347900 -685.402039
-342.864502 1015.535767 -980.947388
-186.584106 718.493164 -740.032593
-214.757187 786.576538 -710.917542
-129.373825 997.057129 -1153.873169
-184.578033 721.721680 -746.137390
-147.208252 1061.811279 -345.498230
-323.315582 826.920654 -1175.382080
-163.737183 1061.166016 -245.620392
-50.023418 801.918762 -1219.452393
-167.603821 1037.245728 -646.930054
-293.769073 1000.344727 -676.911987
-97.662804 906.384521 -1163.251221
-362.958496 945.008972 -1150.873657
-332.785156 1028.974243 -489.860413
-80.988228 914.449890 -1161.399414
-99.826813 1318.483521 -1044.006348
-370.101685 885.321228 -683.438721
14.134528 849.349976 -705.208984
-2.040694 968.232910 -1149.440796
-194.184174 1056.537964 -345.711670
-430.392944 1057.941528 -1119.978394
-282.290314 1070.496338 -544.421204
-272.808167 1035.458496 -1120.943115
4.796593 778.969177 -744.975342
-110.312210 726.044189 -751.038940
-174.082413 822.927979 -1193.079712
-109.864777 1027.292847 -1129.246948
16.965820 810.203674 -731.082581
-221.707397 905.466064 -1197.378784
52.330360 826.730530 -732.072876
-187.534958 1067.396240 -421.194305
-112.655060 1065.626953 -305.880524
-146.254974 723.471863 -749.576965
-196.340622 750.097229 -1203.011230
-205.594650 832.668945 -696.724487
-301.647919 1042.254028 -440.629822
-3.723115 747.105713 -766.372742
-410.931213 1187.994019 -1112.235596
-162.681213 807.414246 -1203.711548
-78.575867 1308.535034 -1044.442871
-74.048164 1095.465942 -384.376709
-210.915985 1061.716431 -403.535156
-379.412231 1008.408752 -463.084473
-347.326294 847.091675 -1182.922485
-90.735115 940.179810 -674.669861
53.096058 982.076843 -1159.438721
-132.361481 1093.008667 -542.961914
-60.465408 1092.957031 -522.172546
-409.526703 1094.079346 -1110.633423
-86.611557 767.512512 -1210.180542
-213.663589 1066.892212 -430.785828
-330.451385 1025.231567 -398.842773
-269.187927 1003.981323 -1112.918213
-41.568249 733.158875 -755.034302
-249.109894 798.091309 -1202.269165
-71.266609 975.317383 -1161.585449
-281.284027 728.052917 -736.593079
-99.169075 1081.613159 -435.535706
96.617096 857.513428 -608.580933
-29.628572 719.686340 -760.583557
-133.164551 935.431641 -962.708740
-52.719311 900.239075 -1178.836548
27.659624 1139.019653 -1060.105835
-239.348022 701.445313 -741.349121
-65.320518 826.939392 -1185.421509
-27.770020 894.448425 -1182.007202
-177.611267 1018.959778 -1104.121704
-307.168610 1039.036255 -386.956146
-178.991440 1073.620605 -449.519684
-296.777527 891.451416 -689.421021
-24.877926 1091.715454 -1121.617065
-102.918083 1318.335449 -1038.687866
-90.146706 1078.067749 -403.472534
-195.614273 814.333008 -708.158630
-84.288010 821.052673 -1184.395874
-122.328209 873.057556 -688.962219
-321.019989 1022.113953 -348.283203
-416.997101 791.708984 -508.370239
-75.919952 1086.735107 -425.971039
-158.396805 1078.827881 -1039.331909
-44.922058 1103.864258 -459.601379
-264.782623 1035.314697 -407.187317
0.401391 1028.723999 -650.047729
-321.286835 1004.648193 -662.623840
-370.427277 860.516052 -1175.647095
-100.284409 1018.119507 -1161.988892
-364.611542 1026.425293 -450.293488
-340.447388 933.125366 -1137.800659
10.683142 935.443237 -1177.200439
-437.716858 881.220276 -1157.641357
-369.478363 1010.862488 -349.540039
60.946270 1056.244873 -1134.222046
-121.342728 1366.594238 -1026.618896
-246.187561 998.758667 -1065.180908
-122.317902 1106.350586 -638.786316
-335.405701 1091.979004 -1098.565430
10.018545 1079.522217 -1116.588501
-103.520332 1034.066040 -1138.510254
-269.984711 1041.120117 -306.662750
-201.500458 828.803894 -1190.316162
-172.035828 830.802002 -719.759033
-323.698730 1032.170288 -387.591797
-244.138535 880.974121 -691.583374
-185.711227 905.286926 -1130.648682
-199.421478 1076.508179 -483.002563
-160.623276 702.468323 -741.262878
-96.586334 964.717285 -1148.522461
-68.848015 878.334534 -686.303650
-243.009552 715.692200 -760.576538
-193.198654 1025.508423 -668.331421
-403.623138 893.941101 -1177.002441
-135.644257 722.328613 -738.274536
-233.129578 1053.585571 -312.669556
-86.442467 970.690125 -1167.516602
0.999055 1072.890503 -1137.700684
-186.073563 847.007019 -719.587585
114.910492 1070.697266 -1143.536987
-211.945114 849.313171 -1173.742554
-252.661011 786.439941 -1187.147217
79.453972 1207.467651 -1087.259033
-162.051727 906.778198 -1131.146729
-372.010071 1148.187500 -1093.066284
-105.758804 1069.747437 -287.919159
-288.812073 1054.246826 -505.693665
-314.081543 1026.100952 -394.813446
-8.948122 806.192383 -1213.123047
-99.383331 1059.615723 -1132.040039
-202.955048 811.376770 -1219.098877
-396.796448 929.174011 -1080.855225
-159.870422 715.045715 -754.619324
-315.463196 1038.308228 -527.205139
-119.926865 728.492249 -734.890564
-288.411713 751.267090 -705.881287
67.831772 1132.639771 -1108.119995
-158.500443 700.517456 -757.775818
1.949023 802.998840 -726.740356
-52.328751 826.632568 -717.491272
-176.433136 823.710083 -714.854126
-83.771179 1342.836060 -1046.299927
-75.335258 957.213989 -1150.295654
-50.070412 955.432678 -1164.681641
-225.670486 1064.781982 -654.087585
-265.467316 1037.635864 -648.866150
-281.241150 1039.891968 -411.935242
58.816483 1001.567505 -1160.755249
-213.068634 722.888611 -761.031006
-434.343811 1029.756958 -1118.789795
-115.716583 1072.223145 -656.361023
-154.102692 1419.977539 -1027.170288
-157.254425 1079.254150 -640.337463
-131.195343 1059.420410 -1113.747925
-129.822922 949.892700 -688.731934
-196.014328 1063.067383 -544.416565
-91.079918 1073.991699 -346.524139
41.074806 1091.038452 -1128.545532
-116.516678 813.749878 -718.410767
-215.536392 1053.837769 -370.861420
-193.886536 1060.895996 -352.676239
-171.390533 828.077637 -705.844727
-167.708252 1100.898926 -622.429382
-105.725807 910.418884 -1162.257324
-19.391378 993.366943 -663.221802
-125.507858 841.747925 -696.531067
-126.084740 723.233704 -740.511414
-66.646141 1083.509888 -397.423431
149.110886 1147.993408 -1114.865967
-303.713654 1037.618774 -323.391510
-54.521328 765.037170 -748.746094
-263.537781 992.459229 -665.021118
-83.692123 1096.010620 -473.275269
-156.664185 1052.588501 -277.493683
-239.856506 849.940735 -1197.803345
-142.379868 1226.166016 -1051.925537
17.800200 752.172913 -778.803528
-55.106686 820.574585 -1199.361084
119.247200 1071.464355 -1133.972534
17.149593 1016.941650 -1135.428223
40.334713 1041.140869 -1153.261963
19.073614 897.211548 -702.704468
-170.832031 1093.295898 -623.633301
-63.738720 931.596008 -675.588379
-242.970016 891.256104 -1177.117065
-49.378620 1088.588379 -1120.154663
-296.579468 1036.098877 -242.021774
37.701172 1050.332642 -1122.160400
-65.355057 877.499146 -1173.163086
-124.796837 800.387512 -699.023254
-153.271759 805.310425 -1217.421021
-105.085220 1107.737183 -523.380005
-251.924881 878.734131 -1181.164917
-58.491165 886.910461 -703.555664
-80.439880 945.757141 -665.817383
-148.453812 1066.359741 -398.260254
-106.032379 1068.484131 -400.032471
-292.769958 940.484314 -682.239929
-120.529167 793.692749 -711.592651
-225.231461 1039.441772 -344.879303
-165.241608 1075.694092 -634.637756
-258.527740 1035.542480 -383.294769
133.067261 1162.953857 -1091.964111
-107.381958 924.750549 -983.593140
-15.408596 913.391846 -1181.698730
102.411652 1007.153137 -1150.362793
-154.886734 1067.888794 -1101.382446
-106.561157 1052.591797 -1045.907349
-81.039543 834.886414 -1185.448853
-77.466049 1184.062988 -1071.860596
-103.577911 1236.868164 -1094.255127
-278.495789 1043.439087 -1093.251587
59.668770 841.256165 -737.367859
21.386684 977.037292 -626.280212
-20.984142 1077.925537 -438.865326
-349.670502 1025.487549 -402.761078
-45.352474 821.118469 -1199.071899
-290.523499 925.824341 -1161.964355
75.672852 1013.686218 -1135.408813
-203.468033 1058.252075 -373.141022
-330.063263 837.403137 -679.041321
-100.963524 1095.028198 -471.343353
40.680069 1091.090820 -1100.757690
-168.274567 985.656555 -1091.700806
-427.499542 890.783752 -1167.688721
-106.251846 913.424438 -686.565674
-176.855728 824.085266 -1183.049927
-296.822937 1050.686035 -478.743866
-321.111694 1039.215332 -486.842316
-263.384949 862.816162 -1166.988281
-97.462830 887.870422 -1136.979004
-103.865196 836.536865 -1154.231323
120.293037 1098.437378 -1120.231934
-167.711136 1061.220825 -353.589111
8.528345 1096.691895 -1115.212646
-70.380096 741.339355 -737.645386
-22.534853 856.168823 -1192.008301
-120.765068 745.346619 -1206.858887
-115.798706 1398.811035 -1039.761353
-361.917297 942.627930 -1138.086914
-262.580780 866.123352 -1170.159058
48.525562 996.516602 -1156.446289
-197.512344 751.040466 -1199.062256
-44.421276 923.816467 -1191.584229
-80.034157 1048.496704 -1132.341553
-392.268463 759.791992 -521.625671
-215.291824 1055.875244 -263.820557
-354.153687 974.117554 -1133.887573
-373.687317 896.079529 -1163.555664
-79.049789 944.192688 -1177.210693
-101.479836 1083.084229 -481.147156
-269.613556 1074.151245 -545.585449
-189.628418 1077.715698 -441.377533
-84.566719 1072.919556 -303.467987
-224.639481 902.376709 -687.427856
-103.381699 1075.893677 -380.640930
-247.056152 706.344482 -759.553894
-209.902451 1072.966064 -429.653107
-375.176849 1022.712341 -449.712585
-92.247559 958.562439 -1160.524536
-281.912018 856.607239 -1185.497559
-154.454346 726.059753 -1210.169678
-93.246857 771.207764 -732.613525
-144.628647 1055.428833 -357.077850
-12.913973 1101.492554 -1075.199707
-110.573166 971.826721 -653.109314
-340.514465 882.966431 -669.506653
-248.477570 955.393433 -1137.991943
-150.223267 1076.815552 -370.144196
71.588066 1070.873779 -1123.686035
-67.750847 1106.537109 -1113.562988
-75.074043 1077.484131 -1094.135620
-62.043491 1092.553711 -413.966095
-199.251663 1052.830444 -387.920380
-165.465012 1075.096191 -425.590210
-100.278664 1049.602783 -662.674622
11.009643 950.125916 -1166.592773
-278.146851 1016.774963 -1140.984497
-122.287460 1062.582886 -335.312958
-413.751770 885.589172 -1123.907227
-3.792234 945.303467 -1176.795044
6.955985 1028.396851 -1135.471558
-80.912270 997.377991 -1157.433472
-89.926743 1453.496094 -1003.171204
-308.237915 1036.353516 -647.654907
-273.292542 1040.714355 -443.756104
-262.705322 686.077637 -789.138733
-241.000595 852.353516 -692.243408
-273.374969 1054.618164 -454.346802
-96.096878 925.276062 -1164.039795
-138.542145 1067.165527 -448.735779
-342.342285 1010.230286 -335.997284
-195.351242 841.733093 -1202.583374
-246.281784 1054.336548 -430.320557
-181.863922 841.413574 -1203.095703
-186.198242 840.692688 -1194.903687
-47.317505 958.428467 -680.575500
-91.194199 1358.386597 -1033.457153
-444.417755 941.503540 -1153.962402
41.509987 849.695435 -710.008728
-171.754929 833.873535 -702.879883
-262.521210 911.056519 -707.926758
-18.903109 1074.479004 -1047.513062
-163.842224 1077.868774 -627.074890
-318.270447 1034.916870 -479.262604
-139.932587 1186.874878 -1083.878296
-171.406311 913.557495 -1051.223755
-33.600559 1088.550049 -1049.058960
-66.820335 1094.532593 -433.291229
-155.915604 784.099182 -1202.014160
96.416565 862.873657 -538.765076
-41.213776 1080.601807 -651.408081
-195.520386 810.521301 -1210.708618
-13.799879 968.520691 -653.675903
-197.682953 882.843201 -692.788330
-72.090195 1081.573486 -370.864777
33.456261 892.447754 -1190.731201
-175.165298 1055.801758 -324.558960
-353.648468 966.908264 -1140.729370
-225.766113 1064.271240 -524.297363
-60.368225 978.677673 -1159.487427
-270.218994 1043.787354 -395.288116
-74.766632 1104.967041 -1046.721191
-418.153748 898.080200 -1110.181274
-154.389450 727.334351 -740.687805
-87.722313 1080.253296 -390.925568
68.532562 1050.543823 -1147.298218
-93.119164 814.832153 -705.101013
-262.880798 1077.280762 -534.087585
20.461376 757.643250 -773.224915
-22.362934 741.552063 -751.407532
17.383827 898.754028 -687.397705
-328.040741 1037.244995 -446.335938
-80.382477 1017.411865 -1132.553589
-172.954376 688.325256 -769.814758
-95.486481 835.109863 -1190.138062
104.653839 1128.518921 -1119.629639
-219.003662 1084.503174 -529.125916
-174.019867 877.583618 -693.603333
-11.409844 875.086121 -1196.582275
-349.576050 912.157654 -1164.161377
-136.843811 721.414612 -753.259583
-160.137207 1236.853638 -1076.985596
-222.229324 829.754639 -697.966614
-87.884705 903.234375 -684.471802
-100.626648 730.605103 -1211.039307
-328.463867 934.607605 -1158.334961
-29.558762 794.122620 -1208.856689
-297.302277 727.009338 -736.756653
-211.296677 974.914612 -680.394897
-87.462158 1085.666382 -403.774933
51.157127 941.309937 -490.628754
-153.407928 748.825256 -720.592957
-188.345703 1061.448730 -527.492188
-261.692078 856.304688 -1181.863281
-55.862324 1031.816650 -1156.256958
-50.181679 771.233093 -727.461914
-320.490448 921.907471 -1172.211670
-289.219238 1068.626709 -533.920959
-269.806732 1070.464355 -536.516296
-107.801270 1025.061646 -1159.144287
-4.581310 807.348755 -710.709045
-329.804077 1030.563965 -328.264587
-247.088287 767.827637 -1195.223511
36.738991 891.586731 -674.602661
-280.244598 1037.703491 -314.288116
-94.638855 1095.964355 -521.818298
-378.375519 1007.249939 -321.805420
-118.842628 1082.427856 -492.315460
-205.152924 944.101074 -677.093262
-13.508678 784.024719 -727.972961
-262.295227 1031.177734 -1118.208984
-30.494881 817.152832 -1203.872437
-366.560791 951.089417 -1115.436279
-141.257919 1071.702026 -388.074158
-239.310928 819.909546 -1181.140381
-329.592896 1034.786133 -430.532227
-68.936600 1087.604492 -1090.017334
-153.088959 930.161499 -1086.443115
-16.139978 893.748413 -1169.669556
-241.702194 1046.011963 -644.764709
-170.599319 1063.261841 -281.940125
-322.821289 1030.099365 -435.088013
-156.029297 779.311890 -1219.405029
-80.349182 1102.892700 -1041.423584
-109.356979 819.532227 -711.973083
-387.635559 925.486877 -689.484741
-222.762482 1047.082031 -392.507080
79.163277 976.364624 -1175.084229
-311.120178 1050.255737 -499.515015
-113.309334 1274.554688 -1061.124756
-355.244171 1017.845947 -1091.786987
-126.707779 1084.531250 -529.474121
-285.006897 1004.656128 -1136.504639
136.584427 1153.858276 -1113.365723
-19.594494 1092.930298 -1130.546997
-235.509079 1029.017700 -1131.599609
-198.476685 1070.787842 -464.309357
29.319185 1125.784302 -1089.901733
-75.191994 1073.775757 -340.377136
-190.123596 829.804626 -686.631165
-22.199072 1069.794556 -1137.071533
-108.143478 709.970764 -755.746094
123.888237 1120.977661 -1103.747192
33.727554 1093.682861 -1092.772827
27.274588 811.931824 -719.941895
-223.372696 793.756104 -714.426941
-304.597748 865.572327 -1181.940674
-19.465851 814.988220 -1210.706543
8.572247 971.511169 -1163.695190
-33.584694 839.024841 -1202.490723
51.735554 894.728088 -684.888245
143.067688 1159.058105 -1107.668457
-208.370468 741.809265 -732.944885
-264.552368 1040.954956 -455.414642
2.758958 847.302246 -708.157593
-100.645042 1105.452881 -544.787781
-48.248154 774.303528 -716.767761
-316.572968 894.469727 -1175.651123
-293.767914 768.550842 -718.601379
-148.007156 907.972412 -681.289856
0.804572 1068.875488 -1124.566772
-381.549561 923.365173 -1146.076904
-312.692841 748.214478 -728.433960
-85.281921 1271.976196 -1058.227051
-309.968842 992.596436 -1155.312256
-91.698097 1276.116943 -1087.900635
-104.834312 947.786865 -1152.382202
-89.251556 731.345398 -751.261536
-311.813019 1043.521606 -491.600311
-102.857872 1194.681763 -1073.801147
7.511227 999.341553 -1155.997681
25.930847 1084.831787 -1048.969604
16.166178 844.315430 -705.176514
65.409164 993.266418 -1156.446533
-42.127697 960.948059 -667.952759
-122.662003 1065.272339 -304.956909
-251.070435 927.995300 -678.922729
-216.576324 764.288635 -724.149902
-302.500671 843.111389 -700.187927
-357.687134 1020.266296 -292.907532
-84.734833 804.058533 -722.145569
-109.588470 872.579651 -1143.973999
18.061073 1076.388794 -1134.204468
-203.944565 810.615906 -729.064331
-47.851250 934.639343 -1173.791626
-131.803787 804.643188 -712.964172
-138.404343 870.260010 -1192.575439
3.351436 756.621887 -749.689880
-299.297028 894.334106 -1160.231934
-298.463684 975.458191 -680.748230
-254.611984 973.619446 -682.167908
-94.705460 853.175171 -1119.838989
-334.081116 1028.111084 -389.492340
-200.243134 1053.653320 -255.445663
-151.472580 1064.309692 -342.110474
-142.165527 751.633179 -1213.755005
78.070724 976.810974 -1160.482544
-98.596466 954.690125 -962.515747
-12.995803 1051.040405 -648.484680
1.645879 905.430115 -1187.799927
-1.893959 891.331177 -1183.167725
-55.264648 837.418884 -1169.979248
-136.111115 812.318176 -1198.602417
-356.276978 1014.158142 -392.455750
-280.531616 921.364380 -1169.292114
-116.850151 865.604797 -1122.690674
-283.013580 1049.446411 -462.821533
-209.531464 683.013916 -772.645813
-126.870300 1177.139893 -1080.679688
-223.081665 933.082825 -1169.482666
-288.650208 873.254517 -674.903076
-155.571060 830.647888 -699.677307
-365.317291 954.459595 -678.180176
-106.282166 1082.475708 -1069.598022
-230.661118 869.943848 -686.810181
-302.485657 803.175232 -1182.677856
-341.124725 940.097290 -1138.926025
-50.080933 1084.293091 -388.492218
-41.788807 1089.318237 -477.516449
-203.854553 782.828796 -1194.237305
5.531248 822.806335 -717.633972
-79.033623 1077.700684 -328.697235
-268.925842 1060.440796 -446.111664
-314.253448 1039.551270 -475.513397
-128.417801 1086.373657 -514.943909
-213.064804 968.285522 -1161.495605
-100.078094 1072.726563 -326.478149
1.988819 1081.524536 -1131.050293
-166.492142 778.522461 -735.309631
-296.187256 932.997009 -688.510681
-264.956696 1062.029419 -516.699219
-293.315216 1012.332642 -1131.763184
-421.063782 885.025452 -1161.656738
-286.067291 902.339111 -1171.112427
-274.572357 1046.627319 -473.819336
-231.843124 1060.314697 -1101.985596
-24.202801 759.425110 -750.748352
-163.284103 834.986816 -698.576355
65.899261 867.907349 -526.872681
-147.876587 1072.570190 -1049.243652
-328.429138 1017.408813 -283.638092
-149.826126 1003.483826 -681.213806
-74.605789 916.750244 -1144.480713
-103.046616 1088.100464 -424.846771
-338.965027 1029.455811 -408.165131
-118.181389 700.919006 -778.424561
-109.472878 863.544617 -1064.626343
-79.198067 790.934082 -1208.004272
-210.913559 791.497070 -1205.681152
-229.428329 698.752991 -759.741028
56.521683 820.399048 -728.788452
-72.941254 884.658875 -675.849426
-248.430344 701.139282 -757.451843
-208.623322 757.288086 -721.111023
-102.454155 820.771973 -1169.240967
-338.841583 1018.718567 -289.396729
-97.036568 1080.372070 -1093.361938
-127.844856 1036.711304 -656.098877
-50.240211 891.106079 -1167.735596
-282.935425 1039.090088 -330.798645
82.916687 1052.737549 -1137.562256
-123.411636 1076.036377 -296.943146
-337.437286 919.597046 -696.958679
-101.290878 851.664429 -685.905579
141.598724 1115.737671 -1136.677124
43.193268 1110.550781 -1061.406616
88.802139 1130.105591 -1076.649658
-290.203339 752.953552 -745.872131
-92.139938 989.110229 -1167.374268
-147.659454 822.136841 -1176.187134
-45.120693 957.713623 -1173.704346
-53.228844 1034.500000 -662.136108
-285.706238 780.236511 -716.022156
-273.550598 1057.727539 -277.793243
-64.913803 774.758606 -714.107239
-95.456619 979.659485 -1144.126953
-297.831421 1028.529541 -332.045898
9.360511 790.788269 -728.470764
-110.974182 1115.204346 -1101.824219
85.883919 1063.354370 -1055.608398
-191.039185 967.833496 -684.259460
-107.797798 1067.074097 -273.516510
-105.206276 1071.749268 -636.226929
-263.788391 1049.866821 -659.350830
-203.158691 849.795227 -1188.027588
-13.120049 958.906738 -1181.453491
109.798264 1147.669800 -1103.423950
-145.615479 708.928162 -748.987427
-101.800690 1501.784180 -987.521362
-342.078003 835.727173 -1185.675171
-152.411255 833.585815 -713.358093
-133.403397 839.569092 -1097.839722
-253.625702 1009.431946 -658.844849
-227.898163 1014.382813 -1145.021851
-278.098175 843.251953 -1186.635742
9.915105 1062.510132 -1139.574219
-313.750183 1025.084351 -385.105896
-73.595566 803.248169 -1217.729614
-176.681335 873.839233 -701.047913
-373.010376 1024.225586 -453.407654
-104.254303 827.994629 -1110.087891
-312.930389 716.645081 -738.638245
-362.284729 939.321045 -1141.980347
-233.970139 819.008667 -700.929199
-232.867355 814.881592 -1195.293701
-274.528168 1019.324402 -1150.020386
-222.381912 812.919617 -724.056519
-104.475967 1068.384644 -356.568634
31.903505 1101.598511 -1079.438477
-260.596985 767.170654 -723.114319
-82.414268 958.675537 -1159.181274
-290.885590 1047.128296 -466.022003
-384.935425 868.105408 -1146.856812
-77.961678 858.867065 -695.658081
-351.113281 908.285583 -1162.546753
67.764313 1202.882202 -1084.566162
-172.955093 1002.936768 -1078.472900
-89.661552 1071.295044 -1117.609619
-255.934326 755.921692 -720.423218
-311.765350 1031.347412 -365.914185
35.469288 897.179932 -689.984314
-76.402245 1086.843750 -489.278107
-117.157188 1072.656006 -379.499847
-91.519188 1091.601929 -438.714600
-65.800499 1223.561401 -1073.871338
-226.261215 942.558472 -1182.404663
-392.976074 1197.169067 -1090.212158
-209.012115 1051.888306 -329.393127
-83.298164 859.043884 -696.260742
-58.156200 849.267700 -698.082947
-186.454880 1059.800293 -337.284302
-113.105942 1065.235840 -329.616119
-105.806725 911.322571 -1161.854736
-166.749466 954.246826 -660.773315
-164.727921 1083.924316 -529.432922
-347.331635 818.892761 -691.516907
64.126457 972.503479 -1162.864380
-337.748169 891.674927 -1188.150879
39.326546 1176.996338 -1068.745239
-165.264023 1059.940063 -307.369598
-105.988739 1095.913574 -640.225403
-40.908943 1199.948242 -1061.394653
57.872890 936.225769 -574.368164
-263.421906 1074.261230 -525.035828
-171.754257 1172.904419 -1081.352417
-201.464142 717.353027 -738.880920
-336.837555 1027.022461 -306.908142
-63.177673 1088.445313 -456.497131
41.184242 904.117371 -697.133972
-327.137756 931.759521 -693.550781
-288.313110 792.005066 -725.565308
-179.139236 820.725037 -694.521179
-161.210175 1032.203491 -1038.405273
-170.956787 710.818298 -765.260071
-34.665848 810.511841 -1198.551147
-306.048828 866.561218 -675.954163
-153.422119 1235.503174 -1073.171387
0.590180 1043.723755 -1141.423462
-363.883606 942.514282 -1139.592041
-66.401070 794.893433 -1183.518433
-184.393967 1002.230896 -1119.625366
-64.601746 1081.080078 -370.293854
-90.671516 1084.880005 -482.302704
-138.967499 883.291016 -957.190918
-274.618591 1063.431030 -276.881592
-233.730026 1045.212524 -1116.349854
-168.408600 1107.046753 -648.781982
45.313396 1169.917358 -1095.149780
-99.784508 1038.660278 -1129.783936
-244.315536 894.058533 -1178.732300
-89.995834 1012.786194 -1134.755737
-225.383682 1057.105103 -518.502380
-333.779449 1021.151062 -426.574554
-176.433762 1047.223755 -251.997513
-237.188995 1039.594116 -263.812775
-167.811142 1056.014893 -319.929321
-134.746170 842.882019 -1176.107422
-168.873947 1077.798584 -409.397339
-124.965508 905.877686 -1137.383789
-183.374207 1059.472412 -395.158234
-300.492004 1026.050659 -653.383301
-201.276749 1071.174561 -384.101532
-149.651932 698.388123 -789.018677
-85.590599 1243.913818 -1088.186035
-111.578056 1084.907104 -479.831879
-15.479204 898.908325 -1184.694702
-121.128136 1011.000610 -679.253784
34.895775 1097.972290 -1103.468018
26.581165 784.810486 -739.360046
53.244160 892.075623 -704.109985
-199.961655 1044.109497 -299.016296
-76.525452 924.291138 -689.790588
86.585281 965.845398 -1172.891846
-256.981323 890.601196 -1178.348511
31.601330 965.410095 -1171.126953
-352.918610 877.853088 -1189.581665
-143.604324 1085.876953 -490.835419
-75.205330 770.427979 -734.562317
-145.162460 1107.837280 -637.906616
9.045678 869.336182 -1188.209473
-333.932159 1044.615234 -437.481781
-59.375874 734.682251 -754.454468
-354.834167 965.805481 -1129.889038
-71.647652 1088.501587 -289.078033
-332.301971 1022.350525 -435.140381
6.169887 935.161682 -1172.022949
-295.564911 1046.193848 -440.115784
-297.141296 844.401611 -1186.589966
20.989267 862.932678 -1194.509277
-156.477737 788.713684 -724.970398
-21.242403 1033.986694 -1156.442139
-122.403511 799.745056 -1198.110718
31.967995 1013.057434 -668.306213
-422.995026 882.490417 -1129.282227
-301.857056 920.636475 -1150.516846
-346.458557 887.488281 -1155.827515
-122.732521 1256.811768 -1043.904663
-334.313843 1026.863770 -345.142365
-376.652740 1023.106323 -505.103119
-119.547653 1082.669556 -277.714447
-291.771667 1032.183105 -431.321472
-212.066498 1059.517456 -353.099915
-50.084194 1095.452148 -450.715881
-18.013762 842.513306 -1193.831543
-75.617966 1131.729004 -1048.985718
-292.106659 897.565796 -1185.700317
-379.599701 1020.292725 -463.196808
-167.151352 999.592407 -660.442932
11.030680 1167.745483 -1079.744019
37.095833 951.364136 -670.327087
-340.817902 968.676941 -1131.473389
-7.616182 1078.865234 -1131.552246
-440.035431 924.473938 -1093.028198
-74.141487 1205.933716 -1062.844360
-306.577393 900.898499 -710.048889
-263.298920 1068.751587 -1090.574219
-100.574829 735.853699 -731.281616
-446.797668 924.339294 -1157.602783
-244.187302 914.186096 -1189.133057
-6.237024 1049.560425 -1139.672363
-172.853088 798.194336 -714.693726
-210.787766 831.909485 -1194.746094
-236.414307 892.206909 -671.182068
81.638397 1103.762085 -1060.111450
-168.490570 809.563171 -1211.038574
-154.211288 1257.602173 -1090.878418
134.998657 1095.710815 -1126.623779
-6.309256 918.366821 -674.010193
-228.787750 1058.053345 -531.260620
-293.727509 874.776917 -1200.870972
-235.230774 679.704590 -780.239319
-244.172729 716.850647 -729.176819
-173.347656 1277.920898 -1037.839966
-377.612823 886.750671 -1157.190063
-97.572548 1103.950073 -533.006592
-181.371384 878.911499 -1183.902710
-135.961472 1109.124756 -1127.029785
-270.832428 709.856323 -746.496033
-0.492507 1190.382568 -1088.221924
-89.436844 813.393555 -699.080811
-15.186683 804.937988 -1190.106201
-21.783955 823.503723 -1207.968994
-311.675751 824.731506 -716.167908
-122.445107 1061.465454 -322.721710
-170.449142 1029.039307 -642.705505
-66.083290 960.619751 -669.000671
-73.505974 1084.011475 -431.475403
-28.788338 1011.569092 -660.880981
-336.338379 1045.156006 -429.362457
-134.678070 846.711121 -1199.180664
-284.966827 798.334167 -713.311340
-256.544342 1039.791626 -322.130737
-138.866638 1020.749817 -641.721130
-417.139191 991.967285 -1119.418335
-254.918640 1045.267334 -323.197052
29.336094 906.597778 -696.043274
-262.683685 1003.670898 -686.299194
-98.979149 763.011414 -1217.644287
9.310917 841.405273 -1181.239258
-226.298996 899.566223 -672.351257
-242.520844 1041.776978 -272.830353
-209.728958 1004.305054 -664.025085
-150.501236 1255.057983 -1060.575928
-141.952759 1063.604370 -357.459656
-112.065407 1070.022583 -315.944733
-344.290649 1033.693726 -404.934692
-305.294220 1045.322021 -1099.838257
-281.845734 1037.703613 -458.597046
-135.510925 752.264893 -714.353210
-161.288101 967.105713 -657.953491
-261.014923 899.232544 -669.367432
-40.837376 954.582153 -1153.243286
-181.121216 1055.888672 -334.436218
-176.379776 1013.872253 -654.167664
-183.017319 790.986694 -1191.878662
-302.419922 1014.366638 -653.461670
-296.277008 976.521423 -1130.646118
-400.620880 1008.021851 -438.729950
-141.801773 1074.708008 -534.382568
59.252712 1091.556885 -1110.917725
-54.283840 1048.995728 -642.026672
-40.571243 962.977417 -1168.796997
-217.782761 1079.076782 -1004.136780
-98.996849 1090.837524 -477.591492
-121.195999 859.135132 -683.331787
-265.631775 1055.489014 -464.145752
-222.257828 1031.749512 -1094.481079
-110.428223 1090.408325 -463.965546
-104.980141 1064.741577 -307.880829
-140.435699 713.342896 -745.696594
-328.408112 862.711487 -686.750610
-22.744297 843.030518 -722.041626
-126.713577 1057.853149 -297.704895
-185.035095 1066.768555 -254.237640
-154.977158 766.124817 -719.165771
-105.760017 1072.276611 -322.880432
-28.004789 991.774963 -1140.511597
-139.565231 1057.857300 -336.557617
-398.802490 1003.824097 -375.711670
-36.109985 987.464111 -1157.994995
-8.450403 817.284912 -714.772522
-411.579987 1021.504333 -483.652832
5.639791 1052.489258 -1148.385986
-140.903000 1077.270508 -450.355988
124.025513 1104.393311 -1119.545776
-79.431969 707.371948 -774.727234
-224.139114 876.920837 -686.612122
-176.771408 1066.334229 -277.788452
-43.884960 711.122803 -754.451355
-81.387672 918.656006 -691.333557
49.672867 1113.927979 -1082.145386
-142.149979 913.041199 -1040.953979
70.433159 1036.522583 -1128.417358
-123.545456 1089.235718 -520.332397
-131.582397 1021.404663 -652.354248
16.846056 983.526672 -1145.540161
-60.348915 833.674744 -1198.161621
-73.648933 748.784546 -727.408203
-57.397697 1151.372192 -1077.516724
-109.942009 1069.889771 -288.004425
-74.767197 1096.452026 -417.640167
-250.233459 1061.345337 -449.970520
-121.547852 1064.149170 -306.942535
-136.618881 1076.167847 -349.675323
-128.910980 766.630127 -1211.979004
-150.034363 1083.650269 -476.106476
-112.614433 1001.418396 -674.456421
45.377235 919.504639 -689.842712
-86.431252 764.836609 -1221.614502
-44.667339 969.173340 -1163.897095
-77.544022 709.800476 -748.999817
-399.757477 931.862183 -1131.426147
-187.069382 1065.563965 -543.821045
-246.414322 725.510437 -736.723389
-118.043442 989.376648 -660.269653
-103.531593 1281.906494 -1061.303467
-245.499374 953.111328 -1161.405029
-64.727570 1033.809326 -1144.872314
-381.698181 946.225586 -1149.886719
-284.824860 818.059082 -725.846008
-453.370209 1134.382568 -1089.677856
-170.463272 1034.761108 -1117.638306
-248.490448 874.680847 -689.257813
-74.247398 754.851379 -752.671448
-298.606018 907.116821 -685.627075
-26.607574 760.303589 -730.764771
-114.650139 851.877808 -693.609314
38.419216 1098.621460 -1080.595947
-120.628700 806.779297 -712.750061
-270.752014 938.609436 -677.414917
-89.160492 1088.897705 -1057.935181
-231.344513 869.684753 -709.085083
-127.876244 1093.959595 -503.546051
-278.055664 855.008911 -1181.427246
67.879021 1078.268677 -1089.171265
-67.482231 1175.480713 -1072.006958
-54.265949 1115.828247 -492.494141
-370.946014 1036.499756 -1101.814209
-266.020233 1036.708862 -272.841492
16.059772 782.384033 -750.697449
-69.809387 793.821167 -1203.280029
-111.978409 1074.593628 -408.377869
59.164848 1029.053833 -1148.083130
-112.004021 875.213501 -1158.740234
-158.745789 1063.192017 -288.256317
42.855892 1089.717041 -1123.037598
-126.799110 866.518250 -1191.579102
21.085264 946.270874 -673.572693
-276.800629 1054.897339 -444.879852
-132.877762 810.050476 -1209.352051
-24.665281 808.678406 -1215.417358
-288.172058 1042.570435 -483.316864
40.247482 1108.982544 -1104.042725
-365.806122 901.771729 -1163.963867
-333.118225 962.691162 -1091.256714
-176.460953 997.532043 -1132.024170
-210.860992 1044.172974 -274.559753
-158.647034 1082.151978 -509.331421
-226.133957 1016.141479 -680.756104
-141.475235 790.171021 -1191.462891
-227.081970 1041.285034 -316.877380
-375.249451 1019.288086 -410.572235
-252.617081 1076.736206 -1035.285400
-103.744865 731.009460 -737.578064
93.494431 1124.549683 -1117.443237
-187.146912 1054.933594 -345.022186
-282.370880 911.203430 -667.620056
-169.256577 870.487854 -1151.218872
-36.501038 769.661438 -730.542114
-17.727888 1063.334229 -1125.941040
