ply
format ascii 1.0
element vertex 1365
property float x
property float y
property float z
end_header
596.813721 -45.852043 -960.402832
541.882202 -480.507629 -799.073669
780.049316 -33.938858 -853.477112
1027.561157 -651.080017 -1054.010010
770.667969 -160.361069 -918.092285
1109.773071 -749.841553 -750.295471
623.291260 -117.826958 -965.931702
662.524414 -365.217926 -952.946838
1032.341064 -661.710876 -1057.973511
718.841003 -883.618958 -932.449158
741.467163 -330.624908 -944.381287
1061.852783 -786.595276 -762.341919
837.013306 -281.614380 -953.695068
675.381165 -408.913940 -793.846985
600.838074 -438.406952 -867.484985
711.191223 -410.742737 -713.640137
762.407593 -431.603668 -632.490723
828.834595 -406.965424 -625.293579
814.810791 -818.125183 -958.533325
830.371765 -844.934998 -771.082642
680.712585 -451.556213 -698.817261
806.041626 -450.100800 -595.199707
1206.167480 -671.508545 -809.399353
656.293091 -376.578247 -930.371277
656.525940 -113.018059 -943.559998
871.815857 -161.588989 -883.829895
1028.290283 -714.760803 -969.070801
754.148438 -162.987076 -911.821838
836.546265 -350.995148 -725.318542
757.228027 -39.123779 -850.544495
985.870117 -788.974182 -836.874573
814.425110 -728.703857 -819.929077
1178.835693 -550.785461 -1151.742676
1011.822571 -769.286133 -850.121399
702.449768 -790.097778 -1069.922119
736.297058 -799.121216 -1159.417847
1225.429077 -515.355774 -1194.914307
662.445190 -62.287506 -938.260620
581.987183 -515.372375 -711.585144
612.599854 -84.126175 -972.165588
704.609924 -397.167603 -754.053162
538.796692 26.953138 -975.357178
745.539063 -371.641052 -768.806091
727.794922 -801.138489 -1065.894897
747.737488 -825.453308 -1018.762756
520.282593 -555.898865 -774.671082
630.422913 -500.327362 -676.854492
809.372009 -916.493347 -767.565491
799.241821 -795.054077 -1021.762329
970.695984 -747.697754 -950.731140
830.043030 -720.906006 -1004.084778
642.544189 -422.304169 -790.229370
633.598877 -456.338165 -787.740051
789.990967 -812.483948 -1030.954590
1049.382080 -714.660217 -889.306519
591.064636 -120.813332 -983.012451
782.425781 -811.681152 -1061.932983
1201.593384 -521.949707 -1146.192627
618.565552 -113.704086 -983.376221
671.495361 -476.702972 -630.764648
992.506836 -831.685608 -726.079895
971.091248 -743.907471 -959.786743
1099.358887 -724.244812 -836.214050
833.765381 -860.423584 -863.089417
696.930847 -169.961853 -955.935974
793.196045 -902.308899 -817.492126
733.246399 -876.806152 -984.734802
612.959290 -405.410431 -885.601318
707.447998 -150.598145 -957.571106
781.932556 -384.016541 -660.603271
619.042175 -436.980652 -798.508667
576.334961 -539.017761 -723.380432
967.676270 -841.821716 -762.778198
614.840271 -81.590622 -953.462524
869.261230 -150.193176 -870.359375
819.878113 -409.695374 -612.074707
588.103271 -185.218369 -1013.638733
645.706360 -156.004105 -974.222412
951.092468 -779.663086 -908.166870
719.989197 -152.709473 -950.025879
1015.079285 -739.275391 -902.175171
705.900574 -844.766846 -1067.305908
1133.983765 -618.533691 -1108.098145
940.750061 -841.431091 -724.915405
688.830872 -51.162064 -917.625305
1206.276123 -661.834839 -822.561584
691.133728 -807.417603 -1010.021729
826.739380 -420.896179 -608.816772
778.265808 -77.853661 -861.175232
640.045715 -367.873596 -910.509521
1104.966187 -627.030701 -1081.836914
810.348206 -797.404907 -1006.881897
690.152588 -889.971741 -996.648987
554.468018 -161.463272 -1028.044922
631.598511 -87.547600 -961.300354
666.169678 28.590584 -892.049622
606.857971 -513.955322 -691.407837
533.776306 -521.706116 -743.285400
865.417358 -308.668976 -765.849304
1110.486572 -663.042908 -835.404907
671.843567 -27.768923 -901.803223
634.711548 -492.673035 -676.397095
775.977661 -350.781342 -757.586609
1063.709595 -639.408752 -915.269531
534.127014 -523.078125 -758.950317
742.569336 -394.825714 -688.030518
990.105774 -786.928223 -785.331421
568.764038 -545.248962 -717.005981
749.223633 -402.095306 -683.964111
557.547302 -531.766602 -704.860962
982.422302 -817.587280 -802.665588
644.619202 -468.065338 -671.765869
990.045044 -819.414001 -745.436218
824.910583 -696.968933 -1016.956970
816.885193 -748.329224 -1054.006714
719.121277 -328.643585 -904.206726
1112.009888 -739.905823 -791.995911
970.036438 -822.691711 -770.067444
730.725525 -442.161530 -675.367554
611.643250 -497.592346 -680.287720
777.193542 -818.546875 -1006.440186
899.225525 -707.684265 -1056.080200
849.171265 -878.530579 -760.483643
859.085022 -340.835175 -720.274475
1106.521118 -738.073303 -787.631470
672.147339 -141.769012 -960.807678
719.867920 -42.836960 -888.630188
733.179749 -188.647995 -962.887756
742.491638 -369.714783 -767.384094
1077.968994 -667.376282 -842.979614
796.692200 -807.447388 -1037.761597
851.493530 -780.598999 -825.141357
1128.953735 -739.468689 -785.419800
570.337097 -36.115707 -973.436523
557.288086 -455.804657 -888.291870
979.321289 -645.936707 -1004.717468
685.438477 -467.333496 -649.581543
755.471863 -855.485962 -1002.158203
573.317688 -500.750916 -762.352600
793.515808 -74.031181 -856.435181
565.330261 -536.690125 -720.856018
755.452026 -143.670288 -931.358887
955.630371 -681.181641 -985.682617
574.446716 -51.207363 -975.727356
795.295288 -367.570557 -694.397156
696.104248 -339.101318 -993.712646
755.858398 -366.768890 -754.106323
558.139282 -460.067963 -779.838440
1023.364929 -794.022827 -765.793640
591.723145 -81.792564 -970.628052
1173.429688 -555.925415 -1105.843628
585.579285 -140.793640 -999.738708
735.707397 40.683876 -839.218933
872.812927 -811.947021 -840.321289
889.281372 -705.507874 -1098.347900
766.598145 -773.721619 -1195.905884
905.083740 -741.755005 -990.177490
633.497742 -483.863525 -684.015259
570.036926 -178.621536 -1023.993164
889.196472 -750.228271 -1042.378052
606.199829 -58.031551 -964.381836
847.724182 -760.036987 -1038.586792
711.416077 -382.499878 -842.837830
1031.678345 -796.260315 -767.104370
1013.910889 -815.941223 -743.405273
743.328003 -386.788361 -739.047302
687.104431 -879.345642 -1063.245728
1044.609863 -715.382446 -922.430969
843.732727 -278.786896 -934.074097
585.281921 -108.986572 -1001.587463
566.953857 -543.095093 -733.123657
782.782654 -173.501175 -916.171631
578.629028 -52.315975 -975.967407
699.906372 -146.855087 -944.456848
806.476440 -223.576981 -609.517822
1098.713623 -642.778687 -951.033447
799.808228 -891.096985 -871.310120
530.039124 -156.090439 -1051.053955
1045.716187 -711.996765 -941.965698
590.604614 -533.282959 -697.356812
590.120911 -511.841400 -675.471680
654.336975 -8.078876 -929.039551
850.664673 -378.198181 -658.676392
852.977112 -880.629456 -775.948364
789.775330 -55.873657 -850.135681
808.188293 -449.112701 -617.014221
1009.454468 -645.901978 -1086.444946
994.401123 -811.655334 -720.449890
694.920349 -866.060608 -1090.660156
1078.829102 -719.589722 -879.184998
646.109131 -8.024749 -914.945679
569.444336 -34.086208 -960.845093
750.953369 -393.215729 -682.251404
736.341675 -76.447189 -884.921387
760.058228 -920.863098 -783.162781
792.471924 -763.306274 -1182.263184
509.193085 -70.138969 -1017.332764
673.776550 -113.661285 -938.743042
884.066040 -810.191406 -888.379150
684.611145 -465.811890 -650.144897
621.410706 46.286694 -904.857605
975.879822 -765.881775 -868.233765
1156.849365 -706.490784 -799.210022
843.573486 -82.509132 -802.090088
855.278931 -792.303162 -1041.923462
897.897278 -797.145203 -911.744507
970.863770 -651.619385 -1077.321777
819.656433 -904.549500 -758.939270
874.093628 -835.918579 -848.860291
892.724609 -700.294128 -1140.036255
795.720642 -104.178383 -875.976624
813.079773 -889.662170 -860.398682
605.761108 -471.112457 -738.899048
1227.691528 -643.430847 -803.033813
590.818726 -430.830963 -872.594055
1075.064819 -633.952515 -1010.522644
1020.708862 -664.252136 -918.047302
897.726807 -853.839294 -747.956055
617.471741 -372.462708 -969.883423
989.887451 -740.914185 -915.714417
859.144348 -850.213989 -790.100159
601.799988 -382.938599 -925.578247
689.269165 -895.889465 -934.122559
643.945435 28.700024 -897.819580
724.441040 -37.384743 -882.569336
819.977417 -822.818481 -982.134827
665.610962 -421.482361 -762.382385
740.703979 -377.834564 -804.151917
833.338013 -375.212311 -654.902771
1011.806702 -666.825378 -927.866089
744.897278 -319.113708 -973.649841
632.935242 62.867298 -892.990295
806.866272 -881.858032 -855.382385
744.515137 -806.955811 -1056.394409
1075.591187 -713.588562 -868.354248
930.557678 -826.411743 -801.973999
979.039429 -706.011414 -970.926208
908.351379 -836.899597 -784.574829
741.246765 -72.697136 -885.332214
697.462097 -396.760193 -784.646912
972.155518 -826.299255 -802.157959
719.225464 -477.590057 -627.284546
910.852478 -826.854675 -818.027405
867.986084 -854.434265 -781.376343
775.611938 14.034200 -825.046814
769.879272 22.495783 -833.354065
645.715088 -517.657898 -656.000061
692.759766 -456.239807 -652.992493
876.667725 -784.439087 -886.803650
835.520996 -321.086884 -765.640808
990.614197 -760.429626 -899.888733
738.570313 8.755128 -852.617798
738.136230 -358.812744 -775.450562
716.317444 -850.044922 -1022.256592
998.110352 -663.263428 -900.089111
1111.569458 -603.239502 -1079.573853
1030.530762 -742.986938 -896.555786
960.556946 -798.661072 -885.256042
551.229919 -523.000000 -760.778198
797.054199 -124.902649 -881.987488
686.483826 -154.833954 -960.685425
703.040649 -331.350159 -976.552246
636.223877 -86.420815 -963.065186
841.718994 -281.696747 -863.385132
596.031494 -407.958801 -924.334656
1146.099854 -691.878540 -774.618530
790.490906 -440.894226 -615.714966
821.850464 -789.228333 -1046.651001
850.352600 -138.272415 -852.701416
882.458496 -153.507965 -871.872559
758.222229 -418.151031 -669.872314
1133.704956 -637.261597 -831.516724
1014.131165 -737.051880 -922.700439
1017.880066 -805.438782 -763.060425
584.441467 -484.440765 -730.776550
835.697510 -811.713074 -1023.715942
764.651978 -778.088074 -1031.812134
785.986511 -317.947388 -887.960999
638.901245 -493.132172 -676.900452
757.926514 -112.375938 -909.256775
668.942566 -475.581116 -688.205383
780.328186 -756.629639 -1002.821167
706.608765 -338.949432 -1020.828979
531.467346 -11.149703 -976.471680
1035.585327 -631.135498 -1064.859131
737.087341 18.995403 -835.640015
728.078186 -386.200500 -754.959045
653.924622 -477.190521 -680.975708
730.450500 -126.961639 -919.304260
639.449158 -523.204529 -657.547363
861.238831 -866.563660 -759.883179
812.494141 -119.008224 -853.344543
721.799683 -62.758266 -892.757690
1009.543152 -679.090027 -902.190247
1116.351074 -691.641602 -834.602783
964.304504 -677.754639 -991.224304
1076.821777 -711.627380 -904.973511
710.670166 -500.899628 -621.014587
814.163574 -381.658783 -649.618530
974.491882 -818.352966 -822.528198
810.947876 -395.020477 -637.937317
1046.515625 -767.333191 -749.664734
591.612854 44.658634 -932.860596
686.561584 -359.786011 -858.308411
766.632690 -167.420364 -921.944031
605.842651 -216.719101 -1031.495972
759.473511 -454.051178 -618.709167
922.164246 -758.621033 -892.933289
562.688232 -476.745972 -782.381226
1049.846191 -756.764954 -823.233093
698.369263 -34.306061 -896.560059
1198.643311 -634.287048 -884.180969
725.878784 -828.587463 -1060.238892
1226.609497 -648.431213 -795.704102
587.532898 -134.198334 -996.769531
633.222412 -396.362762 -871.442383
990.740356 -785.115967 -885.995361
564.839355 44.295597 -979.016968
1098.119385 -633.509033 -856.053345
678.552124 -483.633301 -666.795288
778.845947 -403.192413 -679.292908
745.296082 -303.463440 -977.824402
666.740723 -217.666992 -984.746094
891.753540 -652.056702 -1034.699463
815.435791 -862.100708 -905.949829
664.795349 -427.873779 -740.199402
948.464539 -840.762756 -753.783020
693.928650 -364.049194 -979.092041
1052.454834 -625.304565 -1045.273682
522.767761 -74.971832 -1004.023865
1082.418579 -605.103516 -1107.783325
661.622498 -407.433716 -845.621521
753.791870 -876.679138 -941.525513
768.587524 -888.961914 -901.626587
744.120972 -396.593048 -759.487671
838.057068 -701.584778 -831.173035
1058.312378 -629.625916 -1027.525513
861.037170 -790.117920 -869.651550
800.567566 -205.949936 -578.122925
630.298828 -523.950562 -675.946655
821.577637 -165.375839 -892.873474
585.788757 -481.375427 -713.976929
998.616943 -721.381409 -988.792297
1023.622559 -794.254456 -787.636597
887.823120 -864.365112 -763.794983
585.086792 -135.505295 -993.303711
803.371155 -85.247620 -856.682983
746.246765 -473.349396 -600.574707
613.340088 -113.292175 -969.196899
834.220581 -405.825745 -618.706421
619.757751 -189.818924 -1008.299927
847.415955 -873.817383 -858.958252
654.014282 -436.282257 -706.290527
1095.255005 -724.868835 -842.168152
1099.843994 -747.803284 -801.425415
648.214783 -411.001160 -866.289612
1015.657349 -774.998718 -834.503845
874.612671 -693.670105 -1027.491821
835.777954 -789.691162 -1022.165161
564.273499 -25.518223 -959.894470
804.353088 -751.511963 -1209.014404
784.728149 -377.310120 -668.374512
645.783936 -421.799408 -879.092468
717.406982 -389.030212 -735.858276
550.815369 -504.511383 -742.206543
1013.579224 -656.257935 -947.117493
804.887024 -435.352539 -623.429810
884.593323 -710.358154 -1204.324707
563.583496 -521.563599 -725.460510
1121.875610 -715.630432 -834.656677
895.640076 -776.625000 -981.063110
674.253784 -449.025543 -678.330017
565.469849 -464.573700 -805.668884
629.169495 -433.290924 -779.201538
642.068909 -426.909119 -821.756653
555.684265 -115.145409 -1002.209900
725.552551 -416.537201 -681.431335
1027.282349 -798.538879 -782.047791
639.385132 -398.246429 -844.251404
758.398560 -881.746765 -928.925537
922.956543 -610.859131 -978.123657
1143.333740 -583.406555 -1074.607910
881.398560 -690.917053 -1020.598267
726.976624 -329.592560 -881.894653
565.016296 -522.662170 -746.192871
1039.004639 -660.260498 -900.725220
702.591797 -124.082306 -932.470520
1030.882813 -718.761292 -956.831055
548.231018 -436.256378 -955.478149
771.469238 53.131550 -831.219604
716.652100 -4.169253 -863.529724
853.798218 -312.628510 -810.292664
814.886230 -795.225769 -1006.803406
1089.743164 -658.826355 -860.039124
827.159241 -323.489929 -678.894165
757.560425 -138.599274 -897.572449
955.476501 -798.483887 -824.086548
821.032471 -258.190979 -1039.111450
1000.665466 -709.374390 -939.887024
560.963135 -476.335083 -821.111084
1121.426880 -713.292114 -777.786438
722.033142 -1.815746 -865.111877
1164.346924 -717.757690 -776.454773
705.590759 -836.017639 -1009.530945
738.421997 -839.644958 -1011.128845
759.977112 -87.548424 -872.213440
978.945313 -796.880737 -849.552307
579.217041 9.072998 -959.186401
848.408875 -899.590820 -770.062927
879.491455 -674.367065 -909.388489
703.811951 -61.239182 -897.659729
775.606140 -35.370655 -844.545532
803.899475 -722.394714 -1007.599487
596.227722 -401.038605 -983.005737
1042.841675 -681.133301 -906.721069
875.278442 -799.549744 -874.233398
749.401062 -890.887329 -871.449768
684.195435 -124.901680 -958.082520
1068.264038 -687.789612 -1001.029907
860.123352 -773.397827 -921.312195
1062.492065 -767.849304 -800.298340
767.651123 -465.530060 -612.447083
504.554260 -471.618378 -858.151489
757.865967 -27.289150 -851.295105
633.267273 -181.680527 -992.220032
583.841187 -523.053711 -710.599304
588.093323 71.815483 -925.761963
1031.924683 -735.660583 -939.373901
779.329529 -449.276337 -621.337524
747.124512 -207.342972 -972.860901
712.626770 -99.468292 -919.903931
1173.823120 -683.848999 -818.246826
791.821228 -353.176453 -806.072266
621.280090 -482.150970 -694.583191
670.653320 -414.437561 -767.363831
733.057373 -395.824829 -726.608521
844.208374 -876.387024 -882.179138
796.820923 -430.102203 -619.108032
1058.557007 -754.310059 -850.705811
805.230835 -835.634277 -1009.020020
672.684937 1.187571 -882.657654
671.071350 -876.737183 -1064.754028
901.073364 -729.253418 -942.556335
593.133057 -514.869751 -723.965759
738.417236 -173.518982 -947.783264
731.002625 -379.310944 -731.293884
674.802612 -887.329407 -1024.471802
1043.646973 -795.586182 -723.826477
1052.470947 -759.623474 -850.431580
862.571960 -297.573914 -837.752380
837.689636 -398.180664 -643.030090
1048.180054 -692.936584 -936.783875
627.302490 -424.924011 -812.310120
607.395020 39.111015 -928.333435
557.211243 -32.172882 -965.616577
742.545288 -360.457886 -792.576294
696.754150 -844.508545 -1081.010254
716.396545 -359.260040 -820.465881
842.480957 -324.532257 -765.686768
800.679321 -724.559814 -1017.868286
868.689148 -328.556671 -689.476624
682.848389 -433.413086 -757.979187
600.605469 25.355505 -921.636597
509.500793 -30.194220 -995.793762
851.498657 -906.777893 -724.873169
1054.869019 -726.167480 -894.436462
883.220093 -754.423706 -1050.324097
858.359619 -161.072678 -866.145264
696.427856 -400.712982 -760.283875
646.018616 -9.738538 -918.269592
630.725769 -78.815315 -945.174194
618.639038 -507.123810 -684.079712
1133.133301 -710.879822 -800.646301
1064.365479 -762.381531 -831.769897
631.208374 -455.516266 -696.730652
854.214966 -771.030762 -1050.334106
773.509827 -758.976501 -1179.239868
838.921265 -880.296021 -785.133179
632.331787 -15.412470 -933.037537
650.917297 5.566119 -905.511719
829.688843 -866.828735 -838.108398
576.634949 39.184093 -936.634521
719.668457 -864.886475 -1004.764404
849.502014 -866.653564 -752.255676
589.903809 -163.912109 -1006.221802
1086.086060 -624.895203 -1062.271973
708.760864 -31.814087 -902.955261
747.963318 -400.331940 -758.751648
943.402588 -856.552612 -727.420593
825.119690 -433.396759 -620.327637
523.026184 -478.650085 -803.678101
771.972290 -783.532898 -1046.964233
1123.447388 -737.286865 -797.559387
983.328979 -743.559814 -956.477966
733.730347 -406.239502 -764.659363
696.599060 -320.735443 -950.042297
671.753967 -497.043518 -664.706726
694.271545 38.795952 -858.652283
906.116882 -815.629822 -785.695129
832.635803 -414.615387 -639.668457
724.917236 17.024944 -867.372620
764.719910 -84.877495 -879.088196
1084.298706 -650.258728 -910.067627
736.111633 -889.329712 -968.229309
645.214722 -438.431183 -712.907043
683.386108 -365.957672 -844.832886
1028.774292 -742.178772 -866.724854
1088.056641 -643.068787 -846.212830
857.335205 -304.272247 -790.324585
743.346191 -454.225800 -637.751465
792.374390 -370.489105 -773.841003
1058.250488 -713.144836 -871.244629
848.564819 -858.691528 -770.656677
578.425354 -6.436523 -949.938782
662.691406 34.405075 -886.694275
604.980103 -193.991379 -1012.425415
744.532654 -359.734924 -776.227844
880.140137 -889.766541 -735.509521
732.614380 -479.389282 -603.800598
1069.019897 -755.164856 -800.984375
1107.244019 -693.922729 -834.798523
650.599731 -402.065369 -846.588806
966.353577 -844.963440 -748.547913
981.929871 -741.611877 -946.247742
695.921509 -154.030777 -957.407532
536.705688 -479.582001 -812.642029
558.467346 -403.891846 -922.855774
699.760864 40.898975 -860.258484
715.714600 -400.166870 -756.552917
708.733826 -86.729462 -917.067688
544.579590 -89.275757 -996.457214
497.884583 -524.690613 -774.047485
994.421082 -805.316040 -736.622498
829.786682 -895.480469 -732.526733
1062.952637 -740.922852 -796.362366
658.350952 -190.538895 -996.435486
786.069336 -359.772278 -816.037964
682.630188 87.460327 -857.402588
1097.204346 -630.892151 -939.635132
694.108337 -460.954285 -638.490906
1061.200439 -636.633484 -1069.700317
1048.446045 -648.167725 -894.868225
513.967285 -525.827759 -782.721375
673.291809 -367.557251 -934.631042
734.675598 -0.276732 -844.525146
983.897644 -779.949585 -882.422607
835.854309 -350.045471 -689.461304
870.897339 -733.386536 -1021.641418
601.334473 -81.549545 -976.726868
738.515625 -4.313499 -843.115723
668.573425 -428.352234 -810.677002
690.294006 -368.651764 -872.430908
596.444336 -411.779053 -898.347046
609.710327 57.212955 -909.436951
1101.793335 -653.806946 -1029.442139
547.945251 -504.599701 -758.112732
839.555786 -823.434326 -845.880371
753.300598 -425.492249 -660.528931
552.637939 0.506146 -976.733398
629.061890 -444.217682 -833.726440
1168.001831 -499.870392 -1244.483276
998.088379 -648.749756 -972.771484
1151.698364 -534.545776 -1176.766602
771.912415 -314.325684 -993.048645
529.510315 -549.486084 -752.933350
601.720825 -425.012177 -812.822998
665.635498 8.098133 -895.132935
669.801208 -441.900238 -706.068359
785.174866 -482.418915 -594.413330
835.925232 -376.634644 -675.297424
771.841980 -849.974609 -1010.939087
612.527466 -463.739014 -788.944763
762.393555 -704.914856 -965.974854
772.305786 -330.444855 -843.617126
979.104797 -832.124146 -766.662598
669.317566 -185.098099 -983.045959
1153.065063 -660.616821 -876.674805
795.480591 -882.522461 -874.151428
981.980347 -785.927124 -896.164734
1034.792603 -733.379944 -888.451904
687.128662 -455.098907 -652.516541
709.572510 -380.552521 -797.696106
787.405945 12.278854 -829.263733
707.074951 -497.323120 -640.388733
818.752991 -712.303955 -802.590088
610.213013 -383.231262 -1015.509521
583.062805 -490.937408 -721.367859
690.486084 -99.083733 -937.094177
974.137451 -830.250793 -756.778503
520.860657 -113.614670 -1024.079468
866.737915 -748.994934 -1061.545654
537.049438 -508.628265 -764.114258
852.050842 -824.580872 -829.879822
617.304504 -390.769958 -920.109131
799.445068 -282.220795 -962.766663
667.947937 9.114783 -886.783081
632.349609 -473.586060 -691.621033
823.786072 -817.399841 -935.016724
1114.308716 -744.770447 -792.149536
761.170654 -62.942730 -859.048035
542.271240 -452.059021 -879.687683
1071.348145 -674.225220 -1068.492676
1109.817139 -688.389648 -842.353455
1194.696045 -682.581787 -781.454529
683.862915 -410.596924 -840.577515
738.237488 -107.318062 -895.430420
1046.685669 -660.326111 -1088.074585
650.147522 -459.752167 -690.294556
601.247314 39.856976 -920.644653
1097.697021 -740.826660 -785.737000
674.004822 -28.183546 -909.632385
514.975220 -472.693329 -865.626282
1039.743286 -665.570801 -854.745544
652.701294 -462.013123 -669.931152
838.064880 -164.784607 -893.796692
839.558228 -305.411163 -835.741394
665.594910 -413.636963 -826.253052
878.898682 -640.729309 -1034.447388
1083.600220 -720.652344 -850.538147
596.888611 -78.077888 -966.367920
892.528076 -866.656433 -729.882324
771.838196 -705.573853 -955.792908
811.543152 -296.749817 -958.963196
1073.708984 -731.946594 -842.939697
614.975220 -417.960449 -839.080994
698.851196 -436.711304 -677.590088
877.844604 -836.276978 -835.295776
636.167908 -24.179821 -938.378235
899.615967 -794.288818 -814.233887
1003.456604 -662.052429 -1108.934814
701.606384 -367.705017 -954.497681
753.724426 -414.121338 -655.480957
742.894775 -298.010498 -948.636047
786.006348 -926.775024 -758.245605
1142.876343 -629.481506 -952.702332
772.102966 -338.097931 -819.581543
567.880554 -91.914543 -980.062195
846.309021 -856.005066 -814.157166
718.425781 -423.806030 -738.170471
552.758301 -495.456909 -754.819275
877.956848 -275.937744 -882.683899
1041.731079 -795.750427 -729.281433
1101.034912 -632.347900 -876.369873
744.138428 -494.161652 -607.907959
706.542297 -35.996002 -892.804443
881.619690 -726.188660 -1218.708862
530.287720 -84.054970 -1013.407410
823.666260 -406.379944 -607.386353
757.007813 9.624252 -839.006409
731.182007 -389.389069 -761.867065
789.880310 -368.375916 -703.491150
743.510803 -876.139099 -962.703918
741.542419 -880.292358 -916.300598
632.318176 -153.414200 -977.703308
542.413025 -21.528225 -970.233582
1162.968872 -667.163025 -873.219055
617.524963 -432.731934 -815.833679
1139.568970 -678.435974 -822.455627
1182.789917 -627.165161 -889.683777
796.743164 -341.214264 -775.434814
534.642700 -12.956378 -968.992493
1046.922119 -724.603882 -907.750366
808.538025 -300.541779 -920.377441
741.919739 -327.702545 -921.683105
675.666016 -869.034668 -1047.981567
944.190125 -793.155762 -847.605225
666.119080 -55.104290 -911.507324
1095.734009 -757.264343 -746.906311
652.731567 -117.524551 -975.071594
792.394043 -305.486389 -912.908936
839.352844 -726.805725 -1205.428833
1092.553467 -651.201172 -845.150696
696.054565 -366.038605 -867.719971
701.945984 -65.717773 -913.209412
606.553345 -448.785706 -823.723267
858.739197 -900.737976 -723.589417
812.913391 -838.594910 -921.605347
781.916199 -97.851830 -863.173462
830.549988 -843.058899 -915.943604
816.073486 -365.007080 -672.534363
848.189819 -738.800476 -1063.491455
578.574097 49.206539 -935.937317
982.764893 -796.544983 -876.047913
1193.840332 -499.970764 -1261.172363
854.548828 -851.949036 -805.388184
826.846558 -742.141602 -1207.235840
762.439941 -877.041260 -927.542908
858.557312 -845.478516 -870.071716
773.699341 -784.530884 -1076.341309
932.972900 -809.501587 -794.258240
697.694336 -419.282990 -772.285645
676.885437 -176.999619 -962.913879
624.776611 -436.763824 -745.259277
575.984558 -479.416779 -755.293396
869.989990 -891.358948 -777.560913
555.696289 -449.324982 -821.128601
1100.513550 -561.144165 -1226.051270
726.397461 -444.227295 -633.292236
725.494324 -111.090111 -930.126465
607.473938 -501.860504 -663.825623
845.419800 -880.938843 -784.890808
1086.579468 -528.989929 -1062.826416
830.514648 -897.835693 -753.200684
779.863708 -427.630249 -615.152588
724.881042 -130.826614 -931.273804
793.030884 -57.041451 -843.848145
799.909119 -342.425385 -799.445740
813.520386 -32.682865 -841.199890
977.648743 -726.437561 -1000.252136
561.963928 51.480671 -985.485107
686.396240 -327.584412 -1011.364197
721.506653 -816.901245 -1045.124146
1084.872559 -684.152832 -918.382813
783.814209 -326.295990 -832.876038
1062.394653 -741.284485 -870.487854
794.314148 -116.154144 -883.876709
859.381836 -827.806763 -904.426880
975.496460 -681.414856 -952.649658
621.112915 -426.955688 -806.269226
594.632568 -74.536003 -998.194031
639.867126 -393.347351 -866.560669
745.948181 -383.844727 -726.738586
606.858398 40.176105 -920.622314
686.550049 13.247787 -883.915222
1083.784546 -664.218140 -870.014465
781.761047 -910.526367 -813.097595
534.550781 -110.392319 -1001.152405
834.759399 -874.820251 -818.815796
1046.707153 -633.993225 -1083.058838
605.498474 60.327232 -914.172974
654.277710 5.151312 -898.213745
825.813416 -891.285950 -757.456421
666.582336 -410.669098 -783.354675
677.548523 47.750473 -873.433960
748.803101 -381.463806 -815.133301
828.774048 -111.686287 -869.104919
1158.780029 -699.408630 -806.376160
1078.684448 -694.229126 -892.714600
602.013855 -392.231049 -997.241638
689.788696 -121.668922 -949.428345
754.512756 -408.701141 -665.482666
697.879089 -321.397186 -989.293457
1204.426392 -691.740662 -787.060303
844.911011 -105.342873 -840.353088
1148.390869 -736.871460 -766.542358
740.967957 -34.070736 -870.299316
735.032166 -11.642384 -855.173523
687.801208 -28.537956 -900.661133
606.337158 -16.426123 -933.787964
512.258728 -536.836182 -772.926575
622.529785 -465.637360 -711.963074
863.229187 -787.372559 -958.615845
793.714600 -854.869080 -942.337708
752.897766 -46.643532 -856.282410
752.922485 -419.699005 -637.703308
598.730103 -103.789009 -984.615967
600.137756 -418.954773 -860.479126
713.460571 -851.650330 -1020.152039
602.276306 -56.403687 -953.615906
844.812805 -744.722656 -1207.565186
610.374695 -462.633209 -733.585571
858.294678 -704.359497 -957.675354
497.012238 -532.087280 -797.723328
948.081909 -805.441650 -853.976135
686.260071 -871.470520 -996.343384
1034.092041 -806.753601 -738.964844
653.829956 -408.821381 -765.904541
680.154114 -355.318634 -939.587830
1007.571472 -824.805054 -730.644409
692.681396 34.214840 -886.650513
858.868713 -270.587219 -966.868225
962.203979 -816.329773 -802.089233
672.971985 -179.519730 -988.666931
737.009827 -889.518860 -924.610352
709.248169 -886.608643 -983.971313
607.477600 -532.915649 -668.441772
555.213074 -120.016853 -1013.661133
714.632629 42.939152 -841.022095
1081.447876 -668.906433 -1024.759888
801.220398 -786.719543 -1034.683350
852.513000 -885.318909 -798.351257
631.082153 -452.961517 -726.641785
1025.550903 -708.748352 -916.016724
801.657959 -78.632568 -837.738708
871.454163 -812.805786 -923.060486
704.732971 -448.883362 -650.401367
1093.203857 -693.283447 -864.016785
641.003601 -379.619751 -976.900146
724.071411 -507.595490 -635.114075
968.767090 -794.139282 -842.732727
578.646912 -28.953054 -972.222656
509.477936 -512.604919 -796.807129
725.290466 -295.470062 -967.120544
565.586487 -54.095833 -974.312134
789.002136 -375.864136 -684.879150
527.141968 -132.780014 -1035.760376
730.687378 39.695248 -838.083252
1036.529419 -773.422974 -799.255005
1045.766479 -704.623657 -937.504700
1156.408813 -567.502441 -1101.875000
770.927856 -24.593330 -845.375488
689.215210 -405.826630 -761.868835
854.147766 -763.207947 -847.317017
556.352051 -505.300293 -764.861023
592.916504 -464.815399 -728.962341
768.195435 -298.082550 -904.469116
697.969666 -380.415344 -868.472168
544.768188 -500.522217 -764.985840
654.440125 -22.915960 -912.385925
854.477600 -115.197815 -837.534790
904.864990 -790.462036 -923.563599
1103.584961 -647.694702 -833.980042
827.070313 -304.363220 -815.165833
608.614868 -352.697968 -993.309998
728.282837 -362.247131 -852.759705
845.760376 -846.341675 -833.670837
701.021545 -860.422852 -1082.644531
1120.428833 -724.528564 -752.536987
522.522827 -509.733459 -777.963806
1061.163696 -731.507568 -859.477478
1023.998291 -780.738342 -826.037720
865.773743 -321.730591 -740.228699
566.749451 -43.070625 -969.744263
898.238892 -291.029053 -795.297974
1090.869507 -747.688049 -742.095337
595.962830 -16.057434 -957.054016
685.126038 -455.172760 -661.216248
755.752747 -25.959459 -855.566772
682.215454 -431.682709 -690.397705
674.515564 -17.513411 -903.176453
573.621582 -489.886353 -741.952271
865.558960 -806.107178 -925.416687
837.464233 -896.920837 -758.175171
976.543213 -752.987854 -948.107605
863.983276 -785.637451 -903.773804
715.324951 -58.376526 -900.224670
771.270996 -21.697428 -849.570313
1062.230469 -690.275330 -922.807678
995.278870 -805.503418 -826.010010
548.749084 -461.821198 -788.535461
832.305725 -891.365295 -792.027649
757.221252 49.033966 -829.537292
804.214111 -158.431290 -910.787842
834.511597 -391.054474 -628.146179
710.221008 -461.393829 -637.563538
768.892700 -47.061028 -857.575317
756.300903 -59.311497 -869.741638
1095.537476 -722.150208 -861.076782
726.244751 -901.123291 -922.492859
615.721375 -192.408554 -1015.751831
705.388550 -81.971558 -901.867554
834.146179 -284.875214 -867.626709
1055.710083 -731.189331 -885.667358
826.110046 -378.408508 -653.576294
708.093628 -873.142517 -1010.232178
535.168518 -459.728088 -826.237305
1052.095825 -675.986938 -1050.885498
579.790344 -544.174622 -695.527771
804.166992 -390.553680 -695.226196
821.166443 -768.652161 -1036.019653
771.095520 -450.956848 -600.929382
853.567871 -280.290527 -703.373413
746.119751 -371.045319 -776.536804
729.557495 -147.611526 -943.577576
840.527893 -746.166931 -1049.395508
730.317749 -114.727577 -917.859802
749.556335 -763.774841 -1004.588318
810.288940 -327.944061 -846.663940
814.463867 -337.498260 -790.229797
875.726196 -852.172852 -770.083923
1205.268677 -499.337097 -1193.094360
788.104187 -123.892113 -884.871887
576.862671 -173.102676 -1021.704529
1089.549561 -617.181641 -1099.121094
858.016785 -881.519958 -728.874451
819.552368 -374.093201 -691.484741
698.652588 74.750816 -870.534973
554.444153 -74.567856 -998.654358
646.185120 -206.342194 -1008.643433
754.571777 -311.314453 -971.489624
780.999573 -77.557724 -868.602478
694.546875 -76.101662 -905.974365
748.727905 -26.852837 -860.097107
724.658020 -35.583347 -874.224304
623.228882 -205.751343 -1005.744202
732.336121 -897.356018 -916.037048
999.141357 -826.023499 -708.685974
669.871948 -458.528992 -658.855042
649.999695 -398.964172 -902.751221
641.288147 -2.337408 -907.378235
675.006775 -361.065430 -987.994568
1056.640625 -694.600159 -1044.234619
557.706604 -448.202087 -877.591003
864.466003 -337.326294 -687.657410
591.720886 -400.784302 -947.712952
788.597351 -852.352722 -1001.417175
623.678406 37.642109 -928.108154
1007.926086 -805.743286 -760.242676
850.368347 -814.483093 -867.824341
798.614990 -807.247559 -1002.671448
817.978333 -333.928833 -801.878296
842.434509 -853.686096 -785.181702
758.828430 59.374756 -839.089233
860.885376 -342.293579 -697.409241
705.545227 -461.133026 -637.234192
739.499329 -437.321259 -630.934509
717.039978 -395.340118 -766.844482
777.559021 -6.199027 -834.468567
916.152588 -820.517395 -857.831360
1093.288696 -735.060852 -807.883850
695.080994 -139.417664 -943.439270
1027.406738 -808.848389 -764.837585
695.030029 -443.910126 -721.265137
1116.152222 -681.995789 -857.037964
943.087769 -835.993652 -796.791931
853.716248 -636.951355 -966.388184
1115.237183 -745.082458 -778.954102
641.976990 -145.358765 -988.276794
775.470276 -745.732056 -1210.180664
560.404724 -516.797607 -715.175659
812.573120 -434.575806 -604.865051
868.557922 -758.586670 -1030.754028
734.646179 -385.258423 -722.675598
888.598755 -891.006226 -710.080505
683.587341 -381.221893 -808.246521
752.157959 -162.110229 -933.771790
819.899536 -77.355606 -838.921448
602.235046 -1.731489 -962.670959
682.061096 -480.685303 -651.081238
584.713684 -183.044495 -1026.953613
671.015503 -406.215088 -840.124512
634.724792 -40.632122 -942.847778
583.110535 -60.561581 -980.305969
962.655151 -820.082031 -737.201904
550.281128 -159.000107 -1016.839539
937.553711 -840.384338 -732.342651
1119.202271 -730.685547 -802.756165
785.216736 -176.759796 -930.827087
972.756226 -782.162354 -877.763977
1148.584473 -662.505066 -897.497192
854.867981 -322.156891 -714.021545
1056.547852 -722.756409 -899.179321
850.958374 -735.240845 -1095.942627
530.362427 13.611788 -1000.228821
1144.697632 -714.369141 -785.384155
697.055847 -116.935745 -936.286621
873.306580 -109.845039 -836.275818
1006.760010 -755.984314 -893.053894
829.080017 -845.185425 -928.003052
596.447876 -156.027023 -1002.105835
836.116821 -754.556641 -1040.572632
812.208801 -282.258453 -916.743896
651.552063 -475.525513 -662.204468
742.938782 -898.056763 -854.475952
539.165710 -504.930145 -767.383667
583.491150 -397.958740 -958.025269
804.055664 -915.767883 -765.964600
947.200989 -782.260437 -913.256226
1024.292480 -735.424255 -920.963562
712.025452 -197.157501 -952.084534
654.982483 -407.025513 -866.780090
782.759216 -917.237244 -805.019226
674.190308 -167.815536 -983.456787
1074.323730 -765.695251 -759.349060
838.701233 -826.896423 -949.973206
595.503723 -450.282135 -869.896790
788.808411 -898.605957 -796.146606
807.355835 -391.309753 -641.457275
918.473572 -637.515137 -931.244629
844.257202 -718.042297 -1082.658447
1150.451660 -711.795959 -772.572815
994.646606 -833.710815 -726.662109
727.571411 -393.673126 -710.692444
892.436096 -692.647705 -953.038940
867.799622 -815.143188 -984.681580
763.087402 -358.168610 -743.267212
790.296631 -43.982506 -828.540405
634.011292 -199.610641 -997.874878
826.515198 -370.752228 -689.219482
1064.046387 -766.768921 -817.193848
612.186584 -124.928093 -987.232727
1055.791626 -758.862061 -767.753845
1071.312866 -735.812927 -853.744690
673.391968 -862.597778 -1022.024170
568.688477 -427.303711 -878.931763
594.988525 -159.897461 -996.295593
1039.089722 -646.361755 -894.328735
584.514465 -466.263153 -755.407410
822.578735 -660.882568 -820.192200
865.773804 -810.669556 -877.464233
629.112488 -455.305420 -731.646912
890.428223 -643.490662 -932.202881
1109.963257 -716.255127 -815.336304
621.671021 -83.235291 -968.805969
633.281738 54.347893 -904.722168
799.355103 -374.520477 -672.874207
1115.136719 -719.348328 -830.141235
1065.297363 -775.841187 -749.188843
739.177979 -377.466980 -759.713623
755.462463 -491.620422 -622.726746
826.043640 -383.050781 -641.773865
1055.068848 -722.923889 -873.469055
563.776001 10.439694 -957.767090
712.867249 -874.014221 -1003.341553
817.610474 -436.189819 -618.118408
976.396606 -798.991028 -783.858215
1056.070435 -701.448853 -917.913025
752.950439 -315.591370 -932.918579
661.902100 -372.794464 -919.228638
832.801147 -265.705536 -566.660278
910.037354 -872.425964 -716.770508
1118.712769 -690.106201 -795.916199
885.056030 -708.138977 -1125.365967
680.489319 -394.277374 -807.674683
1014.823059 -698.936890 -925.350159
740.807922 -25.792524 -858.128906
749.950623 -436.608490 -643.099365
792.341614 -29.905216 -840.119934
789.856628 -288.917480 -898.141541
645.539734 -28.347620 -917.078979
997.977295 -643.795715 -1101.936646
694.696838 -869.994507 -1011.824341
934.410828 -755.172485 -935.771240
554.930725 -471.876953 -811.464294
917.600403 -851.807800 -751.802185
840.597229 -868.731079 -870.382935
909.978333 -868.240051 -731.813599
580.653870 -128.090103 -1006.046326
723.955872 -415.883942 -666.203003
752.176758 -404.282867 -671.490601
887.764893 -766.290710 -1027.757813
619.628906 -476.835480 -747.172791
717.306885 -894.453674 -955.461365
546.254211 -514.140747 -753.316345
1157.153931 -681.632080 -810.839050
1194.976929 -679.204956 -848.798035
636.184387 -164.256531 -994.612427
705.090515 -140.101440 -934.040344
855.560791 -812.680725 -773.674011
1172.715820 -608.501282 -934.450378
1119.072998 -630.367737 -1008.980347
735.970825 -93.512550 -909.445251
591.938416 -442.883087 -828.164917
765.135742 18.048126 -835.188965
821.271057 -103.242386 -866.477295
1054.676636 -691.311768 -889.020081
813.127441 -849.291077 -875.069275
816.122437 -167.939743 -885.913696
565.325317 -450.995483 -900.735596
579.114807 18.596910 -941.001343
821.253784 -414.438507 -631.372314
607.741882 -420.860809 -842.472473
719.112488 -129.674713 -939.995117
865.016357 -768.892029 -1050.208374
580.761230 0.834044 -943.109497
673.110474 -387.799011 -897.588135
1097.115723 -736.302368 -821.116638
516.269531 -487.769073 -822.660339
567.238953 -544.365112 -719.951294
706.871216 -377.370819 -823.896851
708.008484 7.291189 -860.600037
892.604187 -727.416199 -931.499512
1166.261963 -511.239288 -1219.119751
528.732178 -527.897888 -756.114075
504.576752 -486.725250 -824.902588
597.481445 40.747936 -916.106873
859.628052 -852.026611 -891.399780
662.108521 -140.648895 -951.449707
757.914612 -411.327087 -655.804199
931.710388 -813.667175 -861.540283
653.546936 -111.907249 -960.798645
1110.863159 -626.042542 -1032.695679
696.170349 87.435661 -862.096313
723.036987 -442.949524 -634.900391
663.784973 -384.859558 -883.125793
1134.380981 -603.647095 -1048.596558
698.715576 -376.760986 -864.064026
546.879700 8.015845 -966.087402
1068.117920 -637.687378 -988.973328
838.218384 -913.480713 -753.495544
1055.675781 -749.769287 -862.133972
540.768372 -34.664783 -976.716736
711.919556 -36.343491 -883.502869
943.579224 -844.184326 -755.168701
583.191528 -66.711494 -964.884583
703.180054 -884.517578 -992.092712
718.398132 -446.428864 -641.435730
635.632019 -90.960289 -955.465515
745.995483 -75.031212 -883.450439
928.531189 -867.672791 -707.228394
748.210266 -44.626312 -872.422791
634.928528 -444.708984 -759.197693
735.235718 47.380222 -848.412903
733.306519 -446.258484 -624.595520
909.416809 -885.046448 -701.688354
760.057983 -437.467682 -617.313110
778.510742 -161.060852 -898.020447
700.023438 -457.921906 -637.507507
736.304382 8.075955 -846.898804
834.920349 -752.332947 -1074.303711
1118.962524 -657.738892 -785.411743
868.109497 -273.349182 -865.728027
737.486938 55.231602 -840.932739
658.322083 -194.743881 -984.339294
859.206848 -820.928284 -798.016235
645.771973 -3.556973 -915.748535
855.005432 -342.552094 -710.199829
777.432922 -382.125854 -671.970337
666.211243 86.248016 -875.343140
868.284912 -351.689362 -655.901978
605.841980 -429.066345 -878.661316
787.823547 -354.062073 -793.180298
988.348694 -826.674438 -744.396301
583.094055 -10.914238 -943.089661
811.395508 -204.174683 -634.616028
845.383118 -165.107407 -879.873657
842.389282 -368.599396 -661.664856
1009.670105 -770.913879 -855.116089
672.995911 -857.326233 -1024.522705
710.232239 -11.020998 -868.172424
1186.769409 -653.690613 -866.787903
1192.945313 -515.745483 -1171.880249
771.770508 -450.768616 -610.665466
851.282166 -840.513916 -866.904053
505.440033 -39.756771 -1004.449829
732.238525 -50.253616 -873.780334
780.566833 -338.632629 -864.337585
833.888916 -329.423431 -748.586670
713.933960 47.397316 -857.652466
852.354675 -318.961853 -747.419434
628.552368 -475.796021 -689.424377
704.273682 -447.941650 -653.666565
557.299255 15.514324 -958.128723
633.553711 -116.013573 -971.948181
641.104797 54.500614 -893.859436
698.753784 -422.231842 -703.868286
793.738464 -411.651093 -630.002563
919.771057 -810.636475 -878.103394
924.852234 -660.985657 -936.293823
590.357422 -521.442505 -712.854675
972.258484 -782.112427 -883.683533
703.364563 56.127491 -852.374512
648.309143 -411.665344 -827.834839
694.462219 -373.873474 -812.166199
663.822571 43.491150 -877.539612
977.450195 -792.430359 -839.047302
608.118774 -456.378723 -768.726440
684.298645 -795.657776 -1002.166199
856.185486 -785.343933 -1010.857544
855.176941 -277.945313 -905.257263
768.294800 -60.520031 -853.877747
636.613647 -878.712158 -1040.340454
519.989014 -467.704407 -889.664551
815.213074 -256.838684 -1060.644409
782.513367 -279.823364 -934.722839
639.287903 -362.688049 -968.160889
561.621216 -111.763153 -994.130127
592.463806 -537.121826 -694.134216
1098.938232 -735.455322 -799.380188
1076.448975 -727.027344 -862.645386
660.252136 -19.317911 -906.896484
833.819397 -106.817162 -866.103699
796.877380 -0.606318 -820.085632
783.226990 -458.820831 -596.843811
961.577820 -801.995300 -790.373901
946.841370 -746.377502 -937.360718
925.784668 -812.354370 -824.833618
710.017456 80.352913 -876.070007
637.612427 -383.334045 -938.072266
603.305359 -379.790314 -985.971619
735.384583 -872.026672 -945.855164
769.203857 -835.161926 -983.359375
704.416870 -393.102966 -783.544373
1180.617310 -540.002136 -1192.586548
843.065735 -743.136841 -1156.431396
635.970154 -447.850891 -793.662231
1008.102966 -662.452271 -896.645264
795.238281 -34.364243 -832.945190
719.630554 -118.350151 -933.144409
804.956177 -906.597717 -784.218323
794.295654 -52.128326 -846.674377
1108.955933 -702.924805 -885.665833
745.678101 -851.332458 -1008.699402
828.137634 -701.857178 -1009.045837
829.261108 -156.410110 -877.639160
740.825684 -114.249031 -900.616028
718.464844 22.792570 -848.591980
985.272095 -833.996155 -721.233704
946.500122 -755.047058 -953.555969
679.598633 -482.027954 -645.341064
705.383911 -334.784882 -1015.582581
882.044312 -800.985840 -969.424438
1140.911133 -603.860840 -1058.246094
1012.925598 -728.851135 -941.925537
1156.552368 -508.010315 -1240.298218
683.842896 -348.668518 -896.314026
763.902527 -53.159428 -861.575928
622.963745 -437.027435 -778.475647
1060.869141 -654.313354 -1055.459473
839.032959 -93.131851 -851.534241
755.766418 -96.374435 -891.183960
992.721680 -720.620605 -936.919189
815.566833 -894.271484 -802.671204
840.291870 -301.656525 -800.811523
857.636597 -845.436829 -924.939758
702.669189 -394.334930 -771.013000
581.674133 -527.314575 -713.991821
614.797180 -409.985260 -880.153992
678.933411 -146.763687 -947.927856
991.781494 -637.085449 -993.444336
658.463318 -160.544693 -981.384033
721.275940 69.127159 -864.537903
865.123901 -291.760193 -794.338806
814.531555 -113.254883 -867.245178
675.250305 -332.335876 -997.548889
612.773926 -213.178696 -1007.667175
864.557251 -876.494995 -820.926941
986.496582 -830.210510 -721.248901
1095.231079 -734.525513 -835.483704
691.421936 -419.560181 -764.697205
531.549805 -102.554970 -1023.134888
834.166870 -178.785065 -919.099426
551.937805 -0.789675 -963.013794
778.520630 -912.432617 -849.748352
863.657043 -774.085632 -971.161316
595.415100 20.119221 -927.380859
695.039124 -374.450073 -856.594482
710.359436 -366.452576 -837.208313
832.848389 -286.772034 -671.362976
545.307129 -163.016098 -1044.958618
767.032349 -104.589676 -885.862854
770.483521 31.683237 -833.105652
819.798645 -802.213684 -1025.928223
772.882751 -18.198153 -833.527344
724.843079 -21.343876 -877.401550
788.132935 -835.025391 -1048.155518
872.533630 -705.536316 -1067.944824
813.652405 -74.678497 -849.199280
833.269104 -122.918076 -656.661621
820.239197 -349.477844 -705.066772
1180.992065 -661.039856 -825.231140
628.157227 -418.644135 -872.720154
874.699829 -671.589294 -1031.230835
634.710205 -79.765396 -950.355835
655.465637 -419.047546 -753.215515
656.842468 -410.883514 -755.701599
584.321899 42.100243 -934.493225
879.632813 -868.262512 -742.986694
1170.628418 -662.258728 -902.434753
671.767273 -13.798656 -908.355225
826.948303 -80.499496 -859.274414
780.027039 -770.658569 -1013.070557
541.981445 -143.486755 -1033.104614
598.679626 -121.988998 -987.181824
613.967041 -204.185165 -1019.545776
647.885376 -226.668961 -997.252747
915.372437 -808.506836 -849.524963
877.455322 -757.737671 -1047.829834
744.740540 -889.140686 -921.458435
851.970642 -890.122864 -757.659180
1039.567993 -747.044617 -862.078796
769.721924 -113.474205 -892.777283
620.101440 -104.048363 -966.550476
550.305176 -171.718765 -1022.876892
814.041748 -263.864777 -616.635925
582.467346 -521.604858 -712.532837
411.639709 -327.265228 -862.018616
854.484619 -782.099487 -1027.952881
643.438904 -394.577118 -880.769775
1086.028564 -748.211426 -825.986389
877.544983 -792.136597 -909.807678
641.291138 -106.445175 -957.633850
559.167236 -431.984222 -846.682312
851.088806 -338.994904 -700.632629
697.821777 -63.877281 -918.087219
847.732849 -313.798431 -776.887634
755.448120 -377.549011 -779.554138
828.201782 -794.199341 -1029.775269
783.320068 -338.681946 -767.041931
634.550903 39.974472 -917.592773
791.504578 -331.977356 -817.140442
966.985535 -825.681519 -765.343872
720.222290 -402.966675 -719.856934
996.775879 -730.283936 -916.813599
868.262939 -843.088074 -803.483887
810.971252 -877.387939 -856.446228
811.141968 -346.735382 -691.986389
803.058960 -689.277588 -954.651733
793.106750 -818.398987 -1030.998169
655.095276 -377.343140 -897.393982
697.409180 -95.012741 -927.917114
858.531494 -818.303650 -961.139221
895.603821 -852.584717 -762.963867
1040.844238 -751.394592 -801.887756
1015.859253 -651.408875 -1077.444336
682.805542 -15.455380 -895.440125
924.988037 -782.084412 -859.923889
1123.876343 -527.601379 -1206.882324
656.788452 -426.221130 -725.469482
1116.814941 -745.724792 -750.538452
874.648438 -716.233215 -1032.349976
1061.121704 -714.692688 -862.567078
871.488403 -848.648560 -850.929504
857.344360 -888.524536 -743.991821
654.114807 -461.555206 -731.569763
565.194275 -65.760735 -989.019226
706.535706 -338.750824 -940.939148
625.466309 -411.641205 -847.974487
509.437988 -509.860565 -810.412903
922.364014 -891.441162 -706.025330
851.425781 -348.621918 -678.128174
1102.371216 -655.188843 -856.219971
690.554016 -824.166504 -1099.309204
851.356934 -284.410614 -915.395081
1063.374878 -717.919067 -849.567993
1015.364868 -754.484253 -882.634583
1087.592407 -744.886047 -747.394592
673.312500 -13.811323 -900.689819
580.839844 -464.683594 -824.123474
663.876587 -872.535583 -1040.281006
821.802246 -166.678116 -613.816589
757.400940 -412.863342 -684.382385
821.772644 -752.518005 -1178.297241
786.782104 -38.111641 -842.137817
812.664124 -365.075806 -685.419128
1052.578613 -687.501648 -928.098450
1019.580994 -649.559387 -1126.036255
713.707825 -397.749512 -826.532166
888.075989 -702.790894 -956.752747
839.728882 -915.332886 -773.809937
807.020081 -865.841064 -885.995483
615.958679 -173.975693 -1005.681152
755.808472 -327.791779 -839.093994
855.491272 -823.617432 -750.183960
612.063354 -48.808727 -948.450684
814.506348 -96.228470 -861.048584
574.598450 -115.865082 -996.009399
701.686584 -189.819260 -985.238770
1078.697021 -629.984253 -1061.467651
702.081726 61.193668 -867.241028
799.954407 -787.693909 -1035.907715
592.010010 -69.815216 -971.342346
851.348877 -815.942627 -956.919067
869.290344 -895.302429 -764.961243
760.130615 -363.691681 -774.354126
769.414734 -473.826019 -602.329407
846.933105 -849.486755 -809.565369
945.882202 -821.655640 -829.091064
797.345215 -312.535339 -886.089478
645.318665 49.189026 -886.401062
833.060730 -904.240234 -751.068115
989.677490 -781.457397 -854.029480
741.213318 -366.973480 -753.894531
1018.166748 -793.824829 -812.209229
543.599854 -118.016518 -1014.595520
718.269592 -387.092285 -852.564392
726.600586 -884.677307 -925.883057
741.247986 -416.015503 -646.809326
679.692566 -141.044769 -947.453674
806.103394 -852.687500 -885.477173
1119.273682 -629.226379 -905.852234
815.671021 -862.102478 -935.109192
789.327209 -70.131706 -856.010986
1128.845581 -551.666565 -1068.936646
661.274170 -343.528412 -1029.470093
