ply
format ascii 1.0
element vertex 1365
property float x
property float y
property float z
end_header
-1149.880371 366.962585 178.696625
-1467.345703 275.567993 -272.219086
-912.477234 486.833710 430.185272
-1050.892090 229.125519 398.110291
-1287.808838 579.355835 -391.372467
-944.037659 326.274902 467.640198
-1407.441406 316.930573 -334.616913
-968.481934 436.530762 395.896973
-1294.931641 534.635071 -394.287231
-1116.531616 268.266022 78.673286
-823.768494 575.967590 145.340103
-1385.086792 600.993347 -235.106567
-1049.002441 348.383301 377.757111
-903.965698 427.525970 459.767975
-1023.149963 436.391602 356.299072
-1475.063354 379.037384 -160.997711
-988.067627 555.661194 -35.532780
-1198.081421 314.450989 194.848709
-1412.918823 751.059448 -127.133667
-1466.756104 371.081238 -232.000626
-991.525879 359.199066 402.265442
-1028.608154 451.805817 47.677864
-1452.455078 247.166122 -250.452560
-1565.671509 631.139404 111.751953
-1114.766846 432.096283 272.820007
-1474.196777 320.488434 -169.010193
-1018.153320 326.761475 415.698120
-1369.632813 410.884338 -350.583160
-1412.476318 527.040527 -189.654968
-1108.726563 225.410568 341.910736
-1436.234253 464.905029 -215.332993
-1090.322754 391.496155 315.316162
-1062.837036 286.715302 382.375946
-1000.597778 317.608368 -92.955841
-995.444458 576.055786 26.091106
-974.653015 432.599518 -130.211945
-1190.690186 344.167908 205.153946
-1025.405884 466.344482 343.943634
-1038.223633 219.471664 412.737183
-958.463989 503.835114 -97.573952
-1456.441528 419.247772 -250.643234
-1032.512085 284.255280 412.169800
-1408.507813 372.567322 -311.764191
-1365.850342 743.953552 -169.328232
-1307.512207 515.910461 -391.532654
-1396.539673 570.436218 -114.737701
-976.459351 251.998581 511.641357
-1026.193359 487.858704 335.311890
-1091.605835 416.244904 317.024841
-996.386353 232.528214 438.891968
-1054.054199 340.168945 40.143799
-1069.432495 424.028778 74.656883
-950.077576 377.332581 446.371368
-1123.236084 269.384033 321.951355
-1061.849121 377.064850 347.148102
-1326.293701 577.764160 -343.638885
-981.154175 379.735779 419.100433
-1019.260803 254.823029 -74.835335
-1376.132935 446.070282 -326.084473
-1058.179199 365.757599 364.819794
-1039.529053 321.263916 13.883951
-1454.507080 362.336517 -243.271210
-1302.545166 442.357971 -368.977448
-1308.911987 514.465088 -347.098633
-990.458130 374.435303 -52.289299
-1038.220581 435.015991 21.339308
-1413.636597 340.055267 -320.814697
-1293.479858 569.968384 -416.575562
-1012.297119 492.883240 30.470844
-1030.674927 259.204742 -109.583824
-989.204163 496.988739 -12.718745
-1182.332886 341.158722 163.481644
-1506.074463 259.348328 -182.478348
-1364.937134 536.656921 -116.196861
-1466.364624 668.138672 -73.408134
-1397.373901 626.331726 -232.412201
-1012.703369 503.487610 34.903137
-1388.530029 474.350586 -252.783493
-987.188721 473.048889 -2.059729
-998.833496 547.483521 332.445190
-1461.187134 404.937317 -224.288696
-978.983398 527.052612 -30.473675
-979.035522 254.569580 483.922394
-973.859802 371.680054 -70.544838
-1062.280884 396.321655 343.574097
-1120.853882 456.042389 143.897308
-1628.346069 624.564026 114.050003
-1510.546509 282.590271 -157.882843
-962.278137 519.446838 -81.301048
-1439.491699 362.961853 -272.915680
-1113.253052 419.623138 299.695038
-1409.497681 471.822601 -251.375183
-1091.229736 433.547638 92.372978
-1078.429443 412.104523 99.264420
-1362.188965 683.494995 -244.465836
-1350.054565 337.396240 -384.826569
-1380.598511 444.844513 -336.242157
-1132.940918 337.725220 98.908455
-1379.145996 493.476379 -267.614471
-949.685364 434.920013 -97.637108
-974.897827 525.622009 -2.767978
-1017.130859 280.748688 -50.386631
-1345.140625 668.927612 -288.075043
-1429.955078 606.759521 -171.435883
-1024.666138 519.013428 37.621101
-1521.779175 620.836060 -30.522726
-1602.063477 667.999268 141.062729
-903.937561 360.333679 488.791168
-1637.017090 602.237061 157.445038
-927.868958 371.615021 464.771118
-1324.774536 641.346558 -293.861816
-1056.339478 356.741638 360.513641
-967.289124 412.138885 -119.305550
-1043.405273 468.468140 50.153358
-1364.780884 648.929749 -230.520142
-994.910583 369.973572 395.833496
-993.602600 382.330048 404.264374
-1350.625488 534.734192 -330.174347
-1474.348389 579.913086 -49.221642
-1031.809082 375.642883 371.949036
-1001.302490 286.286102 -95.992363
-1139.025635 323.845367 296.360291
-1016.892029 543.291687 73.881042
-1032.587524 402.876404 352.235443
-1001.808167 576.812988 43.132061
-914.480896 369.406372 492.746124
-1168.495850 312.810608 183.659851
-1111.435913 488.083618 174.920044
-1017.393005 317.774567 429.901550
-1014.341919 259.470520 -134.089096
-1015.735840 368.381073 409.598297
-1120.342041 412.400848 123.769905
-1093.522949 340.763153 337.410980
-1043.470825 402.147552 360.871643
-1300.404785 541.719116 -392.114929
-1090.996216 479.875519 145.694550
-1023.636169 506.230774 330.087433
-986.505920 444.653198 -50.630867
-1001.944946 366.578583 -133.579605
-1369.753296 335.869537 -354.505890
-1321.275391 594.247070 -319.229218
-1063.311279 263.966400 -21.175327
-949.406799 476.028717 -107.134186
-1414.932251 631.742126 -184.296463
-959.255798 388.425446 427.775024
-1037.591919 474.029053 44.688606
-1119.562500 335.279785 317.535187
-1282.899170 636.956604 -347.540955
-1122.332642 233.058914 59.397957
-991.118774 397.290710 -87.259193
-1314.460327 539.187317 -338.359344
-1435.190063 254.011688 -216.045364
-1411.795654 595.327454 -180.948944
-1392.730591 658.577759 -219.370789
-1070.655396 232.854248 373.799500
-1002.696106 356.308228 412.071625
-1356.695190 403.739471 -363.419312
-1337.278687 454.605896 -315.664337
-1375.089844 538.475464 -281.092957
-940.813171 331.973206 469.785736
-963.755310 482.015442 -114.511826
-1029.850098 241.477448 -85.737282
-1380.678467 527.516418 -264.656097
-1183.785278 239.605942 141.748306
-1051.513184 235.019104 393.560455
-978.703186 495.190887 -42.891811
-1606.847412 367.486328 2.010514
-1477.103027 369.448669 -141.075684
-976.947083 434.289154 403.754364
-1394.793579 446.495392 -66.604355
-1201.272827 342.135101 167.948044
-1115.296631 350.534698 320.586304
-1063.092285 317.279327 3.450758
-1058.389282 416.552582 339.833405
-1236.168579 446.527618 -153.504883
-995.193176 476.245178 351.940063
-1139.580811 260.608826 98.194183
-1052.436157 416.122009 337.665375
-1523.761841 570.265381 67.739311
-1021.905945 504.388733 312.858398
-969.317017 351.875000 450.807007
-1016.492432 232.499924 422.886719
-1044.762451 578.950623 108.119316
-1438.609131 481.930847 -43.823650
-1011.087402 326.621063 -122.769463
-1337.464233 369.497711 -408.851837
-1029.697021 445.055603 34.072575
-1470.654541 427.784088 -204.348740
-960.695129 516.740112 382.374969
-1081.466064 257.036255 370.902191
-1002.428040 558.686035 52.074696
-964.000671 497.779510 386.688293
-1300.663208 460.786560 -424.296692
-958.749207 322.810242 480.804230
-1337.755981 443.041534 -161.463882
-1096.030762 229.148422 348.324310
-983.351501 293.817505 -110.116180
-1144.528076 224.797195 120.421402
-982.072083 365.443085 408.169006
-1312.290894 389.910095 -414.905792
-1531.523560 588.012939 -48.022732
-1187.009644 301.786438 180.212402
-1084.467041 263.182709 3.068924
-1009.464294 513.929749 335.803162
-952.699585 327.772430 458.693481
-958.630249 454.700928 -122.165840
-963.239990 473.311005 -77.481247
-1362.927490 445.052460 -358.827332
-1125.060425 459.042664 167.346863
-1317.111328 678.399658 -308.495941
-1302.844238 648.278137 -362.341217
-1337.675537 802.205017 -199.210281
-1401.232788 769.500488 -90.860458
-1292.210571 397.701233 -433.639404
-1267.131958 529.814575 -414.965668
-1378.637207 696.422424 -220.501175
-986.653137 430.529877 397.515503
-905.884766 488.658722 444.321289
-1299.196777 471.494263 -436.659821
-1519.739746 567.639465 54.618603
-1414.369141 567.022156 -228.305038
-1350.571045 652.963623 -298.946411
-1459.478760 378.939209 -212.788818
-987.706360 532.836548 13.478936
-1028.651978 251.167374 -95.679008
-1366.184326 669.291016 -217.449448
-1436.824219 411.697144 -262.561707
-1497.038086 334.367584 -188.395721
-922.149414 349.078369 482.886993
-1622.270386 713.862427 135.536087
-1418.378662 302.754333 -299.851807
-985.309631 502.294159 361.620087
-1393.408813 340.512238 -349.490265
-1442.384766 387.970428 -263.992859
-999.090149 427.488495 385.294647
-1042.946167 399.462646 36.657917
-1284.258057 462.129395 -405.329926
-1405.542603 652.512634 -203.143951
-1194.340942 358.799927 206.385666
-1399.801025 555.711609 -225.715302
-1202.145630 340.086823 206.293091
-1408.794922 441.401489 -301.842194
-1437.188965 288.819977 -308.771637
-1323.265503 537.044250 -371.711914
-1052.298096 359.390564 20.069193
-1354.733032 809.500305 -202.243576
-1369.672119 686.743958 -255.532013
-977.459595 408.061371 -61.431259
-1030.613892 233.326477 -92.423424
-1036.965942 288.378906 -31.640598
-967.432739 390.512726 -118.922478
-1395.231689 749.817383 -113.222763
-1323.291382 752.526978 -261.148590
-1115.472168 408.527710 121.409500
-1305.119385 498.224731 -392.171112
-997.169128 417.383759 387.209503
-1038.795654 288.129456 389.424164
-1003.298645 389.762115 -50.066231
-1459.320557 444.314331 -173.910507
-1382.187256 683.866028 -221.728439
-974.841919 363.433472 -76.694885
-1440.167358 298.356110 -234.581955
-998.555664 444.979614 -140.666336
-1004.595520 341.221252 432.135529
-980.787842 443.406525 -62.425083
-1048.762207 302.899597 -35.092220
-1370.199585 669.497681 -213.028534
-1077.399658 479.055359 110.080231
-973.856934 311.723053 459.039337
-994.275208 344.645691 -63.264107
-1011.565674 241.305084 430.855774
-1487.607910 389.487061 -213.077347
-1000.042969 338.441345 -78.838150
-1336.369019 666.984375 -267.169556
-1049.410522 453.629547 334.137787
-1077.938110 179.971436 -31.919306
-914.424683 481.157349 452.110687
-1102.846802 221.819748 37.615604
-1023.451965 226.525558 411.251862
-1378.166138 636.536011 -266.720795
-1082.650879 439.804901 288.861877
-1030.506958 518.412292 65.981720
-929.777710 384.595673 462.784943
-1419.558960 599.635376 -177.389557
-993.919128 412.446503 -36.294022
-1484.637207 320.313202 -236.069031
-1025.768799 319.571564 408.095276
-963.137634 385.230713 -108.160172
-1008.982361 457.634491 23.058128
-1118.049194 211.486130 49.651859
-1478.448975 372.958099 -169.133484
-1004.153931 342.417969 -55.252987
-1393.256470 402.380829 -316.758362
-1112.433838 246.088089 331.008118
-1074.324829 388.231537 327.165588
-1304.078003 546.373840 -381.106537
-1361.394043 417.664001 -354.680878
-1285.788696 559.909790 -418.753204
-1102.328491 521.707275 164.007187
-1076.490479 301.448151 347.203796
-1048.603516 217.713120 -46.073254
-1070.879028 419.312012 47.172905
-1075.788696 417.621490 302.792419
-1279.110962 544.176880 -420.921692
-990.245361 488.465790 -3.810817
-1152.989014 349.480438 176.416245
-1571.045654 376.598175 -43.060436
-1088.897949 380.588654 321.236694
-1012.505005 541.241272 321.316833
-1394.918335 564.369202 -133.662186
-964.455872 502.058197 -47.752632
-1014.409912 560.832764 304.377136
-1105.922241 362.788086 324.974152
-976.404114 272.923584 452.611420
-1406.627563 531.231873 -111.256752
-1342.788940 534.296631 -347.063446
-1404.473022 642.780823 -188.402191
-1026.118286 358.834045 395.971527
-1289.921143 596.485229 -365.929504
-979.014404 408.157104 425.051575
-1328.563110 727.576965 -289.604919
-1356.400635 701.032349 -268.521667
-1019.157043 254.574265 -94.671440
-1077.869751 264.369202 27.273849
-1546.391113 259.004852 -126.068871
-915.122437 395.239471 463.261536
-1113.001465 206.633377 339.558807
-1452.952515 279.990448 -289.529572
-986.703125 509.001038 370.553528
-1355.063965 753.490479 -136.124039
-1405.006714 728.055298 -173.666977
-1058.941528 314.409485 368.697906
-920.734497 461.230286 432.210083
-1088.766846 217.939011 15.119418
-960.301514 460.034546 -96.029724
-1383.887817 417.338745 -332.507996
-1390.569214 611.195496 -265.507813
-1196.325195 249.603851 152.319504
-1474.462402 307.745636 -148.947220
-960.177979 435.201263 -78.149902
-1052.241821 342.969788 367.292755
-1515.691040 680.331360 27.447882
-1247.313965 472.604095 -145.740250
-912.049194 435.607605 477.604614
-923.831726 487.767456 427.189056
-1285.801514 484.134460 -446.356384
-1305.526123 579.009155 -381.652069
-1065.594116 375.982605 69.421356
-1324.019531 722.192383 -283.382233
-1422.138550 410.385010 -283.107086
-962.556580 457.280975 -94.762497
-1299.931763 438.053467 -433.172577
-983.918945 478.703308 379.538269
-996.786011 340.740082 404.083771
-1116.940674 447.740997 168.845993
-1161.713501 218.855270 114.825851
-1403.264404 404.270721 -301.189850
-1143.611816 271.701782 101.348633
-921.864502 401.226227 450.874237
-1485.182251 343.053894 -208.499481
-981.116211 284.643280 461.253357
-1093.539673 472.998413 302.274261
-963.029236 505.176575 -37.237812
-1414.108643 439.375305 -269.328339
-964.608032 514.597839 -34.838543
-1391.973267 612.909668 -208.638092
-1563.558594 704.261414 90.229111
-951.154480 392.646942 425.744537
-1090.271851 280.256256 16.084423
-1384.813477 810.765991 -136.215698
-991.570313 271.433533 438.655334
-1077.487671 481.654877 119.515808
-1061.245605 391.978912 346.237762
-1441.445679 526.954590 -125.596184
-983.870117 353.028015 -85.007790
-1481.621338 333.014282 -190.215073
-975.320313 501.955536 -34.982700
-1407.295532 693.536072 -100.145363
-1427.581421 629.863770 -147.273621
-1375.486206 815.149231 -164.909668
-1425.671509 580.004761 -77.355408
-926.278625 499.480133 439.803772
-953.537048 385.496216 433.664001
-1092.623779 422.100220 126.832260
-1384.033691 412.873077 -326.067871
-1016.155090 436.894714 -16.258081
-1361.411255 691.578552 -214.709732
-1104.100952 221.197235 347.049438
-1351.667236 776.460510 -136.159546
-1065.775513 462.534424 323.179535
-1331.046997 729.630005 -247.441925
-967.163147 424.386719 -118.809700
-1486.972656 365.133423 -225.157944
-1084.588135 271.700928 363.493530
-1068.664429 255.684235 -2.362677
-1023.028870 364.454163 -17.359032
-996.486084 271.412476 448.522003
-1328.440552 707.741516 -281.971649
-1374.419678 449.211609 -72.337059
-1424.580444 637.612427 -174.823349
-1479.494141 397.059082 -219.233948
-1017.289368 389.164948 15.782641
-995.897705 380.856171 -131.138077
-1342.965332 451.984070 -340.762451
-966.796387 453.849976 -61.520390
-1157.301147 432.245239 167.909683
-1427.811890 441.542297 -247.939240
-910.933899 501.456573 432.012054
-1342.351318 742.948486 -214.237259
-954.843201 311.059723 476.998627
-1383.495605 688.629639 -164.761978
-1538.341431 390.414368 -92.344948
-980.048340 468.151947 -14.837313
-966.340576 409.820313 -77.909828
-1330.449463 447.701019 -326.191437
-1054.608643 308.873016 383.992950
-1451.660767 330.533875 -264.609863
-972.979187 402.803955 407.822601
-1382.009766 366.517639 -350.066315
-1425.165161 525.380859 -160.843582
-1011.052429 394.236694 9.188163
-965.785278 444.651215 -90.841759
-1013.936523 240.940292 -107.356743
-934.336060 458.849487 429.151031
-1158.759033 305.864777 135.128128
-1429.385010 596.683655 -174.627747
-1079.669800 257.790161 20.848276
-1053.301514 285.779022 -36.228458
-1007.892273 529.736267 27.040829
-1454.678101 343.369781 -257.803101
-1404.176025 529.586548 -67.366272
-1117.630249 437.318115 123.682404
-1077.190796 470.115173 300.745819
-909.869507 439.815186 478.209076
-1471.087891 383.278687 -142.706879
-1067.610962 383.171967 351.899048
-955.596497 475.496307 -100.937630
-1037.814209 220.465759 -73.019562
-1313.164551 468.129425 -366.394135
-1427.403687 326.313934 -171.718460
-1035.374023 517.490784 305.190674
-1530.196777 670.888916 -49.579964
-1352.420898 736.196289 -221.476822
-1375.150146 472.621429 -311.074615
-1322.655762 414.990845 -414.369965
-1290.516602 491.726837 -436.285156
-1160.469971 377.557312 150.300293
-978.967163 337.275055 -121.946518
-1320.663940 384.577118 -399.322998
-903.793091 469.511139 450.673035
-1472.859741 406.766235 -192.181808
-1293.098633 664.940552 -321.986603
-1202.081543 452.183594 266.211151
-1021.289185 330.171387 385.336365
-1020.420654 381.422211 -43.813267
-1127.401001 213.889893 335.927490
-1008.043030 510.086823 26.856596
-1059.895630 471.250519 105.201515
-1354.646851 633.139771 -280.979187
-1428.949341 548.126404 -196.365448
-1353.068604 724.543274 -231.416519
-1386.880737 785.137329 -169.630005
-960.903259 483.562073 -105.831131
-1092.009521 247.365875 40.484215
-1345.060547 458.381256 -167.125565
-928.911377 394.762085 470.396973
-995.282349 435.309418 378.673798
-1191.637207 306.575439 167.538727
-1323.501465 779.231567 -236.673981
-1353.799438 415.174744 -395.208771
-1286.341919 586.704224 -399.451843
-981.028992 302.507782 461.384705
-914.834045 407.717712 492.902313
-912.591614 416.625153 498.004822
-935.655945 405.600311 439.892334
-1326.844116 439.121796 -385.376312
-1358.147827 358.989746 -386.176697
-1035.991821 521.733643 299.692993
-1372.452515 602.957153 -243.428726
-1006.585876 560.974365 47.416267
-1160.585327 247.542328 148.719833
-1391.390503 290.862396 -166.429413
-960.105347 457.539154 -57.120567
-1020.330933 524.353699 324.431366
-1060.853760 193.724625 -41.920624
-1306.133057 520.119324 -383.127563
-1390.437134 784.702271 -174.888702
-1085.974976 218.615768 363.249420
-1029.234375 418.858429 358.874786
-1481.814697 245.014816 -277.326721
-1158.061646 318.218506 149.354858
-1068.739258 546.550354 132.267624
-1409.071655 610.521912 -231.511581
-1108.701538 241.294403 345.197510
-1475.134033 671.548462 -67.859352
-1038.146851 422.984619 364.300018
-1380.802856 560.085632 -302.912140
-1054.904297 558.221008 90.840240
-1377.885742 663.730286 -255.513443
-936.723816 376.821259 451.374298
-1472.159546 387.569061 -212.601440
-1447.770020 343.081299 -305.352631
-970.306763 381.764313 -72.684059
-1470.297241 358.281982 -160.582062
-1142.534302 322.500854 123.741096
-1488.314819 257.360352 -174.701340
-912.525940 506.195160 436.470154
-1571.220947 707.313354 90.521286
-1046.081055 515.255981 308.625153
-1378.894775 673.062134 -113.583481
-1362.195068 421.855835 -351.673645
-1041.998413 230.088043 -26.418861
-1057.758789 83.199974 83.347122
-1067.875122 269.380463 5.724012
-1296.627563 531.446411 -394.833099
-1651.392212 603.257996 172.156433
-1428.812866 422.846466 -292.707428
-992.367310 498.384186 364.297180
-1444.217651 585.828064 -168.391357
-1358.462769 627.514893 -136.301193
-1365.639404 552.051514 -274.558044
-1443.763062 266.661957 -249.005157
-1020.429749 349.923462 -58.503700
-1175.075073 316.610626 198.609177
-1047.077148 219.777710 410.270203
-1457.652344 365.920227 -222.936813
-1409.183960 488.904999 -133.260590
-991.492371 196.933228 472.862610
-930.802734 479.613434 421.108917
-1057.807739 174.164490 -52.313965
-1443.004150 280.598602 -296.102692
-1442.259155 425.035217 -218.353668
-1046.498169 358.138733 352.864441
-1099.332153 476.220367 296.258575
-1000.401978 545.073669 -1.449224
-1175.650513 337.630951 174.106049
-1644.152832 607.923401 179.578598
-1100.720215 476.694672 143.413605
-960.156555 444.047058 -97.414948
-1049.661865 547.810913 116.763481
-1069.463379 448.030701 49.965641
-1300.144775 517.510315 -418.837372
-1447.491455 639.452576 -115.744354
-1481.402954 604.921204 -144.025635
-1094.850952 237.005783 8.175336
-1093.933594 451.704742 111.255455
-1611.667358 674.311279 137.587891
-1028.234253 401.889496 31.034883
-1052.765625 221.360611 412.579041
-1003.750610 305.191101 411.776276
-1047.565186 517.259521 52.875561
-995.837341 534.608276 320.049927
-1481.069946 400.113800 -185.171371
-1087.464233 427.511597 314.016602
-946.395020 513.603333 -89.659111
-1428.548706 285.253906 -318.282715
-1486.612915 303.088684 -185.198898
-1327.013672 464.098938 -342.991760
-1054.230957 480.886536 311.555542
-1071.556396 442.260895 312.604706
-995.886658 396.681274 394.926239
-1352.662842 621.378906 -152.100906
-1327.069580 433.387482 -389.057617
-1420.392578 563.076599 -220.601425
-1006.263855 264.356354 -67.467888
-1441.280151 340.607422 -250.881943
-1508.935547 631.913757 -44.149746
-1058.951782 327.238953 364.202942
-1407.501953 799.617493 -133.401093
-1341.642700 660.572021 -303.704498
-1602.172729 294.820465 -87.055550
-1374.531494 360.194092 -378.616180
-1019.239563 474.110413 355.729797
-1207.940674 312.004730 213.905411
-1402.998169 609.025696 -192.670547
-1022.372864 477.078125 36.401382
-1449.437012 335.159454 -238.985626
-979.281189 324.804199 446.388885
-1450.959229 407.896912 -277.931610
-1395.377808 597.762756 -242.250626
-1495.455322 347.508148 -165.328918
-1360.817139 579.686218 -305.746826
-998.733398 314.571655 -105.230431
-1361.375732 695.828857 -154.070435
-1356.161133 357.414764 -389.388947
-1427.054321 461.724548 -230.261871
-1011.231934 290.543488 -88.670914
-1143.175415 273.431335 304.360474
-1496.788696 290.005310 -209.569458
-1161.639893 219.303467 108.288994
-951.527710 399.341492 428.488068
-1141.834961 252.145111 97.334030
-1319.698853 485.749817 -323.842865
-1273.109619 520.410034 -442.400116
-1115.915527 423.351288 108.619148
-1529.856201 657.964050 66.510475
-1390.745728 353.470154 -362.117188
-1396.700073 634.454407 -229.097702
-1342.057739 445.449219 -301.763855
-962.757263 465.931305 -61.830627
-1042.551147 422.862793 356.529602
-1027.694946 416.911804 376.210846
-1003.119751 420.652008 7.813324
-1109.629639 347.078461 325.533112
-988.056885 412.648926 -84.589325
-1000.299744 417.158783 388.433929
-1084.032593 282.867310 39.531586
-1041.072266 382.651337 371.898773
-1602.915527 737.019958 95.473503
-1145.997437 450.364777 207.616043
-1077.143555 212.862564 -43.971901
-1359.454102 737.840454 -166.087631
-1341.399292 636.752441 -318.080566
-1482.463257 649.816772 -51.620613
-959.117615 489.814728 396.578217
-1373.042603 669.316589 -259.323700
-1057.525879 344.604858 364.703369
-1372.329956 381.383667 -353.836884
-1541.572632 639.298035 25.816328
-1415.316406 708.907654 -162.955978
-1061.755371 459.970459 321.760834
-1004.501953 264.936859 -108.841805
-1490.163696 394.165741 -186.461594
-1461.826050 253.226257 -290.331207
-990.756348 378.174591 -75.227875
-1149.797241 279.959503 116.246002
-1133.932739 303.069122 101.241440
-1493.816895 290.800690 -220.843903
-1371.938965 799.403992 -163.979050
-924.853333 317.300323 513.746826
-914.848022 445.622314 450.209198
-1104.642456 532.339233 146.167892
-1404.442017 497.476044 -244.105347
-998.710815 485.305298 7.854001
-1048.722534 356.830658 1.586620
-1334.874634 656.371765 -269.563843
-1479.519775 267.239532 -202.739838
-1344.984131 556.583191 -303.643127
-1428.289551 595.203491 -97.174927
-1387.301147 698.588257 -211.893845
-1457.331909 334.894073 -225.831863
-1447.041016 392.054230 -245.831253
-1192.174316 280.213837 207.611450
-1369.052612 641.555115 -277.277130
-1146.514771 390.056824 187.801910
-1068.982666 356.321686 333.718903
-942.600525 490.675262 407.265259
-1006.412170 396.239563 -25.221956
-1078.327759 437.868164 322.076477
-1349.117188 611.677185 -297.980621
-995.981323 387.925201 -39.178818
-1393.542847 739.716431 -144.921570
-1284.931030 456.348145 -319.156555
-1644.053833 588.458191 160.159058
-1428.743530 429.267700 -135.609711
-1303.446289 483.173431 -399.244568
-1150.282959 396.989441 163.039871
-1384.062134 722.094238 -170.570496
-986.146729 431.573883 -67.959839
-836.889771 580.509888 189.038422
-910.805725 432.631531 458.614471
-991.350098 552.701416 -21.313541
-1273.758301 480.031281 -370.207733
-1149.200439 462.861389 216.716125
-1039.577881 401.367249 -8.191195
-1475.188477 430.745483 -109.614342
-1055.070068 452.019897 70.740845
-1081.932251 294.964081 354.711212
-977.625000 365.101440 425.249237
-1462.174438 545.513123 -122.738754
-1105.983887 320.671875 314.140747
-1344.058472 391.837677 -396.054779
-1090.465576 186.176651 27.054855
-1024.884521 586.092346 49.033783
-1067.770508 201.586716 -10.607234
-1332.866821 712.710144 -270.861023
-1135.450928 196.855667 78.447914
-1338.759888 717.101685 -194.068680
-1133.304565 272.784790 91.797859
-1017.920532 344.093201 404.145233
-896.154785 456.597687 458.645020
-1302.425049 662.245789 -353.708801
-1046.732544 386.517365 359.006866
-1433.310913 233.458694 -214.005951
-1048.844482 435.916473 340.764069
-1354.260864 485.138306 -255.905624
-1046.138184 232.752808 -87.108627
-1433.515381 273.692749 -306.663605
-994.161194 478.431122 366.141144
-1383.215454 557.061584 -247.792206
-996.920959 574.123718 105.305054
-966.461182 459.560150 -98.895645
-1320.055298 608.742493 -356.822540
-954.090088 428.658386 -102.326317
-1361.962402 629.779968 -297.255981
-1394.094360 428.715393 -301.095703
-934.302917 389.717285 448.647949
-1010.472473 320.401031 -27.671741
-1401.640747 646.137085 -223.410690
-1296.963257 532.648987 -373.073181
-1360.319336 465.932281 -326.295776
-1075.343018 286.491180 369.362122
-1364.298096 719.000488 -195.741180
-1049.931274 523.289246 309.418213
-1537.337769 684.176025 57.637703
-1109.817505 401.572754 312.249023
-1058.052368 284.929291 385.988220
-1061.631348 484.218323 307.296021
-1056.107178 369.092804 28.485926
-1011.405212 497.732208 10.700051
-1059.948364 310.887177 11.048021
-946.191833 554.275024 358.142212
-994.772400 339.123383 -143.221619
-986.310120 537.599365 13.544174
-1457.749512 470.203003 -49.734810
-1569.671509 269.715240 -102.625816
-1481.494751 356.806824 -177.439575
-1441.656982 535.326050 -169.204773
-1477.939331 332.376862 -186.885162
-1376.552734 630.130249 -120.003853
-1383.450684 604.873291 -255.260056
-964.087280 395.375244 431.180847
-1353.022949 552.866943 -278.850647
-1446.969604 357.883820 -293.283875
-1604.837524 757.411011 163.823929
-1025.462891 506.237152 35.972126
-926.549072 336.378052 497.006500
-920.699646 409.149292 490.028473
-1390.250610 531.993958 -288.283600
-1331.420044 496.866333 -299.906097
-1502.998779 311.023010 -155.139160
-974.388184 476.003204 -87.979950
-1335.239258 625.507874 -292.902771
-1050.255981 207.544937 -112.487236
-960.802429 445.468414 -134.089005
-1430.563721 353.441895 -262.156586
-1383.809082 321.360107 -344.333527
-1186.956665 285.249817 155.782242
-920.811584 473.134308 419.037415
-976.247192 371.525482 -94.033356
-1295.540039 554.718811 -403.669159
-973.671021 468.553680 375.722321
-1404.710083 572.120117 -116.527206
-1409.900146 686.736633 -133.830887
-963.201782 321.985352 449.096191
-1456.699829 439.488556 -167.912308
-1040.514771 477.221100 70.230049
-1437.739746 559.806519 -174.048630
-1381.247925 704.037231 -210.729446
-1427.950195 253.882736 -215.022049
-1062.270020 219.681946 -31.915201
-1314.361328 500.771637 -345.061981
-1081.571777 238.113602 -12.072666
-1399.700806 577.469543 -254.755432
-1049.325684 440.374695 28.636520
-915.087280 467.348602 439.862518
-993.709412 295.240723 -83.434189
-958.838623 377.287811 437.704803
-1183.988647 249.232086 149.486404
-1369.593262 610.492004 -290.983276
-1057.939819 471.271851 80.032005
-1086.759888 350.846649 344.013641
-1590.799438 758.871033 143.392853
-1276.563721 542.386780 -418.534119
-1367.239502 361.253967 -387.600830
-1061.766968 494.278229 313.904388
-1528.275391 677.580200 -21.905266
-908.075745 436.838348 481.906006
-1454.726807 662.301697 -118.612846
-1403.355469 361.733795 -319.222473
-1500.454956 360.753540 -148.024750
-1403.098267 587.887024 -235.620728
-1010.598022 267.374115 -142.008835
-1155.808350 457.283173 218.310669
-1381.522827 769.397217 -178.027496
-1530.633423 565.648254 -64.712051
-980.367432 454.557251 -137.142212
-1055.341797 165.994949 -31.770777
-1012.491272 457.896088 365.386566
-1293.125000 476.374420 -377.978088
-1041.902588 244.036469 403.852264
-1011.562561 461.125946 4.429113
-972.591248 377.772675 427.947998
-957.823242 413.255341 416.494080
-977.817261 432.388336 401.317505
-960.630310 427.515259 -80.124100
-987.657715 455.251465 369.770142
-1072.583374 252.786484 368.132294
-1338.928223 441.561218 -361.159851
-972.628296 237.751770 481.587036
-1036.949097 447.280548 346.296265
-963.309814 467.826660 -81.008865
-1424.815796 316.404907 -309.830902
-962.255371 361.717255 441.450409
-1331.825928 449.824890 -385.268890
-1614.658203 753.568481 176.679153
-1216.333618 490.194061 241.196503
-1097.174072 459.104309 138.629272
-1402.243408 563.314636 -272.512543
-1005.739868 362.516785 421.533417
-1552.724365 261.043243 -145.346024
-1044.728760 251.873337 398.104370
-1116.273315 350.262939 318.253784
-960.144592 286.959442 527.552856
-1120.264526 390.694641 116.299324
-1020.052612 247.486359 -77.752419
-1057.583130 348.695007 353.660034
-1386.665283 573.980042 -264.770020
-1445.941528 565.427246 -79.604752
-1374.489136 661.758484 -128.951859
-914.198181 408.126282 457.900513
-1060.971436 267.540070 413.985657
-1323.158203 447.040344 -384.772339
-965.911499 552.003601 337.585266
-1629.995361 673.875244 172.821182
-1035.028442 275.152374 407.145569
-1048.975708 314.106323 388.561096
-1027.353394 351.419250 372.003021
-1048.331421 524.078674 91.037117
-1481.054565 279.185242 -195.263046
-1051.114746 246.436356 383.539551
-1532.746704 652.577637 54.010418
-1322.712402 636.544983 -322.741119
-1419.837646 643.388306 -168.263000
-930.163635 381.463379 500.239471
-1083.760498 231.376999 373.794495
-1019.311157 334.540619 407.103851
-1042.246216 362.492462 38.982979
-1382.729980 532.736389 -253.091721
-1053.526245 280.095978 391.951447
-1002.271790 309.179901 447.716003
-1066.650635 518.799500 303.794128
-1036.281372 262.324554 404.406921
-994.749573 589.967346 53.282154
-1212.450317 300.505371 177.695862
-1391.262329 398.944366 -288.684082
-1109.005127 336.188202 303.332642
-1480.156250 405.008667 -183.360687
-1469.606323 418.376221 -228.048981
-1334.565552 545.295532 -348.628113
-1447.635010 329.332703 -125.538887
-942.235168 356.312836 453.123291
-1635.133179 723.944336 130.993423
-1016.931030 494.881439 334.653717
-1440.253662 224.738724 -215.946991
-980.730225 487.455139 365.439423
-945.578491 459.521149 417.873566
-1452.213745 313.697662 -259.851440
-1068.157471 449.322174 330.455750
-997.058716 445.249146 -13.197128
-1550.785645 572.272217 11.474277
-1352.578491 745.593689 -239.034637
-1434.940796 610.750732 -79.030815
-980.138184 368.328033 -55.408585
-949.552795 528.230774 395.385315
-1060.493652 187.265640 -47.792702
-1076.986206 433.160187 93.262169
-1071.541016 439.183289 99.763405
-1020.628418 233.619705 439.631042
-1077.076660 336.505310 28.212196
-1082.081421 353.576233 60.804131
-1365.755615 682.129456 -262.449738
-921.425842 500.184143 412.091278
-984.310364 371.717041 -110.094429
-918.336426 448.854523 445.014343
-1300.906494 479.791626 -350.178406
-1191.987427 253.160751 119.755905
-1081.906616 394.712799 333.967010
-1393.366333 664.219238 -172.186920
-1057.240356 247.793915 394.744110
-1584.919678 735.030334 91.568176
-1479.883057 360.587646 -149.948898
-1438.167358 571.216614 -207.069290
-1361.708984 448.857788 -330.490997
-1373.623779 560.903809 -259.766418
-939.624634 556.912720 -8.539953
-1438.175659 310.598145 -265.301880
-1408.316528 302.035248 -331.754669
-1000.999146 498.007477 355.467041
-1426.616943 328.981598 -151.131927
-1025.430542 408.104095 368.815277
-1118.453125 240.846283 58.636120
-1072.835449 306.955078 362.579956
-1361.519775 711.396667 -157.509003
-1480.086670 405.413147 -171.879120
-1045.532959 582.061707 314.539032
-1521.115601 208.456284 -187.348831
-1481.508179 460.472473 -156.789276
-1011.881409 445.665985 13.594556
-1429.748047 528.236572 -95.525223
-1063.196533 510.296570 105.076660
-961.212036 440.047760 411.848297
-1063.706787 529.361694 300.168823
-1005.081177 458.601471 24.504646
-1357.086548 698.797424 -151.746964
-973.771240 584.028320 96.805664
-1155.428467 346.317383 127.950844
-991.230896 333.168335 -102.476738
-1105.487793 281.883423 328.589081
-1157.102295 312.912994 115.662369
-897.574463 454.758057 457.896545
-934.774292 335.437012 477.566650
-1404.559692 624.530884 -210.207855
-1296.040039 422.607513 -440.106934
-905.053833 494.502869 440.829956
-1010.705383 405.431122 6.917546
-1034.144043 495.552856 34.822666
-1070.550049 258.845276 4.278204
-1371.097656 704.730408 -166.131546
-1086.426270 314.303497 333.919403
-1382.951416 614.598999 -256.305847
-1054.003174 410.097809 340.264709
-893.308228 462.068451 469.419342
-993.104919 304.585205 -130.366104
-1402.179077 562.452026 -244.492523
-1027.029785 302.233215 -11.768225
-1127.146484 443.982513 135.543106
-1503.470703 302.929901 -197.057480
-1042.935791 512.592163 93.187927
-995.319763 265.354797 -114.411812
-1488.205566 686.465881 -61.091446
-1046.533447 215.303024 404.899597
-1377.410034 393.207611 -361.558838
-1312.101318 478.775848 -399.601654
-1381.666870 677.425049 -232.207260
-1339.110596 774.082520 -208.586258
-1546.367188 568.229126 -2.195274
-901.298706 483.248688 441.766937
-1430.621948 238.069550 -306.439941
-1521.524536 268.802368 -154.304596
-1160.322754 486.189026 183.078201
-1022.254028 372.404449 -18.052820
-1110.599487 388.578003 293.761841
-1347.446045 409.365570 -373.632874
-1048.281250 348.817841 -13.964193
-1150.693481 440.842377 176.161926
-1081.818726 370.995361 53.050358
-1343.558960 519.062622 -331.169403
-1038.877197 230.900131 -55.295483
-1444.703979 507.124969 -158.211411
-995.738892 335.039093 -112.128189
-1415.312988 443.197601 -141.496353
-1526.903076 660.024536 -19.352285
-1349.710938 633.273071 -312.241180
-1356.744995 782.786133 -193.061691
-1447.649902 577.397339 -146.758789
-943.738831 351.867371 485.261719
-1342.300049 719.740234 -210.692307
-942.313110 407.338257 437.954773
-1590.681152 360.837524 -49.132710
-976.219116 488.907440 -31.850594
-1341.170044 729.577942 -222.780197
-1487.432007 299.139130 -197.227829
-1127.417236 438.266022 146.734955
-1394.274170 334.867493 -324.343140
-1481.818115 202.175003 -256.575958
-980.296875 422.103333 -36.362106
-1363.335449 725.596252 -182.350037
-1391.415894 613.466370 -207.416885
-1048.788330 399.129547 57.004143
-1151.031738 465.123383 191.857788
-1365.697266 693.285461 -146.226501
-956.354553 329.414948 461.586151
-1202.336426 252.559174 168.387009
-1007.479980 546.871887 325.479950
-1487.208252 304.216278 -245.192093
-1364.907837 336.264160 -161.115387
-941.925415 516.988953 415.189240
-1418.780762 547.168579 -255.488907
-1088.119873 521.928650 119.061440
-1111.262085 290.337006 341.777222
-1456.109497 310.887878 -282.858826
-972.730896 330.760803 433.420319
-924.011658 403.281281 471.896973
-1074.907104 262.642212 360.574036
-1167.914917 373.166016 213.055725
-928.018860 348.710266 497.861389
-1087.411377 248.803375 -11.069181
-1116.096680 343.001953 312.102173
-1426.785645 334.468536 -317.510956
-949.108887 470.307831 408.248047
-1569.310547 289.225494 -111.549675
-1491.741455 299.799194 -158.420258
-1011.043213 480.200531 28.510214
-1359.472656 600.132507 -289.792145
-1405.237305 335.742676 -330.179413
-1307.083008 676.885559 -347.607666
-1129.813477 346.115326 144.459198
-1326.005615 366.364655 -405.736542
-1124.994263 547.549988 178.865433
-986.896423 417.888916 -61.530556
-1187.444214 292.972290 159.443161
-898.198425 442.287140 462.393524
-963.506775 472.602509 -102.999840
-1310.790405 616.723267 -343.904419
-1327.028442 400.533691 -405.225372
-1148.447021 361.346832 174.119080
-981.461914 437.108459 -123.719276
-1406.479004 689.672607 -175.728653
-1031.374878 428.087891 -7.330298
-1026.651733 518.087402 319.752869
-948.162720 398.077515 446.304291
-1120.345093 337.953796 84.804634
-1465.479614 235.838776 -266.456055
-1492.995117 202.111023 -251.492065
-1092.750366 359.257751 310.971924
-983.324951 512.729614 10.476654
-1428.107788 325.691376 -306.053986
-1298.566895 658.875244 -322.070068
-1352.928589 689.567505 -130.540848
-1153.836670 268.713989 146.262512
-934.470764 408.010956 454.615906
-1427.363037 420.372375 -290.475861
-1076.135498 469.417084 67.160904
-1143.114380 396.905518 158.316772
-1404.033569 329.057312 -336.621063
-1033.069824 324.498627 -19.075335
-1065.422852 466.334839 301.799011
-1369.360229 418.022766 -303.610199
-1029.842285 337.708313 -19.357061
-1188.840332 367.164612 187.028656
-1490.560059 425.080353 -52.921646
-1466.885132 426.118591 -165.053299
-1342.354126 703.493469 -160.478088
-1501.363159 301.877167 -166.889893
-1119.366089 377.239166 303.142822
-909.265442 483.876709 468.647522
-1351.467529 481.453949 -121.331169
-956.113098 500.079437 -47.405293
-1008.032166 330.153748 -48.939335
-1121.229858 242.800720 31.371178
-1028.463501 228.935257 -118.720024
-1343.206543 382.092590 -400.408936
-1060.152100 391.470032 350.418884
-1479.166016 275.069763 -213.328720
-1153.616211 490.367279 193.099274
-1348.257568 732.684692 -221.551865
-1477.869751 580.893738 -127.633568
-1362.293701 575.005310 -292.175415
-1032.985474 355.581665 382.241669
-1330.902588 457.602509 -413.409302
-1283.149292 452.924652 -388.776215
-1036.879761 311.118378 5.767673
-1011.872070 247.944626 436.998413
-1402.414185 747.097290 -140.335938
-1008.216125 359.825653 409.979950
-1481.564087 669.043335 -56.259235
-1430.778687 289.410400 -314.017334
-1351.209473 720.210327 -247.022125
-1087.884155 211.673126 43.900730
-1371.790161 725.480347 -217.552719
-985.459045 375.211304 424.636383
-1352.395874 579.679688 -333.710419
-1299.290039 740.130920 -162.371323
-1001.444397 587.537476 67.183434
-1032.716309 433.287140 -3.240443
-993.799561 327.679077 -50.815128
-1083.609985 347.728729 338.408508
-983.515808 501.364075 364.051697
-1274.350952 434.801208 -449.369965
-985.712646 317.972839 424.149872
-1440.372803 417.761292 -109.801773
-1540.847046 681.771240 -19.481188
-1302.796143 480.399261 -377.500427
-1386.498535 697.750061 -160.553391
-1041.510010 349.501556 372.513641
-973.799011 487.502319 -66.457253
-1332.687866 590.898254 -329.597687
-1090.869873 277.186005 340.647766
-1414.274658 590.453125 -243.017899
-1402.382446 619.605225 -109.307785
-968.230408 501.491119 -52.106598
-1297.704956 439.713013 -431.355682
-1125.675293 318.821289 126.274681
-1018.787048 292.255280 -79.227531
-1107.760376 255.877213 52.324005
-1149.137939 390.634430 141.616058
-1059.329346 374.834869 338.957855
-1489.241455 414.890839 -175.445511
-988.130066 327.709808 -127.813095
-1109.059937 248.119766 50.585697
-1094.033691 297.808228 52.448788
-925.162537 407.210785 466.484009
-1411.494141 557.116699 -253.489456
-1551.765869 694.862915 45.268860
-1404.733887 491.493042 -240.337082
-908.216553 409.593079 465.687683
-956.611511 507.027954 393.780060
-914.220215 427.226410 451.315094
-1475.573608 388.442474 -143.326218
-1315.546631 425.171753 -419.473175
-1579.497803 381.355713 -29.610851
-978.958435 453.693329 384.785522
-1328.369507 378.282074 -397.087433
-1379.354736 424.010468 -323.530914
-978.611633 311.247711 450.322662
-955.099060 507.136658 -100.162216
-978.378723 549.062439 -19.805965
-1048.908691 245.179947 -64.033348
-1525.059326 696.445679 20.694481
-1340.237061 453.628418 -350.862183
-1174.418701 461.584778 225.039932
-979.431580 359.987335 -113.673553
-1397.471069 326.787476 -338.060669
-1023.950073 229.274490 421.893066
-1564.240845 344.270294 -107.153038
-1565.614380 409.284119 -52.308643
-1386.035400 605.750977 -262.264221
-1454.184082 224.165985 -269.217316
-1078.130249 264.152405 15.883790
-1384.364380 408.013184 -323.469513
-1131.538086 268.935822 78.307053
-1337.038818 451.900879 -408.817993
-1096.468506 200.455307 13.486442
-1621.216187 362.190948 -62.695007
-1326.595703 710.643738 -307.068268
-984.188904 369.275726 -45.866390
-963.039307 451.049133 -71.885002
-1051.934326 458.771667 72.210754
-1054.142212 254.493073 -12.011215
-1175.526855 305.969910 190.853088
-1388.538574 329.458344 -354.693970
-1444.405640 399.949158 -257.284241
-1178.400513 377.335999 196.341736
-1563.394775 373.821991 -99.346336
-981.257202 419.095642 399.386505
-1361.843872 360.486694 -355.351227
-1457.350464 321.877686 -266.611267
-1372.851196 375.730560 -357.828827
-1369.222900 505.621704 -270.803955
-1514.135498 659.646667 -63.061073
-1012.025146 433.839111 354.259735
-1364.409790 722.131042 -176.583481
-1042.597778 259.177582 -64.613495
-1030.219360 360.364441 385.885681
-1018.022339 366.294586 385.961029
-1041.364258 505.123810 309.167023
-1496.105225 687.551086 -61.123810
-1455.528442 254.826080 -224.051117
-1424.414673 434.168060 -258.923401
-968.465942 515.551880 -51.254723
-1428.170776 531.606567 -196.834335
-1065.054565 398.774323 335.627472
-1274.473145 483.441223 -326.386475
-1063.890137 562.686707 135.166992
-1407.957886 561.361206 -144.656860
-1274.741455 499.727661 -443.943359
-1030.520752 285.839661 -14.392080
-973.558167 556.689331 17.607258
-1063.526855 351.864655 347.813293
-961.834290 263.605072 479.398590
-1361.611572 636.844666 -288.594971
-1100.259766 488.023651 139.845642
-1166.666504 364.743744 171.402496
-1402.843994 355.041718 -328.210571
-1162.203003 270.614349 300.201813
-1337.452271 757.638672 -268.222839
-1463.546997 568.952820 -136.141037
-1510.393921 578.631714 -65.419388
-996.811096 367.299866 428.377563
-1077.911255 313.488464 344.312836
-1040.127686 243.214417 -119.730148
-1431.792236 520.220154 -213.938232
-1067.003174 495.753510 308.817749
-1365.750610 710.908264 -213.788879
-1476.739868 666.081604 -60.762459
-1411.426636 681.990967 -164.649445
-1115.386597 258.956329 330.008789
-1344.076782 757.666199 -234.918762
-1400.929810 670.264343 -188.676971
-1103.543823 250.977310 74.414070
-1534.612061 592.440613 52.243664
-1048.522583 278.036743 -4.160641
-1099.396606 421.338654 287.385712
-1288.381348 439.473572 -154.189590
-1001.174866 194.786850 464.356293
-1138.699585 436.379730 170.418945
-1266.496826 468.989502 -281.958313
-1541.910645 678.598633 0.002240
-1147.539551 226.561050 94.282242
-1536.286621 680.621216 66.680161
-1168.022461 408.425232 202.968414
-1009.189819 476.203186 7.326771
-1032.273193 259.710663 -113.727028
-1122.877686 444.859558 140.215530
-1410.679321 687.802002 -186.898758
-969.169617 457.811676 391.066895
-1301.292603 611.894714 -386.358887
-1490.234741 241.979568 -225.232635
-1014.833801 523.394958 42.495796
-1295.049927 467.037415 -417.634033
-983.701111 380.762787 -51.720863
-1481.118774 565.372009 -95.569809
-1285.640137 464.050934 -420.316864
-1392.776123 314.953430 -333.923798
-1074.274414 358.165161 347.084198
-1028.253052 221.380432 419.282043
-1056.623657 435.417175 36.089176
-983.559570 522.363647 -33.905506
-967.304504 519.607849 -26.078560
-1327.408691 407.600128 -421.512299
-1354.814453 469.462494 -292.740814
-1425.563599 664.291443 -89.089294
-1397.264526 345.359039 -339.207397
-1397.839722 380.840088 -358.614716
-1001.669189 338.525269 -29.007689
-1415.986328 593.526611 -175.176514
-1089.256470 325.575592 63.142265
-1319.579346 644.832214 -346.185822
-1345.052124 719.008667 -220.837677
-973.395874 323.012634 445.996704
-1377.890869 718.335327 -175.610611
-1522.867676 621.492554 -86.387894
-944.351746 322.853668 472.419861
-1076.560913 258.889526 13.452012
-1492.425049 195.025818 -254.794357
-1527.869263 576.803040 -78.035126
-1050.801758 304.656555 382.533264
-979.352966 439.385223 408.551117
-1369.009399 746.893127 -202.114868
-960.680969 448.988556 -81.588013
-999.891846 355.152618 406.466705
-1446.158325 413.063416 -244.855438
-924.118042 416.931274 494.764496
-1086.448364 526.157898 140.947632
-1000.639038 276.631744 -84.767082
-1120.800171 261.155060 322.868195
-1109.069946 289.836578 77.485710
-1343.762695 721.006653 -274.584412
-1374.165283 395.819489 -326.997742
-1370.706421 404.326660 -327.490112
-962.658386 436.997467 -124.523537
-1285.407593 494.781311 -424.160553
-1337.898682 788.683533 -213.541168
-1348.411255 639.992859 -286.098816
-1001.383667 496.460480 5.121115
-1345.190308 600.482849 -315.883240
-1317.859619 506.661072 -367.693512
-994.972107 295.679749 -114.709145
-1128.385376 338.288574 75.231522
-1036.435669 504.970795 59.804623
-1091.705933 191.466309 31.331036
-1330.746094 754.509705 -278.861176
-1173.410034 421.571686 187.738007
-1517.736450 415.804291 -11.702479
-1033.219116 340.871216 396.162292
-1024.873901 245.983246 408.238251
-980.549927 300.934265 -108.986549
-1075.747070 402.008881 335.869354
-991.967468 364.385681 434.350922
-1318.760620 673.885986 -333.461426
-972.614197 528.552795 -85.594772
-1012.907288 438.867920 362.343109
-1479.798462 279.238220 -158.207657
-1031.183838 543.465210 87.909355
-932.319031 418.908630 455.030792
-1102.689453 509.874207 137.405167
-1324.096680 613.756287 -331.402283
-1253.569946 486.261688 -204.480667
-1549.161011 394.511108 -76.531151
-1298.799561 459.173981 -425.588470
-1012.488953 290.530487 -118.603470
-1278.419678 543.550964 -416.023041
-1091.235718 259.252563 362.237244
-992.458679 439.574768 -39.506977
-1109.480713 306.359253 330.855652
-914.583435 412.999664 460.289154
-979.761536 418.581268 -57.300449
-1039.800903 277.531555 0.741341
-995.016846 397.373779 382.613556
-1054.967896 413.923035 75.593140
-1099.242798 551.975647 161.917282
-1366.888794 809.932495 -164.947617
-988.795410 473.253906 368.882935
-944.270691 394.654022 449.366180
-1320.214478 435.259674 -375.588837
-1056.121216 235.595261 -22.065983
-1610.606934 744.708069 166.399384
-1365.668823 656.209473 -256.436737
-1014.814636 271.213654 -118.142876
-1029.638306 337.272888 401.137421
-1047.119507 480.101776 34.048431
-1002.064575 361.633545 390.400879
-1271.025024 519.116028 -413.805481
-1015.993530 553.272888 302.708435
-950.595642 550.782654 -48.501297
-989.491272 500.120758 -0.221201
-1401.970093 307.127472 -338.878052
-1075.647217 508.086212 114.419899
-1506.210205 211.189117 -238.474457
-1063.618042 416.427704 339.648743
-1116.821655 230.576630 67.169693
-1367.369629 520.339966 -285.785004
-1624.570557 322.175934 -25.339306
-1072.144287 371.116547 55.189762
-1423.885620 546.545166 -181.201874
-1375.264160 623.208069 -277.046478
-1047.755493 266.091492 -20.787991
-987.374756 495.017365 368.865570
-997.758728 419.654785 -27.213764
-1454.229736 557.755676 -140.497772
-1038.605713 427.914459 9.049777
-1118.373291 428.857758 126.663216
-1007.920166 404.937927 400.350494
-1483.541626 317.235138 -179.957520
-950.990906 336.226318 484.354279
-1055.262817 522.970459 299.634766
-1046.001099 251.707428 -33.393810
-1021.897278 411.293945 356.701111
-1409.370361 502.999542 -200.980728
-948.065063 298.551819 483.849091
-947.155823 500.687592 404.645020
-1613.814209 692.297424 148.376999
-1064.999634 269.021088 366.449890
-1123.820557 375.515289 311.251373
-1095.185791 394.010742 285.878967
-1447.678223 338.556549 -273.067505
-1106.874634 451.539825 114.484703
-1338.866089 728.633606 -252.319519
-969.743286 387.445709 -114.573181
-1457.520264 305.140167 -255.526596
-1083.971558 351.617798 87.776443
-1358.997803 492.052826 -336.673431
-889.403625 433.477753 498.037354
-989.112000 336.166534 -115.375771
-1450.702026 677.962158 -104.337425
-1307.548096 505.832306 -374.062927
-1502.505127 372.404388 -155.869598
-1010.308105 405.263123 -32.214565
-1004.287598 276.359528 416.682251
-965.804077 492.238861 -49.584396
-976.784058 327.204773 448.166809
-979.710022 331.855408 428.609772
-1376.478882 799.753540 -137.591400
-1373.100098 716.124390 -227.778015
-1068.929688 395.178589 46.712818
-1103.278442 460.490875 290.408356
-1629.385742 347.247437 -24.348675
-1093.428589 379.713409 329.493561
-1003.450256 440.837738 373.795898
-1167.215820 413.115936 174.466843
-1040.763916 348.396820 -24.979332
-1074.293213 177.060776 8.068449
-1130.108398 282.277344 100.473579
-940.546265 340.945892 489.864532
-1399.659180 696.308533 -160.145828
-1268.555176 563.138306 -405.781189
-1089.815552 426.896301 75.528580
-1317.215942 435.270447 -410.277985
-1027.784668 286.076202 -128.761307
-1087.278564 519.661438 118.602776
-1368.838989 702.905518 -230.797836
-1309.305420 618.023315 -346.416779
-1282.021362 450.465271 -424.886841
-1457.065918 598.957397 -161.222458
-1145.349243 345.607452 301.289368
-1532.618652 699.554993 33.929436
-1038.846313 362.940979 378.647064
-1372.096924 661.951721 -257.678314
-978.150513 403.672211 407.698822
-1035.147949 525.320801 327.110107
-1360.092529 711.885376 -207.365814
-1107.027588 405.268005 138.412964
-1371.669922 588.917603 -128.646088
-1309.120605 530.515015 -341.586029
