ply
format ascii 1.0
element vertex 1363
property float x
property float y
property float z
end_header
-118.426987 709.848694 -1307.142944
-428.461151 902.648499 -593.463989
-187.079651 970.109558 -663.149170
-62.729218 603.906128 -894.405457
-100.123329 606.233948 -852.058228
31.549007 682.203491 -1310.826538
-106.446083 623.703430 -838.760498
-43.128349 857.422363 -1298.415894
-230.684006 835.867371 -824.577698
55.635803 925.274414 -1274.587402
-292.629395 860.927002 -1272.108398
-354.542206 924.029846 -625.971802
-61.100365 692.582764 -846.791321
2.525953 842.844360 -1294.469238
-414.069000 950.597046 -1301.420410
-436.507233 779.643982 -1263.811646
-201.885162 979.898621 -526.050354
-210.050491 602.310608 -847.102539
-342.740021 759.697266 -1234.528687
-199.669739 648.856079 -834.201233
-152.761200 868.639893 -818.295593
-158.308121 1003.725891 -711.851990
-71.836777 741.021301 -825.654297
-334.889771 832.890625 -818.264465
-191.038284 982.573181 -576.801636
-77.289680 918.813965 -812.430847
-128.710373 740.425598 -815.767761
-250.398438 679.957581 -1321.674561
-257.960449 698.622559 -825.783020
-452.852356 726.388306 -1284.999878
-174.084961 728.785583 -830.571350
-51.867695 978.170227 -1238.876953
-207.197708 974.999329 -570.128113
-120.724838 1010.081116 -576.301758
-156.925995 1103.343262 -1251.934082
-207.365280 976.304199 -516.309509
-191.716721 877.763550 -836.820984
-352.798676 956.981201 -437.829468
81.549332 900.658264 -1270.018555
-30.890392 718.497986 -835.673035
-210.174561 875.999878 -1148.903198
-117.707123 613.546692 -854.840149
5.461792 863.872009 -815.401978
-43.853622 915.275818 -1281.375977
-122.623985 535.830017 -1312.243408
-445.390503 824.625732 -1284.451538
-228.857605 617.177551 -850.136719
47.033615 843.234619 -1280.394043
-189.765259 854.322449 -1267.119385
-191.447769 689.688782 -1303.271118
-391.782898 766.381287 -1255.906494
-187.324493 969.165710 -624.214905
-198.585785 585.707520 -1327.453857
50.202358 865.643433 -1301.004517
-441.799164 799.554749 -1285.811035
-208.378296 581.063843 -1320.687500
-226.404236 985.342468 -472.863953
41.335606 774.122192 -1313.747070
-207.247162 717.183960 -838.199829
-388.994720 913.373535 -565.999207
-235.116547 999.715698 -439.371490
-65.079369 582.331299 -871.643860
79.683105 775.124146 -644.770142
-301.133484 918.705017 -811.935120
57.741966 830.201599 -1310.716553
114.703003 921.178040 -1286.225586
-325.788940 632.243530 -1313.915161
12.875489 724.239624 -832.336243
-152.090530 1091.606079 -1282.879028
-229.474823 970.646484 -491.863342
101.419159 956.437927 -1272.637207
-344.361664 962.199341 -538.480957
-176.334290 993.831055 -483.241425
-250.354523 808.609680 -1205.484375
-182.383865 874.653320 -1242.796753
-195.311813 837.964722 -840.283875
-200.803482 980.507202 -633.413940
-345.340912 811.186462 -1250.543579
-357.898499 939.453491 -542.990479
4.116497 672.062012 -1315.600952
-183.203217 976.863403 -585.748718
-414.991547 998.812683 -1276.861572
-191.922211 1051.445313 -1236.727783
-364.812469 923.498108 -616.217834
-280.938507 688.221558 -827.398254
-182.625427 655.166931 -834.785522
-169.227936 1000.835205 -467.606476
-437.412628 749.883179 -1267.958130
-344.650940 774.450623 -830.305847
-123.663948 702.105835 -1294.941650
-484.204620 830.002869 -1288.199463
-172.663010 993.104492 -706.166626
13.519843 689.094910 -866.235352
-48.426037 916.908447 -821.740112
-321.259735 951.616394 -593.995789
-181.171753 1022.995605 -1258.578735
-177.057083 943.909729 -1189.039795
-427.173157 902.085449 -667.216919
-217.407501 714.852661 -1320.742310
-215.405548 673.772339 -834.889099
-199.751999 831.965515 -1205.043457
-281.773712 960.506714 -494.059479
-156.477753 990.323669 -490.791962
25.373648 964.758728 -1271.452759
-137.872879 1126.067383 -1191.603760
-268.022614 618.369141 -1325.316284
-244.718369 632.546448 -851.095459
-138.333328 964.467224 -1237.177368
-341.664673 633.451233 -1311.172974
-193.908142 983.282898 -502.986053
44.399029 854.357422 -1277.659668
-101.670395 824.390320 -1313.743774
-164.557129 677.977356 -842.375977
-276.173767 564.072021 -872.578186
80.725655 848.627136 -1280.958862
-113.398895 803.072205 -1317.582764
-325.653259 714.899780 -1316.850586
-345.042786 664.117371 -1310.534790
-289.991760 950.782898 -571.349487
79.162552 871.173035 -1293.623779
-64.453064 862.226135 -813.061279
-165.402695 989.431580 -502.235352
-218.190765 974.839233 -500.561676
-229.455521 585.958923 -1318.837158
-215.656219 809.679504 -1141.201782
-145.719803 673.212524 -852.671448
-322.516144 665.695435 -1306.402954
-319.968811 761.187683 -1291.012939
-133.113434 990.527466 -648.108643
-316.377411 940.026428 -614.281189
-102.838005 998.842773 -611.347290
-116.783661 673.521912 -1292.462280
31.691265 773.990967 -837.833618
-193.807999 904.378296 -1283.299072
-72.482712 812.643066 -826.937866
-192.322342 571.058960 -850.822021
-109.911369 1063.781738 -1280.648804
-467.286194 887.411194 -1299.382446
-283.255737 698.589294 -1308.408569
-61.139343 961.419983 -1275.067261
-372.686127 756.503723 -1290.970093
-57.585014 914.672546 -1277.196899
-256.651947 822.703918 -834.240906
-178.334991 848.373718 -1200.211670
70.230484 816.486328 -1304.705811
-323.333221 666.833191 -854.453430
-315.209961 951.302673 -662.093018
-114.653419 974.138855 -1244.948486
-429.308228 907.291138 -614.571289
-402.312195 891.541504 -826.180786
-143.769730 995.531250 -580.129028
-116.595833 1004.749634 -651.157288
-130.877502 907.285950 -1296.517334
-148.592148 811.098999 -1299.681030
103.888046 937.274353 -1280.655884
-162.482559 635.411133 -825.647034
-90.844772 623.655518 -843.502747
-127.080612 717.558472 -1294.826538
-130.642578 856.366028 -1300.279297
-28.748163 726.240601 -1308.578491
-328.992249 933.026306 -615.814697
-179.671753 990.739136 -500.156403
-230.745255 801.179504 -1279.459595
-358.285736 694.810242 -1261.896484
-318.106598 886.721924 -1232.604614
-149.134308 888.851074 -801.610168
-249.107712 1110.594360 -1178.008667
-56.001221 643.426514 -852.658936
-312.830444 760.520142 -1291.859253
-323.307037 667.810791 -1310.643555
-365.743347 735.324829 -1281.859497
-363.198730 916.510254 -674.351563
-351.045074 933.324646 -551.921753
-226.617752 725.029907 -825.029297
-73.337570 899.457825 -1212.832153
-180.653778 859.169678 -1228.052246
-237.306763 875.817200 -816.050415
-286.632904 685.900146 -829.495361
-190.511276 912.344116 -1160.487427
-236.829941 973.389465 -563.138733
-4.958175 749.983459 -1317.001465
-263.549591 802.863403 -809.321960
-218.882828 1002.553955 -441.402740
-27.059244 963.890503 -1257.869507
-183.239822 642.048767 -821.843750
47.621956 804.380798 -786.661682
-355.443756 937.804749 -592.526978
-19.615385 609.003052 -1318.125366
-359.014374 940.697754 -468.053162
-290.417023 778.225159 -1309.851685
-378.697021 816.445923 -822.372437
-424.465576 685.719116 -1305.394653
19.774935 785.255493 -832.098511
-80.974121 1009.594849 -530.999329
-230.767883 972.959351 -680.485229
66.798347 824.994873 -617.239258
43.208950 811.842285 -696.891663
-380.481110 939.831482 -436.327515
-383.880280 725.459290 -1263.642578
-398.020905 734.898865 -1265.915527
-334.356964 945.288330 -653.564941
-123.208931 639.563171 -1275.765991
-208.961487 740.104980 -1296.696655
69.157677 950.038391 -1253.142456
-201.130081 1004.732178 -1266.881714
15.038450 719.806763 -844.795898
-112.624931 673.314453 -1198.651245
-213.374954 595.474243 -843.882629
-171.926666 969.525757 -699.668274
-393.177338 725.781189 -1297.707397
-128.340134 615.330261 -1288.364624
-275.079041 640.536011 -1308.658203
-183.109909 924.013000 -801.512512
-166.654785 990.654968 -488.562256
-225.631683 673.666199 -844.445862
-95.633957 767.023865 -834.595520
-270.713623 968.772217 -674.666321
-235.006134 968.603210 -481.827057
-253.723892 896.280334 -811.141235
-417.791412 908.502563 -619.670288
-427.707245 830.358276 -1270.747925
-232.306274 881.877075 -800.513062
-278.454742 679.375122 -1320.418579
14.652368 781.932617 -836.081665
-329.868835 734.065369 -1282.627808
-20.442396 681.133423 -844.540283
-231.084167 891.631348 -802.918579
-296.880096 557.664246 -897.414856
-332.047729 717.286499 -1300.852783
-113.759415 542.233215 -1324.232910
-360.994293 921.611816 -693.874329
84.908623 897.887329 -1297.510376
-102.237770 1017.342468 -493.589661
-203.196838 843.343506 -829.555664
57.741745 811.193604 -1311.586792
-133.143997 592.610657 -857.673828
-30.977667 882.725159 -1279.796631
-143.842484 1023.518555 -448.959808
-96.844963 787.038269 -1316.503784
-181.454407 1012.444092 -439.253113
-273.879181 674.062744 -845.296692
-237.008286 639.274963 -1310.962036
28.709673 746.183289 -822.564087
-90.668961 553.686646 -1323.617188
-402.596100 909.997559 -692.099121
-216.806351 1238.740356 -1259.123657
-348.069489 708.004639 -1191.075928
-163.428009 695.351563 -828.051575
-316.807617 937.810547 -648.879944
-470.911896 754.947754 -1275.996704
-53.894989 599.833252 -869.253723
-150.800079 690.447937 -1251.229004
-236.796783 952.101196 -812.455261
-20.967340 633.160889 -883.809387
-178.522949 883.430054 -1269.422485
-441.304688 929.507019 -534.063660
-253.436905 573.931396 -871.114380
-231.014252 977.694336 -475.969543
-106.210564 994.746948 -530.206665
-87.363472 647.508362 -1308.352783
-173.173492 989.308289 -583.754639
-287.091187 612.642334 -1314.759155
-162.908264 656.850586 -1297.446655
-193.308456 832.146912 -1157.633179
-161.070969 976.912781 -607.235291
-203.077881 840.521790 -833.769653
-277.844604 911.259766 -1181.728271
-28.214230 585.219849 -1324.202759
-329.570038 635.193359 -1298.734253
-393.124512 693.974792 -1247.640869
-134.486450 1059.284912 -1252.260132
-367.055939 674.433533 -1300.310791
-427.122345 942.356689 -488.567719
-215.990570 978.020386 -469.118561
-218.841125 828.998840 -808.638000
-37.391701 818.953735 -1300.463745
39.760208 726.949463 -1319.684082
-366.445984 723.503418 -1296.013550
-109.515015 1011.277466 -489.272125
-226.947586 973.661560 -633.201233
-82.444214 824.277405 -839.102600
-115.283020 1002.977051 -589.010254
-238.186890 695.086670 -1307.782104
-342.771454 942.876038 -539.187439
-91.338478 668.498047 -834.824158
-316.889038 942.439392 -523.340820
-438.979187 913.252563 -653.622253
-281.422058 957.571838 -700.744873
-131.440430 866.966797 -801.884277
-136.434006 528.968323 -867.562256
-26.072126 602.773132 -1324.832031
-114.600914 1035.876221 -1261.208496
-280.852722 602.724365 -1316.062866
-105.600471 1021.949463 -649.198608
-300.213593 561.174133 -858.012512
-122.398033 1043.464478 -1254.930542
27.819845 733.310181 -1321.682617
-344.511627 964.887756 -450.065704
-24.851542 863.607300 -1288.589966
-399.145569 720.536926 -1279.217773
10.361824 777.391907 -1310.281250
-180.342575 1237.875732 -1244.124756
-142.212494 868.122009 -813.093262
-420.785187 899.244751 -613.475037
-47.777809 849.293030 -1291.363159
-370.194092 935.432007 -541.785095
-184.919632 577.833740 -846.631287
-154.649231 1187.981567 -1230.294434
-228.488205 572.983459 -1303.370361
-32.244213 829.845215 -817.246155
-57.413784 857.426331 -1299.253174
-344.374146 946.461487 -547.042297
-294.631348 661.170288 -816.839111
15.400968 798.915161 -1313.574463
-347.404388 640.089172 -1309.143799
-83.527382 980.153320 -1254.213379
-223.882706 694.729126 -1304.460815
-267.211182 956.537231 -601.943359
-159.076035 771.013428 -821.296204
-189.459045 979.623047 -537.174194
-130.640411 980.305054 -658.044922
-225.359558 988.473999 -473.957489
-102.173065 606.125732 -1302.004761
-321.878815 855.587952 -836.280396
-107.488373 1036.426758 -1247.403931
-337.664886 785.686340 -850.448853
-266.129028 965.470886 -585.002808
-350.149689 748.969482 -809.859985
-328.219788 941.653381 -583.371826
-177.928970 815.125244 -828.863525
34.509792 696.512634 -1317.836426
-275.786652 611.315125 -1316.381104
-342.139954 936.871277 -644.295105
-288.509308 798.155945 -824.986450
-418.120392 916.925110 -643.652161
-195.935486 1004.646545 -449.458618
-141.147644 990.532776 -507.815826
-207.668213 690.509216 -1308.161499
-425.999512 873.766602 -1295.203491
-124.843391 704.838806 -829.877380
-360.282776 938.002686 -497.226044
-107.671997 737.009644 -824.653381
-319.582611 902.800293 -812.679810
10.683390 861.268250 -1290.743286
-62.702156 719.588440 -1298.116333
-314.612213 952.591064 -553.556030
-309.939117 890.816956 -812.312988
-104.596443 755.113281 -835.894714
-341.921051 729.833496 -1298.605225
-284.164795 812.350830 -807.940552
-146.097351 935.574768 -1217.046509
-114.085548 638.092834 -1297.715454
-70.338623 681.926880 -852.883972
-366.586853 923.919373 -705.495667
-341.239319 817.525024 -1278.949097
-283.569183 720.225037 -1304.608521
-263.861542 681.624695 -1307.109253
-128.385605 686.207336 -829.231812
-169.879807 600.331299 -1319.557373
-20.427958 910.772461 -1233.490601
-438.549072 666.836853 -1263.327271
-328.467499 711.806458 -1287.673462
-269.991821 967.513611 -453.283875
-326.236450 961.020203 -576.989136
-87.621658 690.718689 -1318.048584
-94.840515 654.125366 -837.824707
-48.158165 669.873840 -837.043762
-52.092449 641.471375 -851.126770
-307.111969 657.007568 -835.302979
-311.050354 764.972717 -841.372131
-330.843445 615.839478 -821.257507
-95.283012 825.786316 -1298.501831
-334.023529 721.494141 -1294.038940
-40.520134 641.223450 -1319.666016
-134.824478 681.426086 -1229.954468
-245.138931 984.281799 -455.152679
-306.249725 973.440063 -503.366272
-171.786484 988.357178 -650.311829
44.617531 791.721558 -659.020447
-143.533798 1012.880371 -463.595459
-358.022400 939.289856 -492.902985
-221.312347 540.981079 -1309.968994
35.298428 920.401428 -1256.869873
-56.003262 779.857666 -832.946411
-329.729004 941.942322 -521.090210
-63.635906 600.760803 -864.984497
-137.842621 619.451721 -844.789246
-408.467987 908.906921 -603.027588
-251.114471 929.443848 -812.853149
-320.831787 658.381592 -815.797180
-30.957140 884.827820 -1287.510254
-350.151428 939.572571 -541.713257
-293.922302 794.545166 -1292.718994
-137.163300 707.271729 -1189.105347
-196.713043 589.213013 -833.890259
-319.975708 901.659119 -795.086914
-168.807816 997.620361 -461.837219
-184.081985 798.547974 -833.043152
-132.956650 906.490601 -812.072205
97.922272 985.739563 -1267.337036
-73.577293 784.536499 -1288.958496
-125.775604 1086.365112 -1259.315186
-352.790009 937.429810 -642.288757
-240.256760 696.509033 -1306.524170
-406.212128 912.540588 -684.538025
-35.736656 706.998779 -836.950195
-265.523071 688.837463 -1306.017578
-380.254486 908.949036 -1274.126831
-438.924194 851.937561 -1284.671997
-17.289738 597.845154 -1317.788208
-111.285072 545.487915 -865.473572
-306.386353 746.871887 -1282.313843
-101.994293 757.076050 -815.485107
-125.906334 587.491638 -853.872009
-22.626032 628.283813 -1323.456787
-61.450520 870.409485 -1228.121826
32.544918 835.290649 -636.941589
-339.463959 690.355042 -1303.016968
-95.152237 643.984314 -1310.240845
-359.643280 950.027771 -585.191345
-211.574890 1018.321777 -432.173401
-309.917786 951.228699 -523.051086
-97.225670 636.338440 -1303.011963
6.188069 647.311340 -867.100220
-185.323181 972.069336 -605.565369
-262.539307 975.152405 -437.448547
-306.601898 953.868347 -497.634460
-339.664429 738.716187 -1305.425171
32.526653 797.489136 -645.797363
-241.474564 954.072388 -650.321594
-361.115417 713.890198 -826.064148
-117.294083 537.871277 -1312.925903
-75.308983 860.223145 -1285.581787
-120.398247 760.655823 -811.991760
-145.413681 713.267456 -1176.907349
-140.061203 996.319275 -638.862061
-286.939819 953.992920 -1193.870483
-126.428062 976.050293 -695.008057
-391.167542 918.119995 -592.658142
-166.943726 989.201172 -696.517273
-140.646362 1096.799683 -1180.783447
-123.073647 786.760925 -821.921265
-316.314270 952.910950 -620.535706
-67.049934 824.613831 -1311.164673
-195.644272 854.897583 -815.790833
83.366859 923.770081 -1272.659790
-199.504990 711.802124 -825.289856
88.266853 887.574524 -1296.082275
-2.964392 673.432373 -1297.965942
-249.763245 867.541077 -840.425049
-41.504951 849.595642 -1303.281738
-455.008331 715.939026 -1272.766846
22.218012 685.723572 -1310.428589
-289.974091 951.992737 -624.687866
-199.903992 985.624268 -552.668213
-341.964905 948.452881 -454.572327
-263.866760 740.055969 -1303.934082
-189.691727 840.088257 -1277.128052
-194.955734 563.907776 -864.732605
-162.028656 561.314392 -878.494324
-43.935921 899.783020 -1283.875732
-389.150421 619.006653 -1292.435669
2.494248 769.137634 -825.620667
-332.253998 950.041565 -480.141510
-94.106506 682.223328 -1296.289551
-212.395737 924.057312 -833.702393
-172.966034 592.249023 -851.306030
-84.193039 634.442505 -1308.338867
-55.256592 699.374207 -829.419373
-24.433092 614.564575 -1325.082397
-72.772346 615.482117 -858.201843
-150.012054 568.758484 -893.759705
-245.899002 855.387268 -1274.933960
-320.800629 661.082764 -834.782532
-287.758728 656.022034 -829.734802
-68.652573 833.480774 -1280.988403
-25.963419 748.789856 -817.660767
32.385704 878.343018 -1280.245728
-270.374481 908.041809 -827.482483
-374.520630 921.438293 -555.031433
-370.662659 929.683594 -556.861816
-245.365204 894.153076 -818.565063
-240.712372 655.286865 -851.665588
-242.967346 773.414734 -809.387817
-50.844593 776.870239 -1306.185303
-233.999512 572.539978 -1315.999878
-38.881248 644.865417 -850.048706
-95.577827 597.178833 -1332.716064
-326.354279 829.397461 -838.229187
-121.607658 589.086182 -855.758362
-332.776642 882.408447 -1272.165161
-42.264179 797.248535 -830.685791
127.400810 926.981384 -1287.355957
-326.078583 796.432800 -1269.993286
-391.464325 922.182983 -529.301331
-42.138138 961.593933 -1278.248779
56.857826 892.476196 -1261.318970
-333.068146 955.579285 -517.622925
-160.482269 952.455688 -821.584839
-73.761848 751.916748 -1307.311646
-55.811573 650.168701 -839.956482
-300.521332 946.692566 -527.387268
-205.379364 1055.203247 -1248.454834
-283.658051 760.624329 -1302.964600
66.521683 770.638489 -1301.246826
-226.515991 845.416260 -829.712585
-144.689178 1229.644775 -1246.805054
106.699577 940.855591 -1282.260010
-251.274094 658.922363 -1322.501221
-314.625214 947.459412 -1227.199097
13.326244 812.578369 -825.715698
-157.361099 675.408325 -1274.409912
-117.272842 587.388428 -1326.213135
-189.559525 578.996765 -842.862244
-299.712616 703.771912 -816.413208
-166.233353 992.066162 -524.905640
-112.481140 528.844849 -1313.838135
-87.786789 1011.421204 -624.707642
-274.513824 960.377441 -557.578674
10.569335 852.331299 -803.664795
-320.079651 689.352844 -1306.014282
-251.288605 583.403564 -1314.276978
-74.328102 933.181641 -1216.971313
-281.505096 964.265198 -660.733215
-78.605911 835.077698 -1309.351440
-19.676359 861.220886 -806.519592
-450.640472 920.892395 -1310.823242
-322.972961 583.783264 -835.943481
-326.120209 952.274231 -470.315033
-149.951645 1005.493713 -708.740234
-296.639160 711.777466 -842.217773
-256.410034 974.408325 -467.429657
-301.246613 953.112549 -553.107422
-257.271637 797.465454 -1306.063354
-189.151688 1003.912170 -421.703217
-50.016426 848.386047 -826.002075
-10.867469 735.325073 -1322.922241
107.608734 943.423767 -1294.568115
-142.805038 658.651611 -1219.561035
-192.830811 586.300598 -869.400574
-161.218430 1170.600586 -1223.260010
81.134727 858.162476 -1295.626587
-240.255310 964.613892 -659.224854
-426.223450 902.189453 -544.952148
8.665028 875.714844 -1282.401978
-263.374512 953.978271 -554.873230
-226.327789 981.194092 -447.249298
-44.813023 773.069946 -827.825073
71.444214 938.655762 -1278.824219
-432.914612 894.876160 -628.893616
-41.866482 754.206726 -1307.821411
-79.794601 776.222046 -1318.094849
-312.093536 975.536011 -426.042053
-49.980080 713.736389 -1309.787109
-43.678253 636.678650 -868.191040
-341.453735 701.776245 -812.202087
-322.299286 631.504944 -1311.655029
15.302569 784.834290 -1289.529419
-256.490631 841.583618 -1249.808594
30.486744 843.384827 -663.391418
-350.470398 923.624146 -625.280884
-3.351186 671.623657 -855.289063
-198.240723 619.165466 -844.064026
-274.462219 601.899902 -1325.084351
-123.612549 994.312256 -626.074158
-214.532043 860.717468 -1153.090332
-0.979240 832.096558 -1298.411743
-327.207886 760.648926 -810.991821
-101.149109 988.852234 -574.685486
86.329071 940.385742 -1285.924927
-194.601395 741.222412 -1287.514893
-45.292126 665.518677 -1317.854004
-363.929871 701.319702 -1269.556396
-224.511734 579.760010 -1302.663574
-321.706543 946.314758 -613.583740
85.001160 965.588562 -1292.705811
-211.330933 971.075378 -570.986877
-57.882172 882.169556 -1230.808350
-162.181137 991.112488 -501.698792
-42.149227 728.491089 -1295.432861
-129.607788 1003.552368 -542.807068
-75.968643 594.165771 -869.921997
-240.550949 974.444946 -715.131042
-16.049255 851.509216 -1301.674683
-366.427185 680.238159 -1264.800171
-174.230789 1003.686462 -447.095825
-193.953766 726.788391 -837.164673
-344.782471 962.983582 -440.252899
-318.214172 764.252991 -1284.119629
-264.710083 968.693481 -654.154846
-231.793640 634.170593 -1310.270874
-255.186737 532.795471 -863.241089
-338.276489 616.533264 -839.255920
-263.913483 861.468994 -1251.377808
-271.140747 1037.760376 -818.563049
3.194122 672.242004 -845.165588
-157.993790 656.274963 -1266.678467
-106.716087 737.819214 -836.524231
-17.215469 753.754333 -1290.057373
-20.835491 764.460815 -837.791016
-493.380646 730.083679 -1233.671631
-143.214493 587.242249 -849.680847
-85.244461 583.162170 -1328.538574
-126.544342 623.121582 -1295.922363
28.239983 720.316895 -863.790466
-128.611526 615.671021 -1308.363159
5.863736 696.384827 -832.734802
-291.377502 748.374084 -1298.778931
-63.560093 871.074524 -1297.278198
-177.548523 860.996521 -821.820862
-451.964050 900.770691 -1285.193359
-283.926727 959.700012 -564.119995
-150.985764 989.672180 -545.193665
-158.759689 991.873474 -720.727783
-199.592056 970.473267 -672.915771
-179.570679 580.155457 -1322.109497
-411.353668 849.912720 -1279.862183
1.536633 858.970642 -1300.174072
-218.134140 972.917664 -600.216553
-96.744484 578.290527 -1317.302979
-242.440125 975.216003 -495.035797
-28.112978 737.495178 -1318.245972
-110.561890 602.719116 -874.361938
-43.415703 757.949829 -1315.815552
-229.453400 969.456909 -649.664856
-75.557709 718.943298 -1307.868774
-0.114862 628.800842 -1302.616333
-312.563873 619.793396 -1313.811035
-291.600372 949.155701 -529.537048
-140.257751 676.404541 -832.377930
-194.925644 979.465942 -564.012329
-199.576111 989.517090 -586.891663
-260.358826 978.007629 -501.589294
-354.023895 773.056885 -842.244202
-196.335602 674.960876 -1296.619019
-177.895599 703.241882 -1299.738037
-391.896637 771.243774 -837.080261
-123.583008 1001.554993 -599.373596
-212.664871 984.319519 -495.471832
3.565152 989.152649 -1274.053589
-411.120300 637.848511 -1306.802124
-15.051380 789.604248 -822.371887
-54.227200 582.019836 -860.262939
51.772614 837.276611 -607.782288
-170.843826 1054.039429 -1265.590942
-95.837273 992.733887 -682.490845
15.107875 701.664307 -857.350403
-64.010406 613.538879 -849.767944
-39.426594 631.068665 -856.005005
-101.041992 1011.920532 -525.613403
-237.855179 582.878662 -866.809265
-68.126167 872.074951 -1287.295654
-182.855988 985.487244 -540.682495
-125.731438 608.464600 -1305.130371
-49.368649 625.726135 -879.188782
-165.181137 1199.385254 -1234.912598
-236.307159 757.150574 -822.339661
-132.938202 642.784912 -1254.971802
-122.785812 1015.805847 -488.278778
-56.312054 960.381592 -1252.349487
-102.046547 1001.095764 -522.181702
65.053612 913.771729 -1286.185791
-220.348511 751.920166 -821.862061
-135.164246 679.786560 -1217.687500
-288.140442 721.107544 -827.009155
-194.371597 574.046387 -859.237976
-380.676361 699.845581 -1226.274780
-191.622620 1234.862183 -1245.177734
55.901997 930.020386 -1279.780151
-9.374784 769.365662 -1311.867554
-132.117889 700.692139 -829.993835
-65.389984 732.810120 -1297.183350
-363.620605 915.458191 -664.353638
-99.029243 810.527649 -818.323914
63.152237 802.910095 -1312.652344
-37.200378 859.874207 -1301.985596
-161.361160 995.979004 -506.381897
-291.729431 671.438782 -827.543701
-104.631813 715.009094 -839.779724
-179.663696 946.716492 -820.314880
-269.833618 968.970276 -444.888550
-39.843712 700.838196 -1301.209961
-80.486801 1001.122559 -620.624207
-218.933685 545.363281 -869.044617
-147.580643 997.557007 -531.483521
-128.256439 1043.536255 -1263.720093
-221.139496 679.588379 -843.754761
-191.143387 643.805115 -1334.631226
-37.678093 702.558105 -1313.925293
-372.848877 693.922791 -838.140686
-310.527649 1256.303223 -1220.539795
-258.365814 809.444763 -1300.922241
-384.558838 912.411438 -667.937195
61.974651 833.371643 -1282.489258
-182.788971 907.593750 -811.868958
-194.312347 811.398071 -1141.265747
-71.099564 863.970764 -1274.826294
-60.277626 988.751221 -616.854980
-124.129784 1000.416016 -494.134949
-323.333221 656.756348 -1309.873657
33.435516 861.784912 -1289.264404
-416.003937 908.495239 -599.420593
-169.689819 798.657593 -812.042297
-91.943237 874.915100 -1273.912598
-340.627594 958.652039 -437.583374
-26.146406 863.706421 -1275.760986
-167.447693 980.451965 -669.046814
-387.079315 911.655334 -649.748962
-122.558037 758.493591 -839.941162
-170.429108 992.695435 -484.732208
-322.624115 948.250061 -501.225861
-117.922043 680.461487 -1203.005981
-230.500046 579.292664 -869.448059
-128.726532 1021.701355 -1253.301270
-312.239563 621.803162 -826.978821
-26.011675 918.881409 -1217.510742
-76.409149 911.694153 -1221.402100
-144.195267 1071.164429 -1269.821167
-157.665558 611.433655 -841.709229
-212.272949 991.529236 -530.419373
-236.094269 584.689392 -1317.537598
-253.430084 654.168396 -851.170898
-171.791534 1020.665955 -1281.790771
-194.144806 978.994263 -495.693665
-336.074158 678.316101 -1318.033813
-216.659531 806.323364 -826.453064
-249.234253 902.957703 -810.352539
-48.117451 639.572388 -1316.130981
-422.987061 942.711548 -1242.588135
-376.752899 923.547974 -600.283691
-255.668930 735.330505 -821.971741
-252.707428 976.935852 -408.247986
-286.990082 788.405762 -1296.622559
-44.978893 783.221130 -1305.684570
-106.379288 720.589111 -838.212952
-333.973938 944.116638 -576.880066
-107.043594 891.862183 -827.038574
-208.593613 807.450684 -1195.653198
20.950100 787.774902 -1314.682739
-230.390411 987.011841 -432.836243
-313.651825 705.990601 -1317.582153
16.920181 776.222778 -813.445923
-171.064438 983.259094 -714.796326
-327.468628 979.153564 -1237.213989
-41.795536 677.375244 -828.462524
-356.571198 930.877014 -660.559937
-18.359165 801.880005 -1300.908569
56.929577 991.128723 -1274.545410
-279.505066 688.169373 -843.770447
-40.247383 769.642578 -842.656982
-411.302185 669.455200 -1284.093750
-301.068268 796.022461 -1229.615845
-159.300156 739.587830 -1282.638062
-169.623734 1018.854431 -447.164063
-103.661530 653.317261 -840.555420
-275.789368 968.645264 -478.698181
-359.897644 624.289429 -1306.162354
-94.813698 588.358032 -870.058167
-241.370117 813.797241 -1284.971436
-287.102631 964.703247 -698.413452
-115.835335 580.495300 -1319.817017
-173.823349 657.474976 -1313.857300
-127.470512 1005.382996 -515.701111
-70.392883 792.269043 -1303.661133
-126.766350 549.194092 -1326.359863
-404.236084 969.291382 -443.055756
-280.158081 725.132141 -1286.336670
-107.386185 1025.448608 -1258.069824
-274.901367 957.683044 -631.527832
-263.175293 964.184753 -616.470764
-101.483742 814.699036 -829.169495
-136.662704 645.891541 -1320.944824
-136.978958 698.590881 -1244.699951
-115.049263 1126.258423 -1246.894043
-341.113464 737.937256 -1294.553589
20.452454 850.088623 -1305.569092
-66.344955 807.381897 -1308.031616
11.724121 734.038696 -843.110901
-275.402649 990.416809 -432.715881
-218.637054 997.822754 -412.956299
-91.129219 731.755859 -1308.660645
-426.152191 935.526794 -1295.673706
-142.183228 833.413269 -829.273193
-246.432556 609.582764 -1312.643555
-195.186615 832.617249 -828.559814
-145.835526 1007.091309 -479.789307
-141.825256 703.340149 -1270.854370
-52.702965 791.955444 -1305.522949
-302.811279 953.749695 -658.148743
-61.806526 725.096802 -831.002441
-100.014313 676.249084 -825.090942
11.082355 759.475830 -828.993896
-276.705597 590.214600 -857.079285
-363.215118 635.355408 -1308.546387
-108.119736 921.582397 -1225.084839
47.514107 768.825439 -1301.989990
-9.674942 664.493591 -1313.717651
-206.399368 646.284668 -1324.813110
-244.805466 1246.133301 -1248.192139
-166.874130 557.656006 -882.590454
-273.259277 592.559509 -853.115112
-161.309753 680.182556 -1287.661011
34.605206 994.004211 -1267.102783
-74.337852 711.670654 -1319.906250
-187.956848 719.980225 -831.149292
-90.222450 691.674500 -1313.193604
-69.368988 658.817322 -829.723511
-340.385956 728.740173 -1279.305908
-29.650417 628.393616 -869.534058
-431.082092 934.886292 -1264.265625
-211.767059 982.315125 -461.168549
-249.796906 844.850098 -823.323486
53.083447 891.825500 -1285.951050
-124.471443 651.013306 -1291.586914
-331.223969 916.658264 -697.076599
-243.801849 679.405457 -831.226318
-85.609688 1054.717407 -1248.451172
-103.412781 568.823364 -875.885132
-297.431213 958.596313 -622.553284
36.758675 798.958191 -1301.966553
42.225559 795.345947 -828.762573
-146.945206 653.496338 -1301.971924
-309.616211 614.419189 -839.681946
-108.298485 582.499512 -875.450928
-395.509796 925.772339 -544.340149
-317.750336 672.647949 -844.305603
-332.354675 978.286316 -451.997101
-218.618042 674.244995 -843.189453
-193.226425 980.116211 -691.754456
-250.047119 742.980347 -814.234497
43.654503 879.783936 -1259.992920
-391.084564 930.949585 -483.543793
-203.659225 653.763123 -1293.731812
-42.982597 688.233459 -1299.413696
-339.443542 924.768494 -642.648254
-18.305323 969.515076 -1262.882690
-178.715347 858.606628 -1269.378296
-145.105530 602.544495 -836.765686
-327.548279 699.893921 -1289.165283
-465.928802 725.184143 -1249.377441
-84.664955 615.687988 -1316.009399
-120.669624 550.246948 -1320.548706
-157.021133 792.394897 -1210.434448
-56.128025 814.091248 -808.449463
-138.034927 1039.321777 -1291.848877
-121.923088 1058.843262 -1258.839600
10.088167 745.817200 -1290.162354
17.481991 907.265320 -1256.176880
-393.730530 936.070496 -1286.454346
-158.208847 599.501038 -1312.728760
-126.979813 572.303711 -882.075989
28.018681 907.699341 -1246.653931
-170.822769 694.069153 -1172.458740
-53.290024 803.658264 -807.822266
-305.244690 762.236267 -850.822510
-161.339645 628.972473 -836.676453
-252.509903 593.846802 -843.505371
-315.796326 962.047974 -473.958221
-38.917934 581.319397 -1324.461182
-328.892578 940.953186 -689.624268
-351.885559 728.885315 -1234.832764
-45.113239 720.370361 -821.007263
-62.605007 658.592468 -1316.672485
37.867672 815.417297 -1311.469238
1.659129 667.644287 -859.017822
-252.671860 964.289368 -547.789978
-95.540543 600.293152 -1317.411499
96.840294 944.886230 -1293.656128
-204.635376 1045.671143 -1263.093994
-130.805130 1053.412231 -1237.350952
-434.564514 641.329773 -1295.937256
42.752037 984.786133 -1257.446411
-117.592850 999.138733 -589.291321
83.809273 836.941895 -1282.442505
-217.556915 972.785583 -536.910278
17.654903 712.674316 -841.050171
-366.072571 832.177002 -838.014954
-419.140869 654.525513 -578.976746
-129.901535 989.333313 -584.306824
-137.078415 606.377319 -849.525757
-208.603348 979.740112 -657.515320
-68.817154 840.721558 -1306.143066
-177.094406 605.872253 -1332.169312
-318.632538 688.896240 -1308.591553
-9.041528 905.737183 -1224.698486
-244.442871 684.315735 -833.647339
-284.538727 836.971069 -1261.859741
-156.768616 860.162781 -1169.669556
-284.615051 772.316772 -809.473999
-127.240822 571.109619 -848.824219
-398.431671 915.891357 -677.517944
-248.451096 966.623962 -617.433960
-155.373550 627.477661 -1309.029419
10.558154 1016.824951 -1263.014038
-15.003042 647.940430 -861.250488
-38.270519 604.200684 -877.066467
-44.864231 874.681152 -1291.749756
-4.463902 833.693787 -1297.453613
-261.785706 832.863953 -824.376160
-316.771393 955.414368 -541.401062
-63.488022 607.619995 -1321.890259
-142.005508 995.335205 -631.402893
-143.200989 787.018494 -821.950317
-164.175018 1023.444153 -1274.207642
-445.590027 930.262573 -1312.094482
-140.539459 819.761353 -1294.716309
-149.263779 816.862183 -1289.176392
123.746666 960.753845 -1271.170044
-129.990799 679.642090 -1224.551514
-179.552917 902.891724 -1284.782593
27.964689 707.834900 -1294.116211
118.488983 911.900269 -1301.556641
-270.835388 924.347168 -822.527710
-195.021973 972.259216 -634.020081
-398.359253 924.320313 -558.587708
-431.067780 911.583313 -526.933716
-24.119446 756.693237 -827.134949
-201.967896 860.890564 -1273.365234
-173.529129 906.738342 -1255.849976
-15.378062 698.971375 -841.875061
-68.995361 766.297485 -820.324707
-194.322906 986.062073 -524.455383
-210.510361 625.524170 -1312.850220
-181.168442 655.173218 -1306.110596
-178.635971 845.090576 -1276.300659
-64.761719 609.000977 -871.208130
-130.802917 773.448425 -1306.429932
-244.733627 688.799866 -1308.159058
-350.547119 944.586792 -454.996735
-56.468418 617.733093 -856.716125
-147.824799 863.772339 -1294.487061
-203.596634 816.933533 -1166.211060
-154.565384 1209.425415 -1234.258301
-174.697876 910.796753 -1274.402710
-288.475739 759.752380 -827.532349
4.535459 689.242615 -1311.383423
-216.696045 989.583557 -421.103485
-363.162170 946.334534 -447.944641
-274.265747 999.731934 -425.385925
-157.185211 987.476563 -581.328735
-97.247108 718.897034 -818.896851
-154.736176 979.292297 -594.231384
9.336586 796.154846 -1300.796753
-102.418976 1013.271667 -1290.155396
-187.836563 1117.468140 -1202.678467
-18.891333 719.710999 -822.807556
-286.309448 723.581726 -844.034851
-141.230255 551.024780 -1320.809326
-412.885315 723.650146 -1271.839722
-247.663986 979.314087 -513.192261
-265.903320 541.811829 -865.336304
-130.101913 1017.546021 -477.638092
-139.999054 1266.444580 -1229.288452
-255.948654 713.245300 -1293.199463
69.509575 934.434387 -1281.957642
-307.160919 926.065186 -675.206116
-208.000702 649.662659 -833.601318
-63.665226 894.490295 -1211.843872
-220.389297 596.440735 -842.896362
-347.234985 707.773499 -1301.226440
-286.911865 807.825745 -1227.660645
-223.922531 969.860901 -654.844604
-243.805466 639.609070 -847.353638
-398.694519 910.858337 -608.735229
18.140842 699.627747 -875.435791
-408.101105 656.361938 -1296.902100
-135.810593 1062.807495 -1272.050659
-225.278244 974.607056 -485.853394
-107.133835 1033.839233 -1275.094238
-225.283813 962.901245 -582.860046
-171.164017 855.406433 -1272.246582
-33.416885 788.260864 -821.559021
-480.192108 703.480957 -1291.007568
15.168296 742.323975 -1317.106689
-256.529663 583.803162 -1319.490479
-438.744232 915.281982 -518.580139
-401.250305 909.276917 -531.432129
-124.732681 604.783264 -843.891357
-318.813049 739.113098 -1285.257690
-166.654053 908.113892 -824.994995
-363.232819 937.852539 -467.309326
33.654911 693.168579 -860.012878
-295.878632 576.755066 -831.854187
6.459974 796.673279 -1312.703979
-304.046387 995.004456 -1209.679688
-24.550755 642.461121 -879.168701
27.878519 888.155457 -1277.263672
-266.773987 839.121094 -1242.426025
-360.611755 856.868652 -1264.464966
-314.223724 904.231201 -1186.430542
-32.807140 920.325378 -1241.954346
-2.681209 673.597656 -865.047485
-182.892090 969.672424 -681.722900
-424.749054 787.188171 -1276.406006
-149.215454 979.785400 -645.021729
-52.803623 547.740906 -1322.718994
23.567619 729.600098 -862.765869
-381.438293 982.860901 -1300.944336
66.358879 793.034607 -1288.912598
-154.210007 1147.893188 -1235.019043
-197.371353 814.344727 -806.738770
-390.632019 655.375427 -1274.514160
-151.849487 983.613281 -628.504822
-79.577782 696.758362 -1312.982056
-194.971603 613.391113 -839.129883
-244.985977 653.328674 -1321.516479
-168.290833 765.736023 -820.607788
-112.771942 998.625854 -579.091492
-177.172791 972.680786 -671.594604
-300.982086 939.403931 -642.850769
-120.301308 624.557190 -851.897522
-308.489868 668.315857 -852.936829
-108.453979 618.029785 -835.942078
6.241365 665.410889 -893.404968
108.599327 974.186829 -1278.408447
47.515560 907.616516 -1266.006958
-221.960327 576.540222 -873.128296
-412.795227 637.218750 -1298.638916
-202.930054 966.905579 -648.112793
-271.084686 561.830505 -876.015747
-43.705070 816.235229 -1311.177246
-83.068558 866.829529 -1279.547241
23.207996 778.071350 -837.331970
-254.281082 759.069214 -1285.738037
-258.982208 778.743225 -820.161133
23.976141 1010.876953 -1241.528442
-240.502350 973.527222 -648.143005
-26.724195 652.979614 -1322.373901
71.605042 824.485657 -1307.319824
95.256889 951.934143 -1292.957642
-95.254326 881.854492 -1207.701294
-304.878448 740.354614 -1311.605103
-203.548340 1248.385498 -1227.106079
-340.189667 886.766785 -816.015015
-190.369034 990.302002 -492.523743
-134.368118 1029.752808 -461.082428
-62.970612 673.267944 -1296.918701
-112.080696 926.578796 -822.600647
-33.552525 710.148254 -1311.755371
-10.593476 797.377014 -833.534668
-196.036148 1014.402222 -738.999146
-270.203979 808.739319 -1306.744385
-256.590851 801.227478 -1292.685425
-103.405579 611.710999 -857.863403
-186.695160 983.648376 -514.256531
-200.704224 1020.051392 -439.320801
-207.220810 593.972473 -1315.470703
-236.531067 854.317383 -823.199463
-0.768680 964.052246 -1254.777832
-148.757813 894.443665 -1295.600464
-163.491104 977.031006 -594.771240
-374.857727 762.181580 -1259.498657
-221.061462 969.793335 -813.149536
-29.187851 760.291748 -822.301331
-172.201279 861.151550 -807.271057
-174.356247 993.061157 -447.457428
-269.442963 971.697571 -408.744049
-344.986145 940.360291 -564.339111
-132.471756 621.217834 -1296.837158
-205.884949 982.887085 -596.558350
-230.265610 667.893616 -845.268433
-358.040833 956.977966 -469.689606
-145.807297 1013.749268 -441.926361
53.210445 867.254395 -1275.025757
-343.120392 935.807556 -636.337708
-283.373840 723.006653 -1303.950806
-158.190659 981.664612 -662.916626
-386.112793 928.079712 -576.627136
7.319812 874.163147 -1299.500732
32.421036 897.996704 -1269.799561
-362.292480 836.407349 -1262.018555
-277.182495 646.102478 -1314.016846
-192.377563 642.595520 -856.470825
-306.180634 943.756897 -559.426025
-297.477264 959.603699 -583.210999
-89.292931 903.477783 -1253.446533
-155.456863 603.482422 -1332.381348
-144.694336 988.668213 -496.401550
-284.447601 637.730469 -1310.105103
-158.283478 904.093323 -817.886475
-108.684296 594.426025 -1335.439819
-28.697760 782.152771 -1316.464111
-296.191101 805.718628 -1303.849365
-189.245895 991.197449 -500.545288
-106.795662 598.096924 -879.345764
-243.667252 644.060913 -1298.169067
-364.461060 922.079468 -598.180420
-138.128510 997.329468 -646.369629
-24.137711 755.007813 -1313.392700
50.801903 933.075867 -1267.425781
-117.217964 1010.537048 -649.519104
-148.267776 996.560974 -614.620422
-116.754959 998.552856 -561.354004
-38.276138 701.336670 -837.721863
-291.236450 637.144348 -1327.732910
-77.239777 725.383484 -1319.192505
50.068947 952.600769 -1244.123291
-223.038528 849.093933 -817.760742
-281.688904 794.978394 -1288.531006
-247.279755 613.669128 -1315.460815
-226.559326 626.312134 -822.533508
-308.923828 987.044128 -417.900238
-358.635651 915.706482 -709.616943
-125.749184 693.324829 -850.170959
-101.605415 988.994324 -631.524902
-111.355179 1008.054749 -528.165955
-272.898834 838.122131 -1281.435303
-373.165588 648.589600 -1290.177246
-224.408569 687.956177 -818.244446
22.037231 737.512756 -828.986511
-122.015648 605.194092 -1317.511230
-272.044678 818.324768 -1276.734863
-145.043915 544.743042 -1324.938843
6.725269 696.940918 -858.703064
10.280554 707.810303 -850.137939
-189.312836 600.862122 -1337.408569
-4.647310 878.137512 -1272.380249
-331.800995 676.438416 -1309.499634
17.571510 734.307190 -832.013794
-315.122284 987.104614 -427.718384
-130.778137 1001.968933 -677.121155
41.825554 773.373413 -671.548645
-236.329422 591.591370 -1320.430908
-221.966095 807.086365 -832.030151
-299.136200 789.355103 -1274.821533
-246.790939 796.710510 -1275.739258
-30.543690 927.998352 -1272.575317
-315.651794 615.992676 -828.333862
-172.315384 746.317444 -837.014832
-397.125275 919.339905 -520.128723
-34.358940 666.387451 -1324.775146
-141.494263 994.688538 -549.760620
-236.685287 554.359009 -879.375854
-257.029297 971.932861 -469.672852
-281.421753 780.684753 -824.112427
-345.278809 758.569885 -823.605164
-136.703659 547.491211 -1317.861206
30.321095 924.654907 -1266.704102
-212.515656 977.894348 -608.618896
-228.972794 728.290771 -1316.906494
-384.546570 748.473083 -1289.232178
-264.597473 970.229553 -512.466614
-113.017662 812.222473 -825.146240
13.852308 691.528442 -1312.994263
1.581963 722.420959 -836.048706
-175.348083 989.276062 -576.307190
-170.356812 1241.831909 -1245.302612
-210.945816 563.118896 -886.210632
-217.114258 985.466797 -680.508484
-420.198975 916.862183 -623.680298
-295.452240 959.556213 -456.291840
-50.577660 714.247070 -841.268555
-148.947021 691.736572 -827.340637
-18.308506 632.596619 -1323.310303
-417.113800 924.428162 -492.897980
-387.608856 775.251282 -828.756836
-206.660980 836.909851 -817.740112
-113.999229 791.937256 -1301.621338
-181.065842 987.344360 -523.378601
-259.184509 968.692017 -648.893799
-107.105560 1016.737183 -553.857605
-271.216827 940.211487 -810.516541
-138.916641 767.191467 -813.087524
-17.730913 698.113892 -1310.822876
31.684143 836.008362 -1284.008179
-119.280525 612.010498 -848.612671
-230.508896 848.686462 -841.160339
-157.787704 713.862488 -1256.057495
-333.836182 939.757751 -598.373962
-407.014160 911.655151 -667.577576
-302.608307 750.910645 -842.219788
-132.372192 839.906311 -1299.829590
8.367847 993.443848 -1268.140381
-177.133240 747.984680 -1276.644653
4.861732 779.947998 -799.434143
-172.584503 984.433594 -480.358093
-174.564423 561.705322 -1320.228027
-13.989539 641.683105 -867.112061
-96.854347 564.673462 -1315.143799
-211.214325 950.069580 -807.699829
-467.545258 912.453125 -1283.734863
-166.674545 979.420410 -542.721313
-269.599213 703.066895 -1309.310059
-301.582092 956.973450 -637.742065
10.969927 923.310059 -1243.777832
-109.040031 542.463501 -1308.345703
-155.303436 1247.635376 -1229.313721
20.793051 931.669373 -1230.367310
-93.026985 716.043640 -1315.529297
13.166461 754.210205 -833.743164
-57.782673 792.091797 -1292.424438
-298.117584 713.193359 -1301.180420
-108.878151 580.384521 -865.541565
-219.380890 674.133362 -829.557922
-305.407776 948.383972 -665.826111
-113.984596 985.966492 -604.584290
-181.850082 990.569458 -452.797333
-273.321747 946.510071 -660.764587
-328.191559 854.213806 -816.684265
-274.536957 1172.280029 -1241.359741
-147.180984 587.740295 -847.843079
-319.182831 919.695923 -796.112549
-175.757401 563.987915 -857.598389
-88.358566 855.611694 -1276.367065
-283.663330 754.064270 -1298.599609
-143.255463 548.745850 -1322.425171
-472.614685 693.344543 -1299.671753
36.992363 698.689392 -844.608643
-323.147675 807.504578 -1254.563110
-198.766342 995.244873 -431.846405
81.170982 859.368164 -1289.010132
-65.541306 746.407104 -1291.783936
-12.662233 825.955078 -818.045654
-138.484879 996.859985 -479.375641
-31.885443 823.429626 -1299.906250
-74.528023 802.059753 -1286.346924
-77.655151 924.247742 -1233.334351
-317.320862 844.454773 -1273.878296
-344.677765 969.544861 -1193.667480
-188.804672 983.609070 -515.119568
-221.954773 977.489380 -452.287689
-250.010345 587.142578 -1317.103516
-440.631226 912.812622 -645.589783
-288.493347 751.266602 -842.365295
-302.042847 965.484741 -533.103455
-255.014603 555.507446 -869.830078
-192.407013 978.587097 -717.426392
-425.728638 754.221375 -1256.293457
-74.819374 622.583069 -1294.844116
-118.024330 1010.525513 -507.465607
-108.447151 685.259216 -851.245361
-88.401443 1003.593506 -1249.032471
-242.841461 958.112915 -583.704102
-36.014561 894.226563 -1277.692139
-286.360596 761.082581 -825.982483
-114.360672 818.282898 -1312.485352
-139.349136 1026.591431 -443.185547
-311.623169 884.715027 -1263.454956
-153.180649 697.883728 -1277.428101
-100.751427 951.473389 -1265.731201
-148.715302 870.569824 -826.712952
-210.315430 889.644104 -828.338806
-49.965443 895.484436 -1234.823242
-374.704712 928.338867 -554.950134
-223.562424 974.641541 -473.774963
-278.287445 966.476074 -445.810333
-137.775070 818.096191 -1294.469238
-169.270615 597.481506 -849.373352
-128.779434 560.869507 -1317.147095
-192.771439 798.425964 -1247.193359
-84.812714 999.807190 -574.261536
-184.063690 612.386230 -852.113281
-395.716003 696.707581 -1282.332397
-145.922729 996.816040 -621.651917
-287.196106 1270.507690 -1242.374023
-174.635315 982.587097 -604.601135
41.765266 932.748291 -1270.158447
-127.515747 695.855713 -1212.477051
-345.917114 943.612427 -476.602844
-256.284882 1133.647217 -1155.133179
51.292133 731.244629 -1308.421265
18.308777 757.851257 -1304.612183
-136.821503 716.091919 -1182.191528
-263.944122 576.235474 -853.162292
73.536057 904.135010 -1292.769287
-156.381607 987.754089 -528.103027
-73.317871 620.689636 -1325.142578
-220.305984 980.995728 -654.403320
29.775402 878.749878 -1295.005249
-221.019348 949.001648 -822.279358
-296.742767 1208.824219 -1246.921997
-130.575378 829.525635 -1306.003540
-316.780975 947.936584 -466.627441
-330.473785 942.556030 -639.233765
-163.854507 1109.221191 -1170.438599
-135.527405 612.034119 -1300.043579
-176.694183 696.449158 -827.837769
-72.980995 979.068359 -1283.734497
-350.825470 867.655273 -799.830933
-186.461319 987.356201 -500.971985
-367.560303 866.107300 -798.195435
-116.859932 998.468933 -574.393982
45.508831 785.149048 -695.666138
-132.455795 680.453186 -829.940002
-232.711472 603.958618 -840.862244
-212.371445 967.662659 -636.226135
-61.086349 820.372986 -1301.116089
-254.744492 743.003967 -1300.888428
-359.891724 727.460815 -810.029297
-81.079956 730.051636 -829.296387
-59.230808 816.411499 -807.248352
-322.375671 705.258667 -815.320740
-288.711304 842.349670 -833.846130
-157.797882 992.718628 -476.155151
-223.806885 988.057190 -448.808350
-190.408386 856.859497 -824.777405
-287.562073 945.863098 -583.826782
-98.095329 999.045654 -643.147034
-164.443481 756.276245 -1164.495361
-7.160295 763.419067 -1315.780640
-354.479919 853.386292 -845.820496
-243.543900 889.746765 -802.428223
6.791059 683.058533 -871.743530
-260.213409 589.032410 -1313.617676
-35.422421 687.651428 -1328.960815
-140.836441 748.159607 -1104.902466
-106.637886 903.250916 -1245.496094
-244.447174 952.114929 -834.041870
-387.336273 922.804199 -542.832397
-296.125671 630.137390 -825.422913
-66.486626 779.380554 -810.456177
-154.553574 909.950928 -816.087280
-159.732224 677.690308 -1175.500977
-6.888437 908.932617 -1254.100464
-78.407631 747.548828 -827.130554
-190.918243 987.977905 -443.364410
-474.202850 836.567139 -1284.178223
-213.534927 613.534851 -844.274231
-45.547279 752.518372 -821.332825
-348.833649 749.746643 -1296.790771
-317.766266 764.528748 -1295.260498
-193.740845 864.211548 -806.175964
-415.614471 900.516113 -625.798950
-116.944504 1012.441956 -519.437744
80.832504 753.481079 -683.967163
-114.183197 600.663757 -852.113403
-148.936310 991.773560 -689.723511
-447.162140 910.856995 -562.954529
-149.759415 537.409912 -868.295288
-147.840515 783.523804 -1235.945190
-182.420609 577.460022 -847.073914
-128.615494 1016.422485 -469.515594
-228.387238 649.219238 -1308.550171
-268.166534 960.912415 -621.205566
44.859478 999.389343 -1279.646118
-144.662491 607.428284 -834.761414
-117.275879 1010.470032 -526.394226
-137.419571 998.436890 -522.561890
-297.807861 714.727295 -1288.521729
-231.761017 959.314392 -627.460754
-292.888092 923.417175 -797.278564
-9.170750 702.844177 -834.166687
-217.433197 931.036194 -824.923828
-340.640594 786.484985 -1284.098755
-174.043472 653.575195 -822.434937
-243.010468 814.701965 -1216.412598
-89.462006 695.944824 -821.980347
-412.271118 911.687012 -581.339661
-7.803394 672.597412 -845.065674
-316.637451 934.690125 -611.982910
-258.529266 969.140930 -523.084290
-202.389221 1021.821838 -1276.873657
109.445488 889.428345 -1289.563110
-292.921997 645.335205 -838.245972
-235.431747 601.507385 -1314.631958
13.669801 742.848328 -837.614197
-276.216644 840.775818 -1281.293945
-258.821167 1016.073059 -429.305115
-62.353878 910.890930 -812.421753
-192.187119 857.605469 -828.857544
-224.121445 984.603027 -692.574097
-237.644531 974.363953 -552.440979
-38.755737 716.710632 -1317.867920
