ply
format ascii 1.0
element vertex 1342
property float x
property float y
property float z
end_header
-227.937271 868.156372 -553.009705
-320.289581 1246.195435 -806.705627
-173.403915 1281.945923 -908.807434
-685.540405 1254.931519 -780.748474
-227.243347 1127.581055 -976.242493
-306.968689 1267.304199 -816.329529
-555.807007 1167.675171 -827.302368
-334.152802 1245.524414 -883.548889
-375.142517 1067.422485 -86.882004
-232.666779 869.431641 -548.289001
-285.868774 864.266296 -563.370239
-421.966919 1038.148682 -52.004005
-362.855713 1066.727905 -968.740173
-297.434814 1077.827271 -64.016457
-323.862000 872.068542 -518.076111
-329.680054 1084.784790 -119.277435
-173.353882 1272.884033 -936.284729
-422.354858 837.043518 -490.157043
-172.312454 1132.728760 -174.079880
-426.942627 798.796692 -522.719299
-383.952087 1080.776245 -181.470673
-217.018829 892.545654 -548.581360
-455.211243 838.005798 -477.931488
-256.471680 880.049194 -536.286987
-354.793152 983.733521 -1003.108398
-413.984436 1397.544800 -792.636169
-683.739197 1151.092773 -797.982056
-208.427826 1088.198120 -84.995094
-286.312744 1067.237671 -29.072601
-548.271179 1181.933350 -821.914734
-242.913528 859.589111 -605.775513
-251.015472 1194.376343 -950.101868
-480.896942 1047.768921 -103.855255
-594.296204 1314.723511 -745.043213
-342.717255 871.695007 -514.232483
-456.709229 1040.054932 -409.705811
-446.912018 813.316589 -505.106873
-727.928955 1080.869385 -832.886047
-369.870300 1095.229370 -406.077911
-405.898010 1023.539490 -426.547668
-513.703979 957.418701 -966.576416
-336.389252 1101.922607 -164.043549
-403.015167 1043.538940 -779.078186
-298.124268 999.434875 -465.348541
-228.925064 1324.168213 -850.511902
-128.418549 1054.898682 -488.575043
-377.094421 796.389221 -572.217468
-419.763977 1241.591064 -753.800049
-247.714874 1157.515747 -299.692749
-281.782013 1250.577148 -897.096863
-353.788208 1151.586670 -269.648834
-172.964081 914.202576 -577.199646
-482.046509 1058.282593 -407.949646
-294.204987 830.987488 -578.424927
-207.576187 1295.175049 -896.598389
-292.143341 1168.251343 -291.561249
-265.303864 1139.543701 -248.330643
-413.427856 1296.971558 -851.196228
-380.319977 940.884033 -494.002899
-253.577759 879.615479 -540.187378
-240.505554 914.618347 -524.470703
-424.932556 1050.298096 -116.963058
-682.041748 1338.562256 -712.703186
-448.926208 899.320679 -453.395752
-427.522919 1055.779541 -133.893509
-451.802307 1062.528564 -392.709259
-361.893036 945.040222 -470.064178
-484.490051 1040.158691 -426.075378
-224.970901 1139.081177 -271.065796
-552.549194 1141.107300 -870.638428
-383.315338 1041.268066 -4.268825
-275.921204 1208.760010 -938.811890
-235.690887 1092.692505 -12.518582
-431.217194 1431.655640 -710.730530
-316.569763 1169.784058 -297.042175
-360.367035 828.234253 -542.879456
-358.861328 1222.078613 -870.050964
-400.581268 1053.097534 -828.805908
-203.190063 855.403931 -597.458252
-375.150696 1088.624268 -181.687698
-435.196808 1104.068848 -397.244476
-403.697906 1077.144409 -404.677002
-391.936737 1133.853027 -380.410126
-540.404846 1065.412354 -909.002808
-523.755493 954.914063 -457.421722
-717.079407 1064.025513 -859.492798
-199.016678 1116.570435 -155.542603
-356.074432 1158.416748 -941.236938
-219.795517 1098.474365 -28.423620
-359.378418 1069.023438 -95.322304
-387.298737 1402.712158 -777.810608
-341.623749 1046.900879 -20.560936
-435.483307 1088.748657 -866.579102
-288.003662 1032.498169 -468.452393
-356.326477 922.218018 -508.862549
-559.815979 1193.009033 -849.165405
-474.050079 911.117004 -470.010742
-304.579254 1237.714233 -884.726318
-299.254456 1079.961182 -85.266129
-229.204453 869.247925 -551.540405
-338.513550 1257.965820 -836.500732
-274.645996 1058.170044 -992.472595
-435.014008 1063.111084 -147.197174
-187.232376 1121.921997 -152.756546
-233.279099 1251.931030 -885.103455
-560.825745 1149.083130 -857.392883
-683.633545 1313.806396 -690.876709
-154.739975 1026.463135 -492.069977
-325.602203 861.512512 -522.918518
-493.241638 1034.863037 -403.405029
-147.822037 955.687500 -573.791199
-445.815155 1229.555786 -818.719360
-289.969513 1329.020630 -840.461731
-379.012543 1218.293945 -891.753540
-415.373322 1144.534668 -901.730652
-421.073700 1032.220337 -445.782745
-312.910309 1109.390991 -167.688797
-592.218872 987.974670 -924.289917
-511.668304 1074.698486 -915.038269
-332.064728 1193.969849 -911.419861
-262.240509 1098.895142 -978.578613
-221.282608 942.467773 -515.335938
-363.091400 1094.390503 -152.193390
-223.234726 1076.202881 -3.848312
-301.675140 1212.620728 -923.876282
-376.187561 1118.026367 -212.395264
-184.748856 1268.885498 -926.029785
-348.208160 897.492676 -497.769409
-273.582275 1031.609375 -483.947571
-382.760162 1232.373047 -817.416992
-240.626114 1064.916016 -455.572479
-629.346436 1139.024536 -821.238525
-435.079468 1085.537598 -148.797592
-517.501282 974.585938 -418.867096
-184.139282 924.376648 -550.573120
-481.758240 1016.665466 -403.921448
-476.290527 806.459900 -511.362305
-429.954224 1035.664673 -53.405136
-233.594070 864.511841 -564.864197
-152.830170 970.472107 -541.275269
-332.932617 972.373962 -1014.463501
-308.598145 1168.441040 -949.504883
-321.219086 1089.826782 -143.887924
-270.679932 1187.442871 -919.985779
-233.892212 1135.158691 -228.902298
-349.298004 953.172607 -1002.455627
-202.842728 1088.331909 -76.487175
-708.690491 1343.355469 -723.998840
-373.059448 1409.803589 -770.801270
-625.050476 1133.061523 -831.719299
-462.800629 843.521667 -478.872986
-470.279663 1067.154663 -938.632263
-195.133499 872.032776 -612.644287
-245.364517 855.255249 -596.175659
-188.994659 1099.079956 -88.793938
-178.805038 896.892090 -591.776550
-396.038452 1346.935181 -775.834167
-348.654999 868.552429 -511.753815
-403.035919 982.791321 -981.811279
-405.894379 970.998718 -975.982056
-420.108002 1220.660156 -765.109497
-313.116241 950.239441 -503.865723
-183.734299 974.490784 -521.837830
-326.149292 1110.666870 -967.127319
-560.843445 830.069519 -337.966278
-551.001709 1225.198853 -771.289368
-340.985474 1150.802734 -949.292664
-261.473358 938.156738 -491.826965
-668.564514 1096.754395 -821.202637
-425.704681 1099.042480 -267.855286
-504.138245 965.232727 -419.170837
-364.878632 1255.372437 -812.356384
-620.071289 1076.405884 -875.050903
-351.300293 1279.316528 -831.260254
-414.925568 1072.070557 -145.419952
-464.264313 975.269836 -438.342407
-505.678955 1188.911377 -823.617493
-358.687622 1555.878906 -726.530884
-397.493103 955.714050 -984.868591
-274.506256 1093.513672 -118.108047
-175.706299 1091.115967 -50.886833
-490.477509 1080.799561 -382.833893
-411.096405 1033.029785 -927.322754
-407.150879 1117.849976 -383.323212
-434.611206 1038.382202 -76.073280
-507.064331 1156.280151 -875.621765
-270.087952 1059.088623 -977.739563
-491.859924 1107.423218 -915.649658
-409.970276 1169.528076 -903.305237
-180.451920 942.747253 -523.529785
-375.901581 1142.072510 -267.912476
-451.592590 1012.279785 -932.563477
-590.800781 1028.673706 -907.424072
-487.718140 1096.211304 -920.325745
-403.666443 1147.682861 -893.089783
-270.455078 1232.600830 -903.517883
-220.227188 876.308411 -565.043762
-409.612335 1419.736084 -785.881531
-433.763672 1083.142700 -193.507248
-356.067261 1053.913818 -452.053680
-438.669098 1358.904785 -801.832214
-734.203125 1195.265503 -763.961243
-188.087997 898.970215 -573.711426
-622.325500 1140.053467 -848.757141
-254.059555 1108.259644 -147.750046
-398.488342 1151.575439 -797.362976
-255.410828 1309.524048 -875.059875
-414.051422 1034.550171 -36.882790
-406.056305 967.974060 -988.143127
-414.068329 981.358521 -976.055115
-232.145874 1088.919434 -40.950443
-719.601807 1109.175049 -798.772461
-321.494843 852.100769 -557.533997
-609.998779 1144.191040 -805.962524
-259.659668 1133.320923 -233.369736
-291.400208 1047.412720 -461.165253
-325.952667 1247.325439 -807.654053
-423.870605 780.347290 -571.945068
-229.754318 882.572815 -537.921936
-219.771942 861.375427 -610.338135
-432.232300 1096.250244 -909.357056
-242.133667 1218.251831 -941.268311
-282.482849 1106.001099 -982.900024
-334.966248 1114.875854 -237.427200
-282.791901 1059.565186 -1004.632202
-301.631561 1246.248779 -848.848755
-478.534485 1031.871704 -382.639740
-447.166199 1018.053772 -947.957825
-396.621155 1076.823120 -432.556488
-474.079376 994.059631 -401.287323
-213.369431 1271.267334 -889.969727
-332.452179 1282.109741 -860.789124
-369.964844 1394.989136 -771.007446
-166.014832 1142.443970 -216.143509
-259.861938 1103.618408 -977.235535
-349.081421 1121.979492 -235.632874
-146.068024 954.084290 -526.930298
-310.920898 1003.161011 -446.348114
-466.962921 1053.505005 -160.539368
-264.006104 1082.929932 -45.362545
-406.484619 1116.299561 -837.523926
-555.709229 982.921387 -940.149231
-524.911560 981.214722 -934.092834
-378.652191 1233.781006 -884.201416
-437.583466 810.736694 -548.363281
-359.081177 1168.523193 -935.058533
-177.846436 925.470276 -560.437561
-455.812103 1044.022827 -384.762360
-403.023956 1397.121582 -774.034058
-474.029053 982.061096 -963.213806
-373.812744 1255.232788 -859.175415
-656.192078 1016.453247 -888.789307
-432.771881 1064.508911 -144.389984
-566.043884 1195.163330 -782.649780
-282.619293 1117.368286 -202.864517
-551.587402 1156.312256 -823.237915
-411.359650 1027.348511 -11.899991
-66.481819 1032.361816 -331.332245
-241.438950 1145.241699 -433.315186
-186.489029 1384.200806 -841.141724
-208.921860 1208.786987 -953.845642
-406.972473 1077.251343 -133.579056
-337.081238 1109.273071 -432.108002
-410.692047 1082.666138 -191.466827
-127.978203 954.031616 -566.627991
-279.825439 1033.611572 -442.524017
-220.482254 1122.344116 -184.365662
-369.289185 1072.399902 -111.185822
-364.387482 1050.388062 -59.441776
-336.379913 1047.034180 -981.751892
-396.708557 1037.904053 -52.250622
-238.468063 1088.429077 -69.565056
-500.947418 870.055603 -451.983704
-346.609955 986.381287 -1014.795105
-276.355438 905.145813 -516.048157
-629.550598 1067.476807 -877.721313
-296.214050 833.701599 -565.480530
-220.647217 1147.828613 -230.844482
-242.422531 1108.268677 -137.920212
-631.752563 1104.619873 -823.761536
-413.300781 1189.768799 -896.169373
-284.437714 1092.716553 -121.452354
-317.860352 1100.886230 -121.423393
-373.876831 801.651062 -582.157410
-227.992035 1000.711426 -478.634888
-247.562881 858.148987 -561.632385
-281.977661 1208.094360 -924.118530
-451.148804 1360.072144 -801.909180
-460.643311 1091.175293 -386.650513
-326.870941 1227.759766 -903.835876
-516.683167 1012.262512 -935.603943
-393.178619 1044.327271 -76.001190
-615.390503 1054.984619 -882.855225
-356.336365 821.684814 -541.422363
-416.137848 915.951233 -473.053741
-403.826904 1060.817139 -921.874939
-516.314087 1038.934448 -937.851685
-438.932678 1031.167236 -902.177734
-518.430115 1122.296875 -884.179321
-376.536194 878.523315 -503.318878
-429.495422 1339.074707 -773.809204
-247.492081 1298.801880 -828.736694
-284.844116 889.774536 -522.131958
-376.757507 1084.727173 -160.988693
-424.873413 1024.272217 -0.521937
-541.792053 1002.506287 -918.703369
-241.583817 1089.479370 -99.423500
-316.404510 1096.379028 -976.737183
-325.648987 1177.932739 -932.466858
-396.093445 898.538086 -487.111359
-395.379364 1228.772095 -845.668396
-187.424286 1208.020142 -956.771423
-457.529114 1389.239136 -709.398376
-200.146347 1130.316040 -193.128799
-417.554352 1115.772339 -247.379059
-302.535370 1153.465088 -926.455872
-315.458130 1132.789307 -239.932663
-281.552002 1083.544312 -978.447510
-231.193054 885.552612 -553.331299
-265.137390 1156.941284 -397.328918
-311.587494 1092.983521 -148.237228
-193.754074 1016.023254 -483.162598
-185.661392 1116.285645 -159.858185
-645.609314 1047.716675 -823.170593
-272.279236 1083.605103 -73.378906
-225.851440 1247.137939 -903.505554
-385.754730 1022.656250 -962.626526
-153.078964 1316.653442 -909.052856
-507.766907 1059.723022 -915.959839
-407.397644 1081.807861 -166.507584
-426.126282 1064.652832 -148.616714
-428.677094 1036.988159 -52.785172
-166.610428 1108.873291 -99.268852
-165.374985 901.741455 -592.955811
-354.833649 1072.078369 -75.603729
-344.965027 888.925415 -524.794495
-518.511597 1158.794800 -866.940491
-357.749908 1074.903809 -42.122765
-555.797241 1194.714478 -838.562866
-249.213501 1229.876343 -929.401306
-429.852295 1317.186157 -720.578613
-341.065247 1093.773071 -145.044495
-170.847778 1117.906494 -157.699844
-350.221863 829.564880 -535.984436
-223.767609 1259.884644 -856.886780
-341.678314 1133.100586 -940.991638
-446.846527 1271.570557 -735.032837
-173.794113 1242.712158 -938.780579
-288.208435 1270.896240 -815.247070
-285.576843 1080.622925 -24.217405
-165.685257 1145.187256 -222.692032
-207.851730 1163.200439 -290.504852
-208.723358 1118.501221 -194.843033
-302.375031 881.513489 -519.781189
-453.328705 983.435669 -430.136444
-367.422150 1183.511353 -290.879028
-645.572876 1176.541016 -781.228943
-404.312714 1550.888184 -693.264465
-359.054382 1271.065430 -831.899536
-463.936890 958.687134 -975.947937
-403.829407 1373.458252 -764.048462
-436.677887 1078.327393 -169.713730
-373.756531 989.544434 -448.686584
-270.842987 1344.456909 -847.471619
-298.175018 1120.740112 -972.074646
-516.579529 1214.693481 -819.334412
-452.806244 1355.373169 -773.715271
-506.246490 1040.280151 -932.999268
-392.115051 1139.037720 -920.206970
-714.812134 1081.899170 -823.067993
-159.833344 984.311096 -523.279297
-290.313324 1223.647339 -906.319519
-460.573120 1100.297729 -898.638611
-299.525452 1126.221313 -406.251801
-176.158554 878.811096 -600.223389
-186.542847 1101.285156 -78.336800
-260.362274 1082.347046 -454.230377
-221.260773 1270.569946 -894.427673
-371.178650 837.179321 -510.241608
-471.130676 814.998413 -503.436981
-640.721802 1084.671021 -852.752136
-283.587219 1142.968018 -233.362930
-268.390015 1218.691650 -922.248169
-703.203674 1094.511963 -825.791809
-225.726639 853.276550 -591.402710
-380.786560 1248.035400 -870.019897
-142.283310 1307.954224 -900.847412
-484.852295 981.099121 -959.502991
-314.320007 1009.440796 -1007.906128
-423.342712 1054.244995 -936.977173
-232.888962 1031.723633 -488.826294
-257.768250 1080.560669 -988.051025
-267.077057 1004.784363 -497.988525
-356.659363 1047.762573 -36.140530
-420.502625 1039.344849 -51.257706
-633.299927 985.369568 -894.746094
-271.660950 827.064087 -590.614075
-500.660217 1039.409424 -120.126869
-375.691437 1063.278687 -906.919800
-359.520721 888.750488 -512.284790
-456.660217 859.825562 -485.348480
-391.931885 1151.172729 -929.476196
-365.527435 958.944214 -1012.469849
-427.630615 1032.048828 -948.660461
-457.458038 1190.913330 -742.401978
-307.057556 828.597595 -573.253235
-361.625519 1078.838501 -126.171303
-459.962463 984.092468 -950.223328
-288.114258 1147.014160 -279.636993
-205.265915 1087.417114 -27.905140
-276.031891 975.896179 -483.977417
-466.133698 985.928650 -964.709473
-272.491150 937.055664 -488.376862
-321.791138 896.404785 -493.964569
-421.244843 1028.204956 -16.825260
-546.989563 1185.153687 -840.623047
-39.908249 970.781189 -329.339233
-255.556046 1311.314697 -847.944153
-380.915802 963.253662 -473.129578
-362.687286 1033.935791 -948.225830
-639.672974 1065.195679 -867.183716
-404.915680 1051.825317 -68.922089
-288.534821 1063.064575 -34.562901
-372.761475 1104.690918 -415.488373
-559.494019 1061.546875 -884.007690
-332.784149 1236.540527 -895.963989
-416.012970 1102.500122 -726.349182
-644.605164 1033.430176 -888.706604
-414.198364 1347.832764 -807.701294
-332.628143 900.745911 -500.799957
-339.041901 1050.362305 -421.739166
-470.699280 1126.592896 -908.232849
-438.731903 1052.960327 -103.584854
-677.516052 1226.284912 -781.778198
-421.370178 1098.937378 -783.705505
-272.321655 1102.600830 -145.329849
-291.751160 1141.494995 -258.793518
-515.801331 903.564758 -432.365448
-387.885742 1139.201538 -940.013000
-423.407227 1085.322021 -194.985641
-666.446838 1226.552002 -781.930847
-133.773560 985.380188 -544.393127
-360.813110 885.350708 -515.193604
-465.321350 1076.345581 -404.035095
-266.970520 1062.692017 -9.821157
-467.924652 1007.203857 -966.106079
-461.165344 896.927856 -450.411072
-330.497253 1191.391479 -925.873413
-342.638977 1049.390381 -981.256042
-236.123093 1288.604492 -862.087646
-153.051987 951.476746 -565.902954
-240.803329 994.301270 -498.898743
-422.956360 1059.442749 -90.131027
-209.151276 1226.689209 -909.221008
-402.531219 1272.127930 -835.245728
-372.360748 1062.071289 -112.641304
-205.698654 915.880859 -562.060242
-484.653442 1194.023071 -792.385498
-173.047119 1190.292603 -314.650421
-276.671478 1116.120483 -191.997910
-154.596832 1101.525635 -95.356079
-176.696198 1153.931763 -254.459305
-250.991272 941.092407 -498.207184
-226.402252 1198.602539 -955.530823
-555.912292 1135.904297 -884.560974
-188.529556 1057.766357 -485.232574
-385.449036 1143.726196 -921.588867
-331.648621 1077.858032 -111.028725
-327.601990 1108.499756 -411.220367
-585.858093 1038.603516 -903.620056
-415.963898 1044.143188 -72.460876
-149.198700 1286.115234 -931.535095
-206.151932 1094.100586 -103.478844
-693.187744 1332.998779 -733.136169
-358.170380 1052.854736 -411.260834
-350.760345 997.914917 -466.344696
-232.062073 969.610840 -507.423706
-502.485260 887.870239 -455.771606
-377.826874 1062.020386 -403.517517
-221.721985 1016.964966 -478.830292
-277.520325 1255.653198 -832.354675
-279.455963 1112.236084 -174.549591
-150.773773 955.085999 -551.149048
-403.878876 1389.974365 -798.561157
-280.603333 1287.654175 -852.069092
-297.603699 1069.592896 -72.860466
-374.398285 1096.262207 -947.976379
-373.528381 953.011780 -464.389404
-351.347534 1065.089355 -420.814972
-577.509949 1282.377563 -706.076660
-633.926208 1125.488403 -841.611023
-351.624939 1047.173340 -26.065275
-540.216919 1089.592407 -897.948975
-300.667053 1220.329590 -825.010864
-641.185486 1118.498291 -842.631470
-407.442688 1032.052856 -426.345367
-412.095093 1085.257813 -205.167328
-259.862183 1176.767090 -942.326721
-423.342865 1068.590088 -128.764404
-293.508606 991.418091 -456.445862
-534.598206 904.202332 -448.238525
-540.759155 992.249878 -411.966980
-273.631073 1099.610474 -155.907547
-332.597931 1151.427734 -918.351318
-330.792297 1004.021240 -1012.526550
-421.909698 985.034241 -444.787292
-181.164886 1108.542358 -121.395485
-671.091003 1088.155884 -836.897339
-188.870712 1319.582642 -897.287842
-344.447845 1014.173950 -995.793152
-302.991577 1263.268555 -878.492920
-313.899536 1094.233276 -951.276062
-563.044006 1265.379883 -714.442017
-249.859116 942.370483 -505.398804
-174.092377 1104.822021 -93.542450
-266.781311 1118.287231 -189.100708
-309.869385 1009.118958 -469.745911
-317.504272 1119.751099 -238.986176
-383.217102 1108.228516 -398.701355
-332.810577 1062.812866 -418.295380
-149.577362 971.178894 -529.788818
-333.404999 1088.091431 -981.147278
-347.943909 1106.518188 -179.552048
-566.680176 991.023071 -933.072754
-486.723969 1078.341431 -214.337601
-223.762711 878.900879 -556.238220
-550.175293 1042.356567 -914.230225
-189.665619 945.885376 -538.610535
-186.230972 1222.358398 -927.286011
-252.712204 1293.167969 -864.009705
-162.836380 1108.833008 -93.669472
-303.691681 1081.738647 -960.033508
-232.460220 1096.635010 -100.990120
-351.127136 1088.613281 -180.343948
-343.309601 1124.739136 -230.959320
-266.834656 1118.967896 -189.374512
-706.449036 1056.551147 -829.005798
-348.792389 986.657837 -991.163330
-381.231934 1128.221191 -382.410461
-387.132111 1383.060181 -826.643799
-294.413452 1229.610474 -901.726746
-200.807968 1289.213379 -908.357056
-308.281647 830.547791 -547.996582
-178.348221 1168.417847 -256.834595
-223.496933 1006.129883 -489.466583
-236.606659 1091.749512 -72.124695
-516.536316 1100.803955 -898.022644
-722.649902 1273.748901 -731.510193
-231.210754 935.438721 -523.144409
-285.447845 855.876160 -555.793030
-442.800873 842.642639 -503.825165
-645.452881 1009.351807 -898.011230
-487.149261 1240.437744 -730.036804
-593.422058 1060.135132 -893.892029
-432.992615 1197.932129 -841.361511
-525.959961 924.222656 -958.605774
-386.752930 1123.717407 -387.526917
-368.968536 994.303894 -450.691345
-252.423660 839.338867 -618.017761
-446.483337 1066.401978 -143.884796
-458.542938 1175.889160 -768.682251
-288.893066 1198.714355 -932.699768
-233.172485 1172.918701 -287.308014
-414.499756 1113.479004 -255.833450
-413.351379 899.074768 -477.463074
-478.264099 1053.856567 -422.353821
-401.772400 1420.489014 -796.801819
-382.626556 880.398743 -482.686310
-348.342255 1210.744263 -879.777161
-591.776428 1148.818359 -846.662537
-340.673065 1129.391235 -954.268311
-186.603912 887.521240 -590.103210
-370.884308 1021.180054 -928.737183
-534.172058 1159.420776 -868.871399
-383.096039 1037.730225 23.080715
-476.290283 792.723877 -544.844238
-385.065430 1419.196289 -782.259521
-307.097504 879.900940 -524.583496
-472.796570 1082.616821 -919.682800
-457.100861 1014.882568 -924.611328
-416.392426 1268.979980 -742.553040
-371.117035 1169.683716 -914.991211
-517.586731 1013.197327 -950.359497
-182.199310 1190.343994 -256.857300
-176.802124 1272.848389 -923.752563
-500.594513 838.058777 -484.440704
-212.656525 869.358154 -595.989014
-312.013000 1161.379150 -289.154510
-502.468994 940.287537 -973.142944
-336.622406 1157.178589 -947.384033
-387.900085 1070.628906 -126.203506
-391.709320 1010.027100 -832.626282
-419.539520 1050.864746 -75.274506
-323.929932 1020.999390 -1001.800110
-357.391937 1137.891357 -255.114914
-554.771545 1068.255737 -882.425537
-564.717590 1018.664856 -917.950989
-456.763275 1210.837280 -822.514832
-558.417419 1036.538330 -909.973022
-337.953979 1093.293701 -161.760391
-437.068054 828.464966 -510.730469
-258.807190 1117.108887 -189.544052
-568.459229 1165.791626 -841.602356
-648.128418 1026.380005 -890.444397
-200.210312 1234.436646 -942.658569
-264.520264 1055.263550 3.860219
-382.326050 1024.622192 -906.568604
-585.151245 1136.464844 -823.625183
-450.519989 1175.616333 -790.260254
-601.119141 1119.028320 -803.554504
-257.694458 959.697144 -482.701447
-334.419983 1055.221436 -13.750221
-343.098816 1274.604126 -821.554138
-584.656677 1110.876221 -847.888550
-361.292145 1398.078735 -792.149231
-223.405579 1075.136475 -12.527267
-329.023682 1077.567993 -408.749847
-306.138214 851.943726 -525.353333
-277.641479 1062.927856 -30.586531
-248.971710 860.345337 -596.610107
-310.782318 1011.964783 -464.308533
-296.002472 1196.349121 -307.722839
-315.932373 839.448303 -577.178589
-353.089508 1055.963501 -989.191711
-254.310623 1158.115967 -268.346222
-306.257416 1258.241211 -805.977051
-352.862488 829.330933 -538.114807
-444.034088 1183.795532 -872.676392
-385.060364 1183.179443 -891.816284
-244.411118 1130.332764 -217.976654
-597.443726 1131.399780 -851.130859
-306.612762 1082.046997 -426.478210
-407.294342 823.758545 -522.035400
-151.767929 1112.573608 -114.234993
-382.356567 1100.290894 -163.653381
-462.698547 1044.661133 -956.472351
-448.276428 1068.054565 -158.974854
-279.001099 1228.978882 -920.702942
-539.508057 1004.052856 -402.845673
-522.039734 1031.806274 -926.324524
-306.207947 1142.775024 -254.830750
-449.665588 1121.194702 -805.310974
-405.450928 879.256897 -515.989807
-446.230713 1049.031982 -128.895493
-454.419189 810.249268 -526.419495
-325.092682 1006.014099 -1006.266174
-286.889465 1136.651733 -268.891144
-139.341110 992.572937 -497.323700
-313.210175 1285.185181 -859.440979
-152.635345 1120.257446 -100.022964
-318.572693 911.979126 -500.672211
-385.921356 1093.247437 -211.133865
-624.668396 1189.428345 -787.328735
-410.849945 1257.111206 -862.988464
-204.617569 1222.232544 -862.165100
-424.024994 1016.525879 -952.470581
-432.897766 994.043335 -964.692993
-396.295258 1076.004395 -948.689026
-700.897827 1319.025757 -754.897400
-393.659302 1345.704834 -743.366577
-356.458984 878.010559 -509.695618
-437.525146 1077.019653 -193.905518
-305.351166 1092.045044 -429.572998
-644.186157 1125.756226 -819.949585
-649.453430 1078.255859 -842.074890
-291.857452 1235.447144 -911.134338
-317.326416 921.774475 -483.356354
-540.828247 998.516113 -937.360413
-275.378784 826.152161 -561.788025
-338.080841 1212.413330 -884.093811
-187.027298 1122.054565 -166.428284
-410.120667 1191.125854 -877.307556
-415.295227 1150.798218 -920.556519
-484.496460 947.951965 -982.134460
-219.186813 1081.063843 -62.663235
-575.367310 1020.192078 -933.491882
-176.572952 999.140442 -525.886230
-280.242889 1108.266846 -178.359940
-165.334656 1117.379639 -126.486938
-157.143677 962.795471 -560.388550
-409.596619 1095.822266 -932.073120
-205.818863 1091.356567 -105.717674
-499.582184 1604.826172 -671.289001
-405.262543 1042.474121 -10.442933
-351.813904 1044.702271 -980.497375
-317.028870 1138.592041 -257.030579
-456.961700 1080.658813 -238.496460
-342.628174 1597.030273 -689.998352
-406.178314 1233.672485 -875.591492
-249.068878 1089.158447 -114.758057
-473.993927 874.847046 -469.111115
-388.009125 1099.722900 -272.238525
-399.409180 1229.165283 -838.769897
-183.027420 1239.475830 -919.992981
-678.463501 1036.029419 -835.997620
-362.095367 1043.452026 -786.344177
-505.362213 987.146606 -417.794556
-153.720642 956.708984 -544.952271
-339.271118 806.578308 -574.840820
-390.009674 1060.129028 -400.152771
-352.152374 1059.522217 -32.929432
-384.175873 809.188782 -555.241882
-342.352173 1146.939819 -414.291901
-430.756470 845.070496 -499.654205
-430.152588 1433.229248 -744.852051
-708.188416 1136.334473 -785.461243
-313.456665 979.448120 -455.902771
-288.667175 818.547607 -593.222717
-444.136627 1082.189941 -394.465027
-368.903381 1549.388672 -744.139526
-347.303040 968.394714 -996.021973
-297.252045 1137.958252 -261.496307
-357.275085 1395.598755 -768.496094
-395.887695 784.980042 -575.658813
-173.649780 1110.614746 -155.815842
-215.871017 1137.864380 -250.689148
-627.927307 1064.540039 -858.297546
-367.856903 1025.118896 -433.773163
-235.501465 1128.098267 -236.070938
-407.383942 1103.200928 -250.619370
-209.458115 994.094543 -507.946228
-484.372650 1116.617798 -391.549072
-317.491821 1105.577881 -167.598236
-209.415268 1233.510498 -940.345947
-256.116180 1096.341553 -128.973770
-284.379517 1072.710327 -989.181274
-584.514038 1099.224487 -786.750793
-408.890320 1038.580078 -942.148438
-337.996765 966.680176 -1015.483154
-387.407288 973.640747 -471.691528
-261.650696 879.388977 -526.294250
-602.865601 1056.103271 -872.978333
-317.963104 885.835876 -527.750366
-469.232330 971.770691 -972.867249
-179.009003 995.479248 -490.667755
-428.262177 1287.245117 -797.391357
-439.781464 1004.892334 -439.789948
-281.903442 1060.344727 -37.988781
-507.121918 990.685181 -417.048126
-249.843948 1072.901611 -36.584110
-156.501831 920.143982 -582.672241
-233.640717 1183.112305 -946.280823
-336.917023 1028.048584 -994.089417
-399.614380 1171.635620 -922.591736
-202.727127 1245.398315 -857.531006
-184.534348 1001.305237 -496.611572
-382.041138 1231.909058 -889.950134
-168.023346 1103.606079 -112.590660
-388.518433 1064.735840 -79.077278
-250.011414 899.323669 -541.721436
-382.404297 819.415405 -527.381653
-285.598633 1050.941040 -7.260134
-242.141022 1106.920288 -151.457001
-273.811462 1208.890991 -929.255310
-285.921967 1126.537231 -252.312729
-344.898895 1111.398071 -221.976105
-259.254944 1174.094849 -945.521179
-514.563477 1076.816528 -912.781738
-234.655426 1144.116089 -235.409561
-686.016479 1120.888794 -809.731506
-576.610657 1185.592651 -825.694031
-482.744415 1087.817749 -905.141052
-205.663300 896.123779 -542.526367
-238.004440 1114.233887 -964.918945
-201.228836 982.726135 -502.963837
-327.133575 928.403748 -488.874878
-324.792480 899.257324 -509.210175
-405.306793 1138.367920 -923.041260
-400.134674 1483.783813 -682.752808
-348.902802 1116.156494 -221.611115
-221.137344 1092.870972 -63.460926
-228.252380 860.385925 -617.896545
-443.913910 1044.241211 -420.179626
-425.172302 1108.465454 -246.330750
-282.228516 1333.941650 -823.899109
-228.829285 1144.748169 -276.792450
-360.985748 818.829407 -551.766479
-340.395844 1083.266479 -135.113098
-264.849487 1083.897827 -996.168762
-181.961639 1139.512573 -231.769302
-157.582886 1119.331665 -146.984146
-164.490509 1308.357178 -919.215210
-340.700989 1173.593018 -393.722473
-327.160065 1230.473145 -894.483582
-431.194000 1046.580322 -43.642330
-714.461121 1313.523071 -730.823242
-641.372192 1020.779236 -888.238403
-107.236511 1022.381958 -502.741211
-285.181396 1062.899536 -988.170105
-239.744690 1229.783447 -930.963684
-492.913635 1149.128540 -898.053589
-487.115540 1096.930542 -372.168335
-452.396210 1043.958374 -926.427795
-233.023666 1249.734741 -884.416992
-191.530975 916.847900 -569.641052
-240.630310 1138.098267 -225.625854
-438.204895 1085.723267 -194.752716
-376.605469 793.486450 -579.642517
-262.206573 1193.197266 -806.863464
-441.763763 807.388794 -533.673340
-314.435059 1081.561279 -439.526093
-210.622360 1081.697388 -60.696480
-552.662292 1118.701538 -901.022888
-379.558655 1089.895142 -208.896744
-473.860168 987.910034 -961.185608
-414.931091 1097.651855 -916.090698
-230.960159 1262.164185 -872.305847
-321.181702 893.519775 -515.760132
-439.757507 811.956177 -525.849731
-267.570648 1050.512451 -450.527863
-617.040710 1036.225830 -779.570618
-334.976654 936.714478 -488.437225
-389.685974 1099.759277 -189.396530
-448.633484 1031.822510 -914.847473
-276.205017 1019.043579 -464.422577
-194.157715 897.126160 -566.201599
-372.900208 810.166504 -540.372070
-299.608337 1087.707642 -958.327209
-487.259583 889.000793 -462.535034
-196.838959 1326.432129 -875.608215
-400.371826 1041.120117 -28.815731
-405.419189 873.116821 -475.489410
-472.405914 936.764282 -426.932648
-394.227112 1277.058594 -806.828003
-314.461792 1087.678955 -73.911072
-498.488678 920.020691 -969.571411
-344.469360 1212.369019 -912.661438
-588.894104 1113.248901 -846.065857
-287.539734 1015.833069 -469.408325
-541.159119 1183.855225 -840.576904
-323.979431 1230.665527 -877.728943
-440.180695 1390.591187 -760.602234
-378.482819 1089.926025 -171.618546
-378.005249 1120.893188 -371.394623
-312.997742 1013.446167 -1011.754822
-552.713440 1146.859497 -841.846985
-399.887909 1109.974243 -229.419388
-342.095917 1162.195923 -939.852783
-359.614136 1113.169067 -211.051361
-306.819824 1224.602539 -900.909241
-382.316284 1108.604248 -283.901276
-368.181946 1231.999512 -855.939880
-165.499329 919.583374 -546.645142
-488.628906 1057.385132 -177.732300
-457.786255 1042.322021 -90.182762
-425.846130 986.302307 -437.404633
-359.664551 1121.769897 -238.714050
-404.866638 1037.230103 -28.928154
-379.427216 854.378418 -526.633606
-297.342133 1109.958374 -434.242004
-407.202576 1262.825928 -723.812073
-373.802338 1451.063110 -742.934021
-404.076111 1092.570068 -397.892029
-624.069397 1101.131958 -797.417969
-329.584839 894.033813 -504.760742
-309.523804 958.996155 -477.596863
-344.144196 1190.045898 -894.247375
-342.111542 1381.543945 -789.726807
-268.683197 1084.076538 -91.395851
-486.491547 1333.618652 -760.961975
-640.504761 1120.721924 -833.653625
-459.875061 1015.347595 -430.938293
-419.528198 950.307983 -1001.757568
-314.196198 1021.102844 -447.620209
-189.125839 1160.425659 -234.417404
-516.901001 969.282104 -413.350677
-416.273743 1106.472900 -774.969177
-313.806702 1018.378052 -462.060577
-292.282532 1097.167480 -163.053085
-442.784149 1205.567017 -851.811340
-223.888260 1165.859497 -276.865631
-211.818329 978.220337 -494.268646
-183.282990 1118.811646 -152.172745
-171.362579 968.098450 -545.649780
-436.933807 990.731506 -950.266724
-354.983307 944.076050 -494.754425
-167.654297 897.698425 -586.953552
-189.787247 1020.962158 -509.238495
-253.438705 1163.465332 -952.692749
-175.026947 981.356262 -503.305298
-131.898392 1111.891968 -120.193298
-326.721954 848.775757 -557.073181
-478.731232 920.008118 -447.730896
-358.850494 1073.135498 -139.331985
-398.772705 1092.631470 -896.958130
-280.236115 1079.960693 -46.814186
-661.980652 986.456299 -887.409424
-349.532257 1121.279541 -272.526611
-610.625183 1145.563354 -854.767761
-249.666275 1193.786865 -939.678894
-362.554291 945.254700 -468.229065
-232.607712 1149.080444 -970.469177
-348.173004 1031.676270 -426.829193
-215.150162 1150.846313 -955.719666
-456.208710 1074.452515 -202.279205
-467.608795 1087.294556 -901.104187
-439.499878 952.700378 -448.683838
-346.455841 1235.163208 -797.164307
-316.639862 1170.894775 -911.375854
-547.955994 1093.062744 -888.241089
-189.812210 1256.429932 -841.494324
-471.055695 1016.144470 -948.013367
-280.507599 1069.227661 -44.912903
-278.923828 996.975708 -463.150665
-623.489990 1120.835571 -836.676758
-479.057800 1088.250122 -896.145569
-139.547546 1131.768921 -215.603470
-533.535217 1202.334961 -775.002502
-530.312195 954.784363 -956.778137
-206.732132 937.447144 -539.031616
-321.001526 1279.188110 -839.596802
-361.539246 969.272949 -1000.256531
-197.078705 1258.657715 -869.326294
-377.229980 826.447327 -547.922668
-726.795776 1203.175903 -789.670044
-449.534149 1038.730469 -104.725182
-212.026642 1090.344727 -76.520370
-245.768646 913.715088 -541.757996
-633.887329 1080.227173 -862.532349
-270.817535 1199.080322 -942.514404
-171.613724 1145.569458 -236.448608
-170.906052 1119.346069 -147.081299
-231.892395 856.327271 -595.930725
-232.831772 1071.476685 -14.545732
-242.978104 1326.319336 -848.721558
-280.343781 873.829834 -554.813782
-298.840485 1075.497192 -108.386513
-372.385010 985.659180 -979.237976
-302.310913 985.724121 -490.889465
-364.982544 1111.952148 -195.593552
-334.813141 1230.680176 -899.069763
-241.602875 1075.793701 -63.841530
-259.027954 1097.793701 -132.467102
-154.370773 1052.612061 -481.884369
-225.796860 1132.821777 -191.099960
-373.475769 1056.359375 -72.904022
-228.773315 1240.197144 -905.278687
-230.432892 1166.123413 -279.310181
-332.726990 1025.246338 -999.194641
-497.812042 1555.286499 -683.404053
-409.263306 1226.028931 -873.438293
-479.360596 1040.299561 -404.116638
-287.388733 993.996033 -478.601593
-482.472015 914.486755 -449.806641
-231.155670 990.021545 -498.606384
-269.053833 1129.819458 -431.535126
-422.092346 1169.164307 -870.657227
-429.837036 929.597961 -1004.697632
-441.042053 870.537231 -479.673492
-186.204224 1114.089233 -173.551636
-481.073700 926.350464 -987.051331
-275.855957 875.688171 -539.353821
-356.368835 1453.789063 -772.226135
-363.379913 1076.798828 -102.744316
-479.115173 1371.999146 -771.370300
-391.553192 1071.459839 -110.897331
-190.253525 1143.257813 -213.480789
-158.162994 943.239929 -596.020813
-199.139801 1137.846191 -215.898468
-288.905975 1112.867798 -174.033630
-443.481049 968.213440 -453.884003
-353.184814 853.376770 -503.668427
-607.092957 1128.547363 -862.709229
-237.952087 949.020386 -499.458069
-293.301147 1084.125610 -445.080200
-488.917725 991.802063 -940.792358
-421.663147 1246.731323 -715.832031
-315.615906 1039.481934 -469.252533
-275.880524 1064.786987 -457.698517
-361.735046 939.134521 -463.985626
-558.750122 1177.323975 -847.429749
-701.149292 1294.214233 -754.455078
-258.658081 953.625671 -505.765137
-346.392578 1482.739380 -749.133667
-241.025528 1277.888916 -853.401611
-561.451904 1066.158691 -901.124512
-145.922394 960.512817 -533.488037
-273.849274 1128.186401 -218.805298
-162.751770 1163.461426 -252.227844
-314.352020 1132.495728 -253.883972
-447.205505 1069.173096 -391.331787
-343.681976 1088.032715 -422.085480
-320.417969 1060.199219 -429.745544
-428.464661 1108.559448 -269.342529
-406.773956 1083.301392 -106.672104
-435.519470 1123.784546 -399.763519
-334.796570 1218.868652 -834.954468
-304.317993 1165.855835 -935.642883
-304.287079 1108.647217 -215.483749
-253.472275 1091.307617 -436.914337
-246.738953 1226.582886 -900.453125
-531.072266 1102.040771 -890.558655
-166.967438 1097.051025 -67.742615
-605.620850 1178.025879 -799.856750
-213.898697 1097.998047 -441.023712
-199.664368 1221.492188 -952.984680
-694.935425 1336.817505 -718.578613
-354.188934 799.385620 -572.303955
-158.220032 923.932068 -547.493652
-453.799957 983.441589 -969.221619
-541.741211 1114.804077 -883.900940
-188.388870 907.713623 -559.935669
-383.359283 959.688416 -1005.142456
-452.340454 1189.249146 -855.088196
-651.734375 1274.486816 -761.028198
-277.517883 1229.658081 -890.735168
-467.064728 980.673828 -965.288086
-254.069550 1137.996704 -216.112030
-311.554169 1093.227661 -975.974670
-275.822784 1229.343872 -831.926819
-426.604614 1425.803223 -739.072754
-445.539307 1076.322876 -172.055099
-284.015015 1061.773193 -2.168211
-313.471619 945.063782 -485.258728
-472.068451 837.058716 -492.287231
-460.512268 909.157715 -991.657898
-345.370056 823.053711 -542.582092
-418.581696 1164.534180 -897.701477
-334.913666 876.232605 -520.089844
-313.097076 1128.594971 -429.528839
-354.243652 1005.120544 -447.050934
-273.314972 1110.682373 -178.662277
-185.835724 1102.021729 -89.178848
-313.324860 991.751221 -463.062378
-408.451752 1233.265625 -797.383545
-521.683289 1161.065186 -863.465393
-287.832275 1240.752319 -908.761658
-199.562134 930.956116 -519.794250
-239.179138 1184.474243 -302.896423
-644.829712 1036.792480 -900.590088
-419.087830 1140.721069 -735.313965
-318.126251 1138.580444 -293.586090
-448.989624 1206.314575 -845.907593
-147.962387 966.639465 -542.837524
-452.261688 788.614868 -538.551514
-329.889862 1061.018677 -35.392475
-363.817505 1036.820923 -810.898132
-407.362152 831.283630 -517.462097
-216.149475 1089.292114 -86.880035
-482.239105 1067.132202 -381.702454
-276.605652 1062.307495 -31.903101
-338.372406 1083.556152 -120.333534
-413.270172 1077.119385 -176.440628
-335.370728 1155.388672 -277.215424
-41.242538 947.719177 -347.842773
-411.856018 1057.310059 -685.020264
-263.768524 1049.787231 -478.877991
-469.027039 1059.230103 -160.837769
-175.637695 1149.755005 -258.462158
-162.483231 1062.278442 -478.069458
-357.118042 1242.227173 -888.367798
-309.587158 1331.073364 -832.428711
-500.588776 1011.461548 -954.769226
-207.400955 1129.600098 -174.740814
-341.895996 1064.443237 -101.376892
-276.481720 1113.419189 -184.737396
-427.536743 1075.769409 -415.789337
-508.266998 1018.845154 -937.258789
-212.992752 1245.665039 -856.116882
-617.111633 1178.760620 -798.515137
-295.321533 957.739990 -498.626312
-323.363220 1141.328003 -950.190063
-363.595795 1118.936401 -220.070343
-409.221466 1425.798706 -765.496582
-398.456238 885.328186 -482.433228
-349.296112 1438.355225 -719.090027
-289.464203 1068.160767 -452.556488
-381.547577 993.895813 -877.040161
-420.596008 1296.664917 -733.649963
-278.169586 1074.134399 -983.867249
-313.581055 1222.892822 -911.775879
-445.782379 1020.345825 -957.362244
-304.516815 956.422119 -482.880707
-513.350281 1174.536377 -833.207703
-369.066559 846.924683 -501.900940
-457.059875 1148.312500 -715.324219
-263.924957 835.909119 -591.552368
-467.656281 854.915649 -511.019012
-306.343964 1111.771240 -224.324066
-399.763306 1194.802246 -905.382446
-314.726776 1071.643188 -35.047920
-274.448517 1133.017944 -411.275970
-572.407410 1124.045166 -869.721619
-312.582214 1085.889160 -982.146118
-179.458206 904.843262 -610.753296
-565.658020 1146.614990 -856.905884
-350.849457 1530.036133 -742.045715
-343.267883 1054.511230 -12.124181
-199.493515 1123.226440 -169.691559
-551.101013 1136.322998 -848.938293
-212.553665 1112.149414 -120.168259
-296.347778 1158.894775 -948.792358
-159.626602 1116.263550 -176.328735
-421.815582 860.160950 -499.180573
-492.806427 1189.680664 -735.322388
-249.210495 1089.818726 -113.732422
-219.924591 986.463989 -493.382874
-229.027832 1013.456299 -494.004272
-641.594543 972.312622 -898.455200
-224.513214 1279.979370 -866.996216
-259.729004 830.337036 -612.046997
-236.760971 875.486572 -553.158997
-228.484573 1046.300171 -478.782227
-403.035400 1117.497192 -912.293945
-236.980896 1083.033081 -45.256775
-448.499023 1083.257080 -218.113113
-284.411346 1078.770630 -101.701942
-269.957275 873.102539 -539.601318
-311.746002 887.953796 -518.887146
-204.453049 1208.796387 -945.831909
-692.671387 1264.202637 -776.492554
-408.034027 839.622803 -510.117706
-523.471130 1206.821533 -808.774414
-502.967285 986.130615 -425.399445
-261.199310 980.326782 -498.774750
-192.109009 958.160034 -536.361084
-165.509781 1097.491699 -97.188461
-389.303772 1063.378296 -941.982666
-229.889908 1273.046021 -892.171143
-462.986633 787.400146 -527.662415
-204.135757 1259.933350 -910.277222
-306.216705 1169.807007 -934.028259
-306.805298 1215.088745 -906.788818
-208.103210 1078.429199 -37.620094
-328.165070 1116.639893 -215.711105
-293.764252 1030.668823 -999.605896
-203.670471 954.872864 -507.601532
-214.411194 1043.684082 -476.072571
-298.529480 1118.762695 -189.158340
-246.930588 1003.238342 -471.814056
-436.290649 798.326233 -545.680054
-396.647461 1051.951416 -35.102131
-740.831604 1168.655762 -786.564026
-347.641205 1094.399048 -157.776291
-149.444839 925.648743 -591.542542
-392.149689 1332.924805 -777.658997
-402.376068 1197.160278 -877.860229
-490.505219 993.846252 -965.825928
-338.033447 808.085449 -589.010010
-253.029190 834.846069 -612.966248
-676.986450 1142.045410 -787.029114
-388.644440 849.464294 -493.560822
-553.650269 1120.695923 -872.329102
-310.509399 1282.891357 -844.343323
-293.710052 1240.469482 -865.072571
-373.762665 1091.814209 -391.020752
-277.116394 1085.417969 -99.281342
-532.432800 885.155396 -437.701447
-526.262146 1137.999634 -836.889221
-419.570892 1141.545532 -364.693207
-351.471283 1057.207153 1.559078
-387.230377 991.157593 -976.178589
-417.350250 1250.630615 -740.316101
-295.699310 1335.773071 -816.481567
-252.798416 1043.156616 -467.556671
-266.332550 1193.509766 -918.107422
-152.385223 911.017090 -573.012207
-583.325867 1101.516968 -784.204834
-526.440491 1192.285645 -864.463013
-348.991150 1068.124390 -70.327446
-306.454926 1339.426270 -832.369385
-155.104309 1139.260620 -182.507217
-366.983185 811.052856 -598.309998
-420.703156 1100.752563 -220.919388
-501.641144 937.798340 -975.123352
-295.780457 869.829102 -534.468079
-296.666351 1165.303955 -287.464569
-233.641296 1087.062622 -55.318264
-439.008545 850.386536 -496.240021
-260.556091 1271.951904 -847.580688
-280.202301 1064.750732 -38.787720
-569.616333 1096.986084 -878.067749
-409.248413 1263.157349 -852.460449
-416.963409 1007.138123 -429.957794
-403.624390 1089.260864 -425.613770
-438.423370 1098.078247 -264.722321
-746.154114 1047.125122 -842.020691
-294.485229 1081.462891 -94.129318
-373.357697 946.927917 -1016.723328
-279.576416 1071.094727 -69.080498
-288.460815 1351.235474 -834.410522
-149.667267 970.375427 -546.702515
-237.688644 1125.468384 -194.622955
-607.482483 1161.995239 -788.570313
-643.722168 1101.545288 -869.910095
-355.274872 1346.397827 -791.222595
-184.943817 900.091003 -573.253967
-355.710480 1115.912720 -945.073303
-459.320618 862.318726 -462.497742
-203.174133 1117.368164 -168.132523
-214.813812 972.630371 -495.763733
-329.623901 1069.010376 -416.549805
-312.057129 1056.266724 -44.791939
-192.822571 1265.169067 -908.244812
-409.691620 1117.079346 -248.630768
-456.982574 958.042297 -981.357422
-312.404938 1099.657959 -969.604675
-232.372116 1233.385864 -816.371643
-255.057144 1078.143799 -64.996925
-601.018127 1123.198364 -848.571350
-230.010635 893.461426 -566.369812
-336.500336 1077.777466 -91.134315
-334.599701 833.782288 -574.741699
-267.189606 1151.908081 -410.017548
-540.006958 1041.296021 -915.425537
-342.758026 1382.450684 -813.062439
-353.363739 958.170349 -482.984314
-365.217316 1274.555786 -794.140869
-581.716431 1257.138672 -710.819519
-313.861389 1250.246216 -888.079590
-183.979538 1112.547974 -142.290512
-251.189529 1103.051514 -124.229752
-399.923553 1097.117798 -181.389313
-198.400909 857.687256 -599.525940
-331.373444 1063.220825 -988.310425
-334.684692 1124.540161 -247.603516
-214.149567 869.363953 -565.969238
-180.496033 902.191956 -575.086243
-446.756989 1063.973999 -136.904083
-351.911957 1111.169556 -947.652710
-155.045731 1131.862671 -193.971115
-309.371246 997.043457 -452.890594
-159.079849 1319.848877 -901.686890
-240.319946 1152.885010 -957.369934
-194.919907 1175.412354 -308.991974
-662.300415 1297.603638 -722.246887
-382.032318 1067.645020 -414.652100
-311.898590 1152.746704 -396.970551
-417.699951 1230.193359 -775.592407
-391.701965 1229.475952 -775.156860
-253.570160 1277.950562 -826.262878
-360.514832 854.990906 -516.960876
-506.760071 962.014221 -961.558716
-495.749908 815.132751 -497.664642
-263.499146 1254.662231 -882.662720
-406.051300 864.144592 -501.611053
-330.165924 1121.488159 -222.155014
-471.066681 1079.650879 -393.073669
-397.960693 879.125183 -508.309052
-321.819366 1221.291260 -884.435791
-403.131744 1155.788086 -884.526001
-265.160309 893.872742 -529.186951
-272.102112 1107.118652 -193.414841
-486.739197 1074.285034 -198.318024
-377.871185 1190.058716 -903.629822
-385.812134 1469.203857 -722.147766
-188.144058 1091.603027 -73.617500
-334.342743 1142.322144 -950.665894
-261.757233 1231.495728 -893.977844
-477.853302 1076.466553 -197.099533
-185.190460 1100.079224 -110.871887
-356.300964 1115.115845 -381.994019
-414.828217 873.988708 -510.292633
-184.717636 1261.311646 -928.525696
-495.616119 1202.304321 -771.130066
-326.098236 969.728821 -459.958344
-465.855438 1112.698120 -365.208893
-620.057068 1043.724487 -890.965515
-240.651093 1190.061401 -303.515472
-530.976990 1584.971558 -655.894409
-412.881836 1227.454224 -836.838989
-241.263840 1149.445435 -305.802216
-394.189575 1014.998047 -958.399780
-399.604431 1098.336792 -942.725586
-169.845718 1136.532227 -199.307144
-389.943512 1037.457397 -34.130383
-368.655121 823.224487 -572.228638
-463.692047 1047.963623 -115.908859
-407.847687 1059.126831 -93.321152
-382.749573 995.883362 -907.254150
-407.823944 1119.853760 -924.119507
-578.543152 1208.216431 -791.610779
-230.500412 1102.074585 -455.162354
-375.300446 1105.049438 -188.460739
-30.153170 1002.428650 -305.759857
-547.786560 1200.862427 -831.492981
-410.042542 1366.921265 -828.239929
-212.952377 859.971741 -594.085632
-358.459137 1202.731079 -888.304688
-349.392273 1071.809082 -82.336479
-386.950073 1417.936035 -787.628174
-118.125038 985.606079 -469.204041
-161.522247 977.138550 -512.787842
-275.109558 1274.060547 -895.657715
-572.631531 1059.277588 -899.144897
-453.930969 890.864807 -451.249878
-157.295883 917.548889 -571.855591
-403.550232 1065.249512 -391.467529
-355.537384 844.126892 -510.712250
-311.633301 1146.579834 -392.712708
-338.849304 1105.213745 -170.865387
-361.436798 1278.888672 -830.254700
-249.489609 1162.159668 -965.364258
-371.613586 1278.549927 -829.268188
-294.873596 1017.371399 -994.266785
-159.604843 1138.190063 -238.008255
-266.533051 1294.348267 -861.635193
-506.370392 1064.653931 -913.523254
-691.632202 1166.127441 -799.347961
-202.937027 1099.615723 -115.291031
-340.480011 1219.868164 -389.632324
-344.254578 884.928833 -511.830902
-321.153473 892.053162 -533.686096
-367.865448 1068.241943 -86.191315
-374.298615 1057.142334 -949.380188
-374.414703 998.963806 -909.071167
-200.926941 1232.245483 -939.831421
-261.055145 1248.029907 -910.297302
-224.825287 1159.934326 -431.540649
-388.132019 1064.573486 -947.572449
-379.060059 1005.338257 -446.340271
-316.997528 1013.800537 -1011.999695
-469.318542 871.303040 -492.864471
-732.829651 1061.121948 -819.780518
-495.975586 1068.488159 -941.258545
-146.528793 1090.541748 -485.186340
-426.717896 1082.813721 -106.591805
-397.201385 811.441284 -554.095459
-349.663391 1355.513062 -793.556030
-579.777954 1017.494446 -937.964905
-356.930847 1076.802490 -946.477112
-390.017792 1078.650879 -141.717545
-437.501190 948.367493 -975.585999
-461.613495 1091.408569 -262.299896
-547.106873 1028.708618 -917.693115
-138.638428 1125.640869 -97.255035
-214.384079 1090.197266 -21.259787
-477.777313 860.454956 -475.930908
-404.403595 1121.584473 -884.628906
-431.976959 914.995300 -461.890411
-417.549774 1098.832886 -930.955139
-257.783997 1097.132324 -2.074618
-386.026215 1483.872314 -722.930054
-180.289429 1101.795654 -59.198635
-309.825226 1180.068970 -399.513672
-213.646408 1050.318237 -478.169403
-350.737976 1449.276855 -730.616211
-269.200012 1157.494629 -948.824280
-355.041199 1081.019165 -139.632736
-359.641205 982.936523 -455.527893
-471.482605 1374.928101 -704.844482
-641.261536 1050.913452 -879.521118
