ply
format ascii 1.0
element vertex 1390
property float x
property float y
property float z
end_header
577.484009 516.010315 -1279.482178
362.536560 790.042725 -794.740906
292.104187 347.840576 -968.243713
270.879608 423.790131 -1429.203979
392.371552 272.465851 -1384.631714
521.877319 381.925354 -1319.032471
639.265869 383.343842 -1345.205566
262.301941 832.720764 -708.334229
393.773987 754.213440 -965.303955
268.157410 474.559875 -960.860291
214.480682 565.799438 -995.180725
394.812439 417.621277 -908.214417
165.781555 477.354889 -973.998474
478.521606 434.069641 -882.311035
508.777069 613.469971 -909.944275
313.754486 618.099792 -975.246216
258.587219 373.808685 -940.767029
592.310059 225.594803 -1321.878052
470.468536 252.844666 -1381.219360
467.494080 782.293640 -737.708130
483.962311 253.511383 -1363.125366
295.819214 585.929749 -959.838684
374.534698 403.907623 -1418.503174
719.075317 358.111847 -1283.781006
271.281616 346.628418 -950.696594
686.734985 814.316956 -1379.230469
452.131805 262.464203 -1383.163208
679.305603 852.769531 -1375.678833
291.884216 426.221313 -1418.534668
405.831940 210.607635 -1359.441406
540.904846 171.114578 -1330.159424
468.246124 482.197113 -892.035034
197.334381 768.167603 -916.862488
673.353577 863.558228 -1379.281860
411.580994 338.256378 -1391.812988
429.618958 665.967346 -930.635925
457.889832 485.327972 -1294.319336
639.753601 331.216461 -1319.600098
296.224976 838.633118 -665.925110
563.025330 469.633331 -724.138428
223.338760 764.794556 -927.737610
357.982300 378.931305 -925.492554
451.501892 355.409058 -898.478882
683.903625 585.368713 -1314.568848
321.987122 823.250671 -744.341187
211.788696 800.225891 -841.622803
419.878662 420.966522 -1171.757935
300.163269 675.815186 -992.827332
550.180115 476.395966 -1369.504028
520.475098 445.304047 -876.019348
464.783203 786.443726 -712.923584
493.636383 257.034576 -1317.802856
523.070618 422.216187 -862.265991
618.667969 504.689911 -1363.982056
460.758118 463.464081 -902.049683
471.227264 390.494873 -1384.907715
523.090149 484.437531 -877.240295
392.378723 458.434631 -902.331726
387.712280 475.728210 -1414.339966
596.431519 512.294556 -1339.270020
381.627319 783.185059 -804.439453
266.144287 788.361145 -862.052490
767.208435 439.772949 -1274.961792
203.245407 810.614563 -792.225159
330.628571 381.664368 -1410.529175
586.231689 515.457581 -1321.052124
696.805298 402.646667 -1312.507813
618.913818 681.526306 -1350.620728
646.443665 512.256042 -1302.088745
279.193817 828.767944 -694.531067
341.980713 704.591919 -995.640015
636.711609 516.912720 -1274.642822
443.228577 380.089325 -1389.650146
378.916687 453.248199 -1436.961548
444.270111 517.917358 -899.148804
410.638123 332.488800 -916.897705
474.984894 783.354248 -765.086914
263.835846 390.074677 -959.479187
524.159058 396.499023 -1326.276611
353.003937 790.771362 -818.353882
691.115356 408.472198 -1315.047729
415.591553 669.772400 -1362.747681
389.505249 420.721832 -906.377930
445.887817 715.841248 -972.542297
157.266937 828.843872 -790.213928
290.247803 809.212402 -779.376221
805.625549 526.764709 -1298.899902
265.901337 410.454254 -943.675049
350.317963 782.560974 -818.132385
391.867218 466.695343 -927.891479
424.738495 408.930298 -1389.315552
588.226196 529.705078 -1344.630005
630.732239 726.450073 -1300.556763
257.097107 613.830566 -994.982239
549.359863 445.879425 -1375.943115
295.888489 606.038513 -1489.425903
362.852051 463.503387 -942.569519
664.842957 608.141235 -1328.934937
432.873993 455.445831 -1401.174194
258.905060 585.395569 -982.290833
256.258118 821.983093 -741.334961
672.777039 659.136719 -1371.133911
336.949982 572.283325 -953.013062
518.110962 610.110413 -905.643921
500.399353 265.248383 -1328.342896
360.761688 351.040436 -1413.964478
679.662903 273.340363 -1296.081299
392.284760 494.141846 -1395.749878
498.583496 176.027618 -1333.682861
422.526031 375.473724 -905.295166
442.323608 428.224060 -897.362122
394.519684 815.431030 -677.247620
249.653381 818.874878 -748.415833
684.507202 575.165955 -1305.195068
350.602234 468.152832 -1417.623291
368.175537 802.176331 -756.932068
285.248962 849.731506 -630.805115
549.936890 529.608459 -878.677612
711.299255 548.899536 -1308.675903
362.980865 480.589478 -925.978210
796.763855 559.171326 -1300.576538
199.268845 861.935120 -690.157227
468.603973 625.907349 -934.294250
386.463623 326.129761 -904.864685
430.743744 512.210632 -1405.746216
411.964905 657.431152 -943.283081
315.075073 837.256653 -652.679504
465.411041 387.732422 -885.412109
755.383789 412.499542 -1295.237061
316.779083 837.534119 -668.966736
482.341431 396.109100 -1307.068604
644.703369 447.782227 -1346.234619
322.955688 684.287292 -969.265381
316.717590 820.584229 -714.939392
612.347229 331.984833 -1329.175415
674.458496 520.826233 -1320.633911
53.032303 536.750671 -855.586243
670.065552 305.149475 -1316.815674
591.433960 252.584503 -1309.906616
246.501816 871.148743 -652.229370
506.977600 546.840942 -902.939941
502.503418 736.592529 -832.250366
683.983887 321.254852 -1316.935669
631.739014 417.942871 -1351.638062
431.802338 563.311829 -918.104736
315.169250 349.784363 -933.532043
358.170868 446.322906 -908.164185
315.406189 365.314850 -934.056824
311.467285 755.322693 -879.512939
340.018921 511.065063 -929.186218
673.105286 333.627563 -1323.907837
334.542328 785.439087 -848.063660
427.488495 777.125122 -782.952881
428.657379 523.875000 -913.921143
339.075470 302.914154 -1410.944824
269.225708 367.329834 -945.364746
383.665833 488.104950 -1378.890869
748.924072 472.930389 -1244.834839
321.656067 709.282959 -1485.177856
524.419067 430.561188 -877.094788
323.131897 773.619141 -860.404480
472.244080 325.350555 -1335.364380
498.413208 436.822052 -1358.024658
708.708069 361.253021 -1314.716675
187.764923 535.679993 -1000.384949
353.305511 807.712463 -737.631592
428.361420 198.510437 -1363.472290
340.268738 794.093689 -801.531616
639.573669 509.109619 -1328.093506
474.367859 174.184280 -1346.848389
642.002869 278.643524 -1310.025391
173.841599 888.846619 -676.540588
177.075134 776.851074 -923.374695
604.881409 374.378906 -1356.881226
550.552856 321.787842 -1337.404541
229.807907 841.341003 -679.360962
392.435608 323.856750 -1398.105957
390.537720 575.933716 -948.094543
227.260757 780.641785 -894.266724
199.804306 582.160400 -1009.946228
409.072632 810.891174 -690.430786
398.281433 486.405457 -1386.047729
285.074890 408.884674 -1423.722412
386.310211 672.556519 -1487.115967
642.356750 606.109131 -1356.794800
312.439178 447.072205 -1316.223267
228.052475 331.597778 -1000.997925
460.972015 650.505981 -927.557861
274.000763 411.360992 -944.836304
612.426392 291.197235 -1334.618042
333.225555 825.325012 -727.801880
332.200012 445.735687 -1421.647095
824.699585 506.585052 -1273.852417
413.047974 771.977783 -821.372314
312.044983 319.982300 -1422.555664
324.303528 456.371765 -955.073181
395.732849 770.533203 -790.622986
397.979370 226.446640 -1364.087280
228.854858 435.933167 -990.070007
355.347321 450.990997 -924.230835
498.986359 299.446808 -1289.196655
418.188110 425.052490 -1423.451660
214.823654 856.718018 -693.503357
561.749939 509.985138 -1382.531494
295.475067 857.482727 -604.669617
414.918884 515.385925 -916.590576
221.996674 808.368408 -763.471008
323.542938 794.448120 -821.252136
466.607269 578.199707 -928.367371
248.729843 649.914246 -1000.875793
498.386780 209.382629 -1326.971680
749.657104 420.574066 -1303.157837
343.630157 820.701050 -689.734985
561.306152 705.263428 -1392.463745
337.131226 855.711243 -613.838745
256.524506 518.168457 -1470.343140
438.986084 796.905640 -692.793457
314.103760 367.618286 -920.380432
801.576050 516.690186 -1304.499023
192.073135 535.691040 -995.828552
203.127838 574.249817 -999.611084
312.007172 545.019104 -1453.583740
458.476196 776.765869 -750.032166
288.433899 826.424683 -690.659424
704.925415 423.325531 -1313.311035
749.474426 388.274811 -1306.079712
241.433334 434.889099 -978.082336
713.033447 588.581299 -1314.631348
478.880005 509.088654 -900.252808
550.156799 564.841614 -875.305664
408.749786 346.325500 -912.309143
305.228760 325.336060 -930.176575
441.814728 340.924286 -911.755066
335.717743 626.460266 -994.777710
247.373154 464.477753 -965.970520
271.059753 392.889740 -950.300842
550.264954 226.582596 -1325.719238
683.820618 339.923920 -1306.236694
419.238708 551.890869 -929.053284
323.412323 819.948364 -704.965210
579.889893 721.955566 -1372.133789
222.585861 490.495392 -989.944641
490.924530 391.180084 -889.560059
494.187866 510.529358 -890.599304
375.985474 369.549805 -912.638000
351.567047 330.525024 -1407.881348
708.197449 499.227997 -1248.917358
708.423950 417.365631 -1317.378662
617.204468 410.597046 -1356.508789
496.063354 297.639191 -1351.384277
367.249939 435.736786 -930.459656
614.909363 720.215942 -1400.830566
653.001282 710.198608 -1332.106812
166.260300 829.389832 -722.595825
483.830109 311.478394 -1347.371826
431.938477 821.115234 -657.046692
349.552185 377.391632 -927.846863
433.943695 459.059753 -915.700684
264.152557 840.335815 -667.461487
416.678558 437.403656 -1409.671265
607.470093 479.052399 -1337.468506
586.602478 331.794647 -1333.452393
349.429260 807.439148 -734.503906
519.814514 218.300873 -1330.117554
692.250488 347.101868 -1317.245483
301.923523 814.103455 -721.605713
633.874573 459.058716 -1336.124878
332.101501 366.554352 -1432.571777
467.911072 402.465820 -1388.896729
349.243561 824.747742 -652.699463
755.727844 405.835327 -1274.420044
397.576141 633.213501 -933.670776
342.943420 317.114197 -946.456055
516.395996 284.101837 -1296.310913
324.377930 432.086304 -931.425110
676.870972 348.033600 -1308.893921
635.776062 519.889404 -1267.145020
213.499741 458.733978 -990.128479
435.461853 797.991638 -696.289490
591.266052 491.469086 -1338.578857
620.537781 729.920959 -1372.743896
611.369141 732.098755 -1300.370239
274.941040 396.915375 -1428.888428
125.949768 809.178650 -788.639099
493.629456 373.199738 -879.802734
258.323181 505.505188 -1465.157227
469.999420 389.852478 -1384.807251
239.678009 826.908508 -720.173523
177.095581 847.830688 -689.812500
483.076477 342.098053 -1279.382446
304.682068 876.478882 -635.306152
311.725616 310.473999 -1419.979980
377.956726 510.573181 -916.652649
408.736511 792.504639 -734.121155
537.974731 455.473236 -852.748840
598.176941 379.134918 -1351.258057
292.597656 805.134277 -769.335083
293.315826 782.147888 -886.855957
487.067688 369.322174 -1341.531128
366.403198 512.531433 -1356.973755
612.368347 901.395691 -1441.016602
248.351425 651.784424 -1007.563232
334.185150 473.254303 -1365.963745
538.797791 583.494202 -665.088928
632.435669 858.406067 -1390.190918
435.610413 776.765076 -812.468018
469.549805 449.293030 -1391.847168
537.240051 548.289612 -1351.040894
399.585938 473.890076 -1393.270020
391.128021 832.603394 -627.837036
459.769958 673.811768 -930.350281
673.843140 712.202087 -1363.570801
746.711548 467.122314 -1294.819092
790.075867 438.545197 -1292.466797
203.761871 836.907227 -700.177002
341.512268 826.262512 -669.293396
371.117401 782.314880 -828.226990
249.672287 865.308655 -662.745239
680.144531 285.798431 -1308.502930
248.133118 499.029388 -1465.602783
218.538315 845.660095 -676.758362
664.507080 310.878479 -1296.145630
412.564240 778.054626 -831.255981
388.079010 453.615295 -902.740051
365.363129 790.141663 -829.350647
409.444794 332.390564 -1393.316040
573.437195 348.828278 -1356.552979
399.616516 759.336731 -963.779968
499.393402 369.283020 -890.708862
799.051514 519.807068 -1285.584717
209.158005 815.152832 -760.283630
511.810455 757.164001 -801.623779
541.961487 679.697693 -915.347717
479.746948 308.239380 -1365.960938
664.744202 348.923798 -1315.226196
147.665985 861.953247 -677.956482
507.857544 361.378845 -905.251282
318.527893 850.577148 -637.359497
711.782532 361.528046 -1310.850708
482.779053 270.654022 -1317.790283
414.144775 779.058472 -752.602173
259.722168 368.592377 -1441.242798
538.226440 253.334625 -1329.469849
730.960388 498.091705 -1269.313110
432.237274 790.132568 -728.678406
449.284424 302.009552 -1371.404907
327.517120 418.335175 -930.933411
553.096375 511.751099 -1348.119873
697.586975 480.352661 -1285.525513
359.760834 834.065674 -649.602356
385.677063 519.539185 -1415.111450
696.717590 524.893982 -1268.180054
247.220840 377.387329 -1447.571899
596.209595 492.934479 -1291.862305
213.865662 839.916870 -689.207214
305.232117 342.722015 -1429.601563
469.124756 325.905029 -1345.632324
422.761444 846.399719 -622.326172
603.632813 528.988342 -1349.112915
297.458435 826.000305 -728.557373
639.151855 521.635010 -1312.810547
283.183014 418.184753 -963.564880
637.635803 521.005310 -1340.691650
423.402802 808.078552 -670.013855
313.491150 369.423157 -932.849365
679.307922 690.901917 -1371.569458
315.624969 813.273315 -713.841980
657.187561 850.914307 -1398.613770
353.927032 783.079712 -902.476257
706.709961 344.475494 -1304.746338
575.590515 418.169678 -1364.291138
367.113220 832.634216 -628.213745
300.652130 809.396606 -782.329041
382.983215 784.704773 -808.546753
678.039490 531.147217 -1300.191528
206.373077 782.553528 -845.340454
427.784271 668.271851 -1471.101929
319.073303 482.656250 -941.837646
212.274963 568.188354 -980.648560
435.815491 523.787292 -1361.070679
333.833496 301.084747 -1411.073975
177.323730 777.140442 -882.479919
486.599365 182.182602 -1323.977905
446.726837 489.748840 -1339.997070
418.996765 502.643036 -1411.305908
150.831665 869.279297 -696.828979
372.325958 813.673523 -701.552490
324.243652 812.685364 -753.875366
468.229584 786.585693 -771.668640
307.366302 459.279205 -929.491211
440.167267 345.785645 -906.978088
381.565643 485.805450 -920.402954
688.216309 288.187408 -1306.183105
654.363770 475.672699 -1323.872070
360.180664 348.069977 -915.102661
556.504761 245.213654 -1317.412720
595.932068 303.774567 -1328.941528
509.991028 431.387085 -876.050903
298.477539 518.524048 -954.226318
431.100952 472.889374 -1406.664551
417.067566 776.690735 -847.773376
314.816895 804.370361 -754.546387
406.110016 760.952942 -890.695313
628.544678 502.054871 -1344.757324
542.155029 591.826721 -659.058289
471.150696 441.201904 -900.463440
320.964722 795.772339 -794.770935
510.895752 747.738403 -787.420227
678.660583 362.281708 -1327.176392
206.278641 620.704651 -1014.778076
393.338257 555.642883 -932.133362
136.702835 818.754944 -777.679138
359.792145 835.109985 -625.847168
620.876343 273.507874 -1314.188599
451.009918 442.080200 -904.067566
224.164230 481.962402 -1408.609131
552.687378 663.579834 -1379.759766
412.393829 199.182724 -1355.030518
445.437622 397.806488 -882.212036
500.839783 542.625000 -904.338867
505.184174 349.231720 -1351.371460
424.194458 199.952393 -1362.274658
458.825897 313.325592 -1369.260742
715.104370 483.444366 -1275.509033
486.199097 621.924866 -926.405823
237.694946 823.742004 -743.850037
266.572876 378.976379 -957.992310
803.567688 425.010101 -1284.177734
487.027405 543.725403 -920.132935
699.701294 361.136932 -1317.424561
745.211731 414.515991 -1308.667725
616.139709 578.339111 -1321.054321
374.613495 807.775208 -717.327820
340.035278 389.677032 -919.838806
338.637665 542.338806 -1426.318115
643.328613 713.528748 -1367.980225
385.707947 486.866028 -1385.328979
725.073059 324.961304 -1297.151855
573.198303 254.785400 -1316.720459
541.388428 549.968628 -834.794128
447.557098 421.511108 -882.582153
411.578766 443.708954 -1415.533569
740.317566 506.944366 -1294.783813
508.692017 350.403839 -895.267395
424.612946 580.420471 -917.998840
384.572968 807.449097 -694.339355
484.411987 267.993256 -1289.152222
142.115433 840.957947 -716.396606
295.534607 701.340515 -1005.016785
318.138092 814.220886 -774.228027
474.773651 275.509613 -1287.800049
296.876526 565.717163 -964.919495
387.242889 768.250061 -885.331665
420.496613 663.818542 -952.366028
430.938995 812.842041 -933.352661
660.651001 389.436188 -1324.029053
447.279297 368.899078 -1190.876831
405.573730 338.588379 -1398.436646
345.784973 314.111816 -940.157776
270.660034 490.183167 -962.471741
446.003998 439.469971 -1405.543823
626.090820 390.496704 -1348.264038
281.527191 813.955627 -740.718323
269.936462 345.834625 -946.163147
683.435791 521.063782 -1297.701904
636.801208 587.295166 -1370.064087
446.356934 343.421112 -900.127747
634.091248 250.134796 -1304.638794
319.671326 331.395935 -1433.261475
223.551132 433.467102 -967.209167
595.311035 514.507874 -867.471191
449.013336 793.212891 -713.250366
446.965271 337.555267 -905.379395
468.594299 317.250671 -1374.966187
642.306885 277.683258 -1313.904419
505.529480 455.175446 -889.797546
383.587799 499.252258 -1413.261230
376.827423 797.636658 -750.148682
637.888794 717.617065 -1360.075928
182.952255 359.601868 -994.220459
303.714691 763.003479 -889.627197
525.059998 232.284439 -1297.198120
342.041138 500.135223 -923.076538
337.016418 794.303528 -829.286621
344.092133 813.092529 -720.221985
488.218292 370.986145 -1297.099731
281.666962 655.885742 -1012.659424
500.881592 441.014618 -876.209595
511.776794 441.866577 -894.164368
454.941650 360.682190 -1350.720947
354.755310 612.487244 -1465.506958
163.260849 800.982910 -814.241333
293.070435 834.977966 -682.399109
531.667480 300.979919 -1320.692627
211.700073 841.212097 -727.682068
219.060547 622.021484 -989.618958
202.944565 371.098694 -980.761963
570.182190 481.847046 -1373.193848
340.564087 784.634705 -905.520630
376.796173 832.764221 -646.763184
558.539673 324.102051 -1342.378784
408.415771 457.023438 -1393.154907
520.703613 582.576782 -894.179688
118.552376 812.768494 -841.673401
423.989227 439.079987 -1407.412109
346.028137 808.946655 -710.560303
380.568573 429.348572 -899.333923
470.387573 205.251053 -1366.724609
180.413513 771.191406 -913.143555
337.354797 683.522461 -993.892944
385.021851 443.243500 -913.676331
396.892883 260.999084 -1386.301392
539.778564 522.452576 -874.387695
647.825439 506.670013 -1322.555176
142.024338 846.757996 -744.712280
473.366028 792.020691 -699.217224
464.227814 759.270386 -810.668457
255.887405 779.522278 -882.314819
292.208099 399.665710 -923.872375
422.051849 262.930115 -1359.430298
460.240265 592.173218 -1283.251831
480.029266 502.051514 -907.160828
433.085602 597.147156 -938.946289
433.260345 561.950073 -1342.639404
305.117615 698.596191 -992.113708
407.733673 495.607208 -1422.001953
382.939453 794.726990 -746.777344
532.389099 243.776855 -1321.422607
482.016479 546.855713 -899.338562
609.894897 559.857849 -1330.100830
236.111374 457.516479 -989.656128
473.823181 418.200562 -882.891724
128.855774 842.743896 -722.038391
438.056122 801.558167 -679.719421
663.394470 876.795715 -1384.327148
360.413055 490.975067 -948.836243
713.627258 385.369659 -1304.765991
261.068756 400.396484 -1432.350586
474.263519 219.816040 -1353.115723
305.419861 806.948792 -758.465210
434.432068 759.584900 -847.358154
441.695740 647.512817 -924.055359
254.154602 816.401611 -750.891479
387.039734 292.249237 -1396.710449
366.028564 696.179932 -998.573853
517.471680 330.503174 -1284.251831
392.038391 807.955994 -682.091858
510.158356 257.422913 -1329.242554
485.632935 379.212158 -1389.129272
334.518707 754.081421 -898.120483
383.925323 847.292053 -629.533569
594.449951 399.739716 -1363.322754
403.662598 806.012817 -699.687134
328.678772 818.109375 -702.801819
500.918640 587.231689 -903.370483
694.328247 314.342285 -1283.872681
338.903870 754.646423 -884.223450
548.815369 351.048492 -1356.403076
249.682922 814.183655 -786.222900
282.520172 824.834717 -744.771240
664.260803 729.803833 -1358.898804
646.255798 351.405640 -1311.023926
520.465149 165.532196 -1329.604248
227.187347 391.696747 -951.354736
245.474991 800.673584 -826.219055
58.324921 618.822266 -842.933044
333.843292 540.367004 -955.033752
568.772522 612.825867 -1385.757446
351.209930 530.450623 -939.220581
668.676208 486.135498 -1318.539185
151.962158 472.401276 -989.269165
314.416687 564.496643 -1457.786011
497.434967 269.810486 -1325.835083
331.710999 812.271667 -706.358459
554.374878 533.067993 -850.719238
547.121338 474.868195 -873.929016
495.032318 331.070618 -1340.615479
546.283020 463.737488 -861.964844
458.046356 318.180420 -1390.171387
381.790009 756.140625 -855.715027
605.340454 613.912476 -1389.787231
565.231262 237.387024 -1329.966675
320.216156 699.908569 -1441.645630
464.140137 152.222092 -1325.856079
452.212250 626.632324 -924.468567
247.206451 829.336731 -710.844604
360.965454 475.691193 -912.065247
297.265442 442.095154 -1409.479736
312.355560 589.225159 -955.376465
250.706284 463.185669 -1433.599121
350.935669 783.454468 -855.125916
418.842041 413.057159 -1424.442749
388.437836 480.903381 -907.853027
551.996704 510.739166 -878.639221
495.353638 378.043762 -898.590759
241.124298 366.491028 -973.053955
708.653076 492.333954 -1306.842041
591.341492 386.618103 -1350.902954
583.699768 229.729446 -1326.669556
212.321289 535.387207 -1004.020264
516.207092 343.387451 -1350.819580
675.231689 705.633545 -1337.283691
404.676910 235.963760 -1360.515869
673.342285 379.966217 -1324.467163
255.222565 790.977417 -842.416138
234.373306 817.279480 -757.658142
246.230682 463.920776 -968.030273
468.942200 508.165253 -895.554504
556.387512 298.432312 -1351.530396
248.962372 432.308990 -958.389893
383.731750 245.905518 -1383.998047
217.009399 369.962555 -1437.028931
217.671814 424.687531 -967.842712
348.022034 496.146881 -1398.459595
282.750671 666.283508 -1010.481934
658.300720 370.162964 -1327.930298
356.540466 576.650757 -935.556580
730.432190 525.643799 -1304.286743
694.653381 312.718414 -1308.973999
281.605408 354.803741 -939.776917
321.072479 332.319855 -1419.694702
640.349670 382.636780 -1312.544800
705.119751 323.238556 -1307.801270
343.295685 283.492981 -1392.805786
191.812973 795.202881 -848.669495
322.124512 755.043823 -891.904480
294.882874 799.915894 -778.025757
369.378174 580.154724 -1434.027588
618.391357 394.438202 -1338.685181
500.483398 535.322388 -906.221619
526.235413 443.823608 -881.236328
338.332825 307.171478 -1421.783325
266.839752 829.143066 -689.668640
399.536041 208.027969 -1357.320923
228.499588 793.553772 -831.958374
660.949036 502.884216 -1318.671387
466.022034 342.856415 -914.174194
382.414734 305.652893 -1414.129639
384.801788 456.470062 -913.900269
270.756012 844.443665 -654.319702
677.089233 661.949158 -1339.542969
392.101654 556.851624 -940.872437
294.998749 788.793030 -855.745117
266.314484 850.781555 -697.705444
596.590149 329.895660 -1320.431885
515.143677 370.174316 -1359.428589
320.058655 790.680542 -819.546265
493.202698 695.430908 -921.111328
339.408142 827.033264 -679.171509
389.853912 562.565857 -941.744568
447.104309 785.678528 -696.723511
602.420410 264.370422 -1308.719360
417.009460 561.798401 -943.440125
323.858459 867.019653 -624.099609
541.144226 539.389954 -1283.161133
242.899811 831.748352 -740.378784
260.702606 424.535309 -952.579590
149.402206 845.247620 -706.621643
297.803772 806.505920 -794.651611
394.547882 775.522034 -808.760559
343.969940 829.084656 -658.418762
393.848633 342.178772 -1400.870239
543.916504 479.674500 -710.154175
365.258972 338.252411 -944.979370
581.488708 382.912781 -1354.592651
460.337555 333.861298 -1376.315674
689.073242 374.789398 -1297.006836
508.830170 483.774994 -886.871887
578.217163 327.737976 -1338.417725
436.098785 434.845978 -1388.946167
821.238464 495.170166 -1287.447876
323.544525 854.235535 -618.788269
389.056519 855.373474 -617.223999
325.364594 639.688110 -974.991516
242.672638 629.432495 -984.276611
509.072510 240.484451 -1306.773804
715.696106 546.620911 -1333.183350
675.510010 344.527863 -1321.201172
353.829926 457.547455 -930.084045
569.478760 329.881866 -1351.627686
457.816681 759.631226 -803.928955
441.223572 205.434128 -1355.923950
495.109985 440.929382 -877.687378
291.560211 350.137177 -943.417358
294.373016 648.862549 -992.216736
447.617279 413.898315 -1400.295654
294.195435 342.886261 -954.688538
481.330688 264.972015 -1333.890137
361.884003 664.060120 -1469.359253
309.561829 362.254211 -924.386047
565.091003 621.837891 -1344.029297
246.463379 619.205139 -1001.981689
498.840607 390.899689 -879.477295
474.212982 387.837433 -888.399231
514.703308 660.280273 -908.603210
679.166138 407.054352 -1327.909790
405.134216 361.067627 -897.093872
331.937897 785.873779 -816.805420
295.965607 660.906006 -1004.646423
462.797699 762.101379 -822.116882
501.816467 314.702850 -1338.448242
705.384705 401.985352 -1296.416260
218.319000 787.883179 -850.715576
247.502533 833.082397 -689.402649
643.088989 590.702454 -1331.546021
292.497864 847.663025 -644.886536
201.600800 853.643921 -703.583862
591.293457 480.596039 -1341.287598
305.391571 519.873840 -958.929749
334.897888 427.012817 -932.811890
419.344299 508.609711 -1412.310791
210.282303 511.959076 -1011.024475
458.957153 447.143097 -895.244568
395.881470 793.286621 -745.177124
614.864563 410.367676 -1350.804932
185.834183 858.021790 -669.415466
320.155518 561.676758 -1440.648071
414.035400 536.939880 -916.030884
425.717682 450.324799 -1414.858765
463.303009 757.767456 -842.922974
398.517242 452.317474 -899.502563
376.842010 377.592773 -908.074646
592.289185 355.559418 -1341.759155
418.602783 433.061829 -902.023621
569.870056 320.536133 -1341.371948
117.872879 807.975037 -862.149902
813.687012 513.054138 -1283.233032
817.584473 535.322510 -1281.136353
429.581329 796.915283 -702.197327
474.863861 352.863953 -1279.776367
311.078308 426.028198 -939.905457
677.117004 273.401062 -1293.220093
547.514404 489.087311 -862.220947
438.112244 184.582886 -1344.452515
292.016266 440.502350 -963.636475
520.703369 435.953033 -874.193054
445.786469 734.087585 -957.961609
504.374786 584.092957 -1284.982178
219.492203 786.282837 -840.142395
182.644547 546.946899 -983.467896
471.056549 317.563080 -1272.322266
217.799454 861.036255 -674.792053
466.755859 439.561737 -1281.010864
471.893494 337.116547 -1376.980347
171.735672 440.036530 -968.643982
264.500183 815.575623 -752.575745
575.171814 506.053131 -850.059387
656.794556 520.809509 -1299.530640
394.036072 210.653030 -1362.956421
171.772263 415.698914 -988.673035
320.776978 812.345520 -742.404358
495.226166 403.839233 -897.753357
309.189972 379.838928 -952.807556
719.954102 473.765961 -1303.296875
447.206696 364.351501 -886.078796
430.559082 417.032471 -910.758972
574.545105 449.091003 -1359.675415
658.006226 520.295532 -1267.255127
336.139038 655.999329 -1471.077759
453.467499 523.774170 -917.412048
486.191376 380.827789 -1343.024170
383.316162 774.009155 -880.625671
702.716125 539.660095 -1299.919800
409.989166 254.461807 -1399.976685
390.811798 478.704407 -1433.408569
293.018616 839.479309 -659.321167
689.263428 367.540344 -1292.847900
386.851440 622.799683 -935.288757
423.232941 715.482544 -959.978088
300.516510 827.709045 -714.399353
194.727386 855.316467 -655.969910
316.055206 668.418335 -985.231628
397.309326 836.478638 -639.212646
557.924377 420.124725 -1362.878052
222.692627 836.360474 -718.752502
267.019226 861.848999 -621.406982
256.036041 643.181335 -1003.448792
500.226135 549.424377 -909.103882
305.847595 688.045532 -1005.337280
230.402313 341.509583 -976.581238
525.698853 194.453995 -1313.936523
461.133179 426.634766 -1396.704224
448.641113 472.929016 -1271.049561
299.037872 347.882416 -1415.292480
345.652252 618.235352 -977.932312
312.812195 822.222595 -675.621521
464.568298 399.854706 -1402.361206
587.953064 266.261780 -1335.590576
368.385925 500.033264 -927.873962
644.186707 655.023193 -1355.554443
254.251221 439.275208 -1445.884033
530.362305 348.346436 -1358.613159
506.173706 229.914124 -1327.827148
437.788147 541.569946 -926.432373
797.925110 456.767517 -1292.259644
354.974091 802.637146 -754.554138
485.715790 174.476547 -1343.021362
541.351746 582.281067 -841.974060
554.718567 563.280212 -725.608887
367.503204 265.672272 -1390.906616
312.930206 344.974365 -1424.376953
606.739075 529.514954 -1278.546875
316.847717 569.650269 -988.235413
335.389435 382.721252 -1430.201050
603.229797 302.218872 -1312.858887
373.577118 780.560608 -878.843628
377.573853 849.686768 -607.925720
195.001205 800.115051 -834.891113
668.255981 276.193298 -1304.515503
321.951080 640.617432 -1482.790405
370.528748 797.083740 -747.056458
316.873108 320.252441 -958.616760
440.670410 437.209290 -885.993713
441.831848 779.028198 -775.563782
476.680420 451.643921 -876.952576
675.207764 501.653046 -1277.676147
259.946594 808.034607 -784.798340
681.539185 705.618042 -1371.200806
257.478607 692.144409 -1017.708740
228.364075 527.435547 -966.542603
443.205963 785.735291 -709.120239
600.996765 473.945343 -1355.456543
429.271454 282.282501 -1375.100708
365.236298 786.785156 -758.816162
153.623260 784.983276 -858.553406
393.585938 471.396393 -1401.535767
542.932495 490.561188 -852.050964
424.857208 843.439026 -644.209900
440.607513 538.400574 -929.997742
531.423157 390.012970 -1361.325439
691.950806 300.765961 -1304.285400
700.455383 431.004120 -1313.982910
466.728882 539.550476 -915.682678
309.383453 335.019836 -1425.322876
465.997620 601.304321 -918.162109
626.859131 468.739868 -1356.063232
564.979126 442.129913 -1375.789795
467.696320 397.507446 -893.974609
188.342148 847.661133 -707.027527
514.578369 386.462341 -897.195068
479.765869 761.952271 -796.896790
168.335938 464.020569 -970.765198
271.379425 755.267151 -881.201477
428.236542 773.679810 -804.258057
434.481781 467.547638 -898.973999
440.492981 246.805664 -1365.861450
734.648010 438.362091 -1296.712036
408.667114 811.320679 -683.953003
383.030823 641.672241 -970.376770
570.714722 599.573792 -1371.813110
259.788147 394.056274 -956.914795
564.350647 662.659058 -1388.397095
314.369110 501.441406 -944.195801
618.404541 383.075958 -1337.528198
397.834625 707.908325 -957.553345
478.109009 216.692413 -1359.639771
410.557098 697.821289 -955.629089
424.618164 344.155640 -925.040710
302.837402 405.945282 -948.650635
741.063538 385.784088 -1308.528564
436.331268 197.494370 -1357.069214
531.925842 497.752594 -889.633606
315.002625 821.272522 -676.665222
455.080841 376.461273 -1339.116943
650.142029 510.504333 -1282.408813
362.663177 295.883240 -1413.546143
210.318542 816.910889 -785.923279
191.676056 622.055542 -1019.794006
398.077118 813.047058 -677.788574
443.230713 469.506256 -896.347900
348.873688 498.619537 -937.939270
302.827820 399.751617 -938.571716
766.076294 472.545380 -1290.900269
417.129883 245.748413 -1377.039063
804.696411 466.537170 -1287.371704
310.587189 385.863373 -929.132813
725.294739 485.034698 -1281.099854
356.809326 774.330139 -875.293335
355.616364 640.267578 -966.303284
750.922974 554.266235 -1305.504395
311.876099 610.545959 -1493.092896
487.520844 427.110046 -1251.981812
745.613037 392.188812 -1306.924683
428.219696 504.594788 -916.207703
383.732574 516.178223 -950.659363
509.907440 300.004089 -1344.860474
201.564133 829.685669 -717.502563
600.401794 571.772217 -1336.536499
623.094177 483.259369 -1348.407715
530.517761 501.406769 -828.749634
313.516998 674.903625 -989.523987
340.233002 750.098511 -877.567688
306.307251 774.615662 -883.961670
493.585358 340.428802 -1246.631836
346.988220 556.358398 -945.040405
229.577972 415.170135 -1463.136108
530.729431 535.476318 -1339.930298
426.253418 750.870605 -841.097290
425.636017 354.976288 -903.466370
369.831635 807.858276 -712.684265
454.073364 307.415222 -1384.982666
236.284531 422.314240 -1378.595825
423.050140 703.704956 -943.806946
250.242615 460.202179 -960.499390
467.774323 424.712585 -877.968628
356.564697 472.882050 -939.910095
534.940735 483.343750 -867.238586
706.443115 452.824799 -1319.941284
470.568970 314.366180 -1346.845459
330.587311 394.470306 -1421.149414
354.003967 794.283630 -788.389771
299.339081 823.587708 -758.439819
496.221039 760.371643 -780.395447
387.911865 490.838135 -943.341980
443.580261 452.269287 -887.136658
234.852310 782.250610 -878.532959
364.180542 332.287476 -1394.964722
697.939880 416.631927 -1313.914307
211.810745 836.781616 -695.860596
156.993103 848.638000 -702.722290
316.523193 790.922485 -834.037170
730.487244 348.327850 -1275.673828
330.020264 576.067749 -952.597229
310.478851 570.864075 -952.287231
249.285019 332.903046 -975.144531
613.492798 618.445984 -1344.868652
281.471619 868.439758 -630.885498
423.756622 472.856140 -903.718689
473.558533 758.281555 -827.994202
386.903961 398.263153 -918.455017
574.121399 483.703613 -1374.881348
690.363159 431.274872 -1328.858521
479.392517 526.956299 -885.940613
724.986755 544.796875 -1282.838257
449.154266 780.424927 -793.125977
373.150757 788.785706 -800.718689
431.958344 531.431335 -901.032471
546.678345 543.299072 -878.311279
418.391418 540.022339 -943.567627
326.661224 488.577393 -960.045349
182.666565 787.615417 -843.817078
362.033661 362.076813 -908.422424
158.732727 486.374878 -1002.527954
301.438080 760.792236 -878.101196
252.069748 778.803955 -848.844116
396.751526 550.002991 -928.849548
323.173157 398.023865 -926.387817
399.097382 588.820618 -1417.875244
540.787720 524.669556 -1313.972778
238.514511 859.260681 -642.406372
367.818268 430.332703 -915.243103
229.941391 824.869812 -732.015320
392.333862 502.653320 -1394.507813
389.163544 515.080200 -930.781799
360.880707 772.608154 -882.085510
544.070679 176.952240 -1316.278076
345.803894 658.844299 -1452.127075
221.989807 797.260437 -837.362183
477.350830 409.616058 -875.615234
672.991333 365.061096 -1312.968140
410.116791 329.646088 -1394.356445
734.104370 462.325104 -1240.580322
233.546524 800.263245 -796.648865
520.504272 441.881256 -883.182678
227.795853 798.198425 -837.649719
284.996521 775.042175 -850.355835
409.319550 389.615570 -1384.127075
228.147842 353.850647 -984.269043
529.173523 361.590363 -1321.599365
375.094482 817.018616 -668.855713
798.138123 468.412354 -1280.207275
316.777100 792.472900 -806.325989
631.793274 282.948578 -1312.403687
317.292114 398.360352 -1429.322144
544.995789 305.865997 -1346.980957
568.463684 501.729706 -1291.705322
440.817322 492.948090 -925.768982
385.964600 250.815033 -1387.458130
567.066833 524.715271 -863.887512
358.491913 669.087708 -994.919678
418.475739 386.039185 -1415.289917
219.669571 769.627075 -878.105164
475.442352 347.677307 -911.209045
476.515076 619.730469 -920.755310
368.030975 646.517334 -1488.405762
482.129700 191.804321 -1360.145996
381.788391 782.795898 -793.323547
412.197845 765.072815 -870.018433
363.378357 821.101318 -673.123230
812.133423 487.553558 -1296.548096
321.292511 671.119568 -996.967529
216.025375 394.725708 -1435.490845
572.892334 277.842438 -1328.561035
338.954559 577.527161 -981.378906
636.171265 532.265747 -1338.464355
652.835449 515.092712 -1344.068237
416.730988 337.170502 -1389.054199
395.714722 360.557892 -925.648438
494.721649 406.789978 -1354.138184
359.466278 823.392456 -667.813110
678.361633 333.277252 -1306.649048
731.150085 473.805145 -1263.921631
397.983490 289.643402 -1390.416382
376.713379 806.213196 -726.090698
378.244873 707.686890 -985.221191
210.794174 427.227112 -972.973145
174.110474 789.470825 -892.976196
580.669495 599.689941 -1368.660522
538.824402 340.945923 -1338.407593
350.962402 484.487335 -932.395264
531.309937 372.873779 -1349.226929
390.224243 804.039001 -715.888733
396.951691 457.717377 -1414.381714
524.920166 342.946014 -1350.914429
348.840088 409.910400 -932.407288
411.398865 778.198792 -756.019836
433.800049 538.469727 -1279.199707
740.166687 463.454132 -1310.006714
345.377838 630.698486 -951.058838
220.787918 842.811218 -710.536255
285.923218 865.629211 -608.323425
247.420364 842.096924 -689.208618
436.536285 496.679321 -1384.134155
625.216980 702.744873 -1383.851440
559.782349 514.395813 -1379.701050
468.024933 779.135681 -749.687683
569.434021 214.351685 -1322.034668
452.215302 233.476227 -1358.109863
638.120239 455.174255 -1346.548950
407.635437 809.840637 -696.542114
437.993286 783.382019 -790.919006
448.369110 548.808777 -1300.418823
307.087921 394.660461 -1430.446533
518.590210 551.291931 -888.022278
518.253235 621.740417 -1384.526245
640.337952 575.582520 -1306.752686
657.442993 497.050476 -1298.218506
652.460449 514.580688 -1291.895508
334.006775 333.624268 -942.589417
605.404053 431.707825 -1356.872192
395.782776 526.865112 -938.515320
269.963165 435.119568 -974.819946
543.031616 305.627838 -1335.277954
300.743744 361.262024 -956.991394
485.542450 200.778839 -1336.828735
274.819733 548.745911 -1469.229858
356.591766 474.060089 -1423.319580
467.994659 772.929443 -779.271362
439.103973 339.704712 -1396.807373
378.690887 618.778442 -1363.131348
469.146759 496.443939 -1291.767090
491.775360 265.062683 -1289.029785
324.303009 827.769897 -677.724915
317.951202 412.895264 -936.340332
244.682007 835.096130 -689.829590
465.681702 553.158997 -896.639099
305.161835 835.729126 -684.511414
448.846588 448.078705 -898.433838
436.417999 196.343124 -1354.462158
536.532043 282.912903 -1339.821045
218.022614 812.552795 -798.487488
373.534729 446.657776 -939.548279
397.061676 400.236969 -1408.061523
494.153168 226.278305 -1353.307373
363.123444 619.650146 -962.387512
331.128113 785.853271 -829.992004
449.755768 408.557465 -1225.404541
432.704926 396.827637 -883.718872
376.554901 789.333069 -779.261108
601.183105 666.076111 -1393.726074
465.492218 554.663025 -919.223267
449.330383 595.918335 -923.457214
667.682800 305.362244 -1320.013794
733.168091 379.193329 -1302.768311
253.607162 697.359741 -1014.110596
340.019684 783.013245 -871.468323
288.307495 800.498596 -760.279053
312.374573 347.210480 -942.538513
623.280701 360.853882 -1331.436890
422.298615 440.855713 -899.234619
424.481354 782.044983 -735.561584
153.692596 834.852600 -762.175964
382.735321 573.510559 -950.435913
623.258240 316.207703 -1324.000488
173.370300 847.145569 -696.684326
216.700119 649.388733 -1020.644775
522.553101 544.348022 -704.231689
406.917053 810.521545 -652.007629
246.473190 484.912903 -983.606689
415.126526 575.014465 -926.607849
331.119659 789.112915 -818.046448
268.687592 848.390625 -633.106445
339.704834 597.022888 -973.907166
301.251801 587.117249 -998.842041
211.602371 786.506226 -871.309387
182.402313 394.383362 -982.559143
439.424438 404.092621 -1413.238770
177.052170 779.890930 -876.803284
419.669983 649.368896 -941.397827
435.004028 347.752380 -912.880493
572.811768 186.559784 -1315.080933
515.602356 450.584534 -870.919861
120.382439 806.016296 -828.668518
365.095093 620.785095 -1450.017212
409.385773 608.524170 -929.136292
671.759399 425.082703 -1335.308350
449.592163 378.991852 -1386.339233
589.059692 357.714905 -1342.472290
362.694519 818.902588 -692.635010
358.218811 455.999634 -1441.933838
206.107086 409.249908 -959.296082
468.985229 187.746170 -1347.406128
316.138245 783.548767 -880.549500
456.306763 790.027283 -748.165894
367.223572 691.768616 -971.244263
47.869747 536.344299 -891.964661
377.252594 308.407379 -914.814331
337.446899 702.955505 -979.931396
201.441818 874.883484 -696.996765
655.407104 475.985199 -1322.575928
776.942932 547.774719 -1311.556152
489.119110 632.224670 -915.496033
385.996399 780.446533 -798.548950
631.633667 728.436218 -1365.159180
341.380951 633.181763 -1486.295288
448.731018 449.166077 -895.870239
208.848450 850.092041 -702.637878
599.797302 446.405731 -1355.236450
334.958191 691.377014 -982.843506
621.965454 709.483398 -1314.120361
385.980621 226.607178 -1368.016846
281.976257 361.640289 -958.188965
554.968323 465.992340 -1362.262695
335.905701 476.445282 -1424.097656
328.243195 484.020233 -963.240051
428.719360 763.520691 -806.365479
353.659576 772.272034 -851.836548
334.247772 827.193481 -650.558289
242.372238 784.770630 -852.009338
556.497803 531.543213 -1345.732788
217.432159 841.091431 -720.026306
642.313416 243.999817 -1308.778931
389.847565 756.998108 -863.724731
387.875122 838.325134 -622.575989
326.866547 833.649231 -645.946350
264.292480 522.406738 -987.511658
259.107697 829.688965 -719.152222
391.008148 509.337952 -911.509460
204.167175 797.570007 -827.053406
652.513794 273.919067 -1290.682007
311.007050 460.878204 -1411.476440
168.406204 787.540161 -859.752136
716.654480 436.986328 -1294.988770
275.419098 831.607666 -687.693665
421.536133 312.631836 -904.189941
508.121979 497.169037 -894.258423
181.666931 778.703796 -922.898438
129.265350 810.970398 -829.245728
343.153107 835.904846 -643.983704
442.138000 199.929779 -1345.774902
606.082886 660.975647 -1372.351807
210.240936 504.691589 -982.608643
465.922058 785.986694 -751.346802
392.377258 650.615540 -1459.853760
448.218750 779.467224 -766.663574
206.428940 525.999756 -1016.291382
305.682037 365.508667 -954.825867
675.623352 628.214172 -1343.266113
607.058960 485.128021 -1355.496948
278.771851 848.889343 -636.494751
422.237122 362.118652 -1409.172241
482.981812 462.720764 -889.640442
233.060623 802.045166 -841.787537
280.226196 443.862457 -968.058350
331.369293 315.262085 -1410.594116
148.970001 793.366821 -848.667603
374.948517 595.863892 -944.062195
519.106140 399.414185 -892.239136
713.200256 413.605286 -1322.820923
656.177856 360.745972 -1318.400391
363.270081 319.896484 -959.913147
296.270874 860.128784 -620.899231
178.981949 834.939758 -770.992737
696.475891 516.930664 -1272.130005
463.198212 504.429718 -1385.864990
356.552917 625.379333 -948.975220
424.081360 426.542664 -1160.863647
583.722107 563.574341 -1355.834839
327.082062 337.953827 -1420.757813
466.214447 410.224060 -1391.523071
328.306732 809.130615 -729.688416
528.677795 338.882538 -1340.617920
328.047699 791.700623 -763.405518
601.795654 409.851563 -1349.166016
697.556580 917.318726 -1378.686157
331.421478 445.933563 -1446.707031
538.467468 685.813538 -1393.112183
122.796417 866.382263 -718.661743
271.531891 348.002594 -956.203369
213.798920 850.138306 -691.766174
350.585846 554.782288 -1444.394287
413.598969 421.650848 -1420.882935
445.229980 225.764648 -1348.352295
679.178162 314.261871 -1302.393921
574.623291 419.295990 -1344.454224
137.389374 811.693726 -799.773804
360.454041 728.833496 -1009.786865
613.697083 222.686066 -1305.131348
277.032898 555.666382 -972.838684
375.487244 454.487701 -1296.498169
422.090454 835.744751 -651.360229
163.023499 783.425232 -871.368408
287.042175 391.633514 -1428.409302
502.152039 669.034912 -914.055054
366.766937 774.100586 -841.355774
390.025848 400.689606 -1424.208862
298.471832 431.713531 -1416.636719
783.829224 433.221832 -1293.576172
273.643738 431.067566 -948.465271
529.722656 716.212341 -1354.342773
298.022247 827.538269 -704.442261
375.657379 275.155670 -1397.241211
188.485840 803.978577 -806.252869
336.144257 307.990845 -1399.283203
313.995697 367.070465 -924.771423
605.129028 746.042847 -1309.441040
208.673477 431.161072 -955.403809
274.929108 828.898315 -686.109985
412.806702 312.890259 -1388.841064
407.360046 351.041046 -909.818176
224.783844 400.314758 -967.044922
546.877686 170.859940 -1302.953003
639.882202 636.441101 -1368.399658
433.528778 539.723083 -915.026550
335.976654 452.190125 -916.276611
499.891235 577.158813 -913.478943
563.513733 213.120300 -1331.149170
495.747925 372.134125 -881.445129
574.725098 275.124512 -1331.631836
473.468567 767.155273 -781.411560
585.658081 671.463074 -1377.906494
562.126648 389.523895 -1366.793579
362.367188 431.214966 -1423.164673
207.165375 833.447693 -720.609741
783.166626 454.949249 -1288.941162
428.419342 804.814880 -689.228394
786.046875 439.086670 -1280.876831
590.923523 461.467957 -1372.250977
221.266129 557.710999 -1007.060120
677.279907 596.955688 -1340.729614
266.490448 867.785828 -653.551392
660.897705 471.512115 -1335.910278
486.428009 691.920593 -945.751831
291.566833 404.969116 -1436.974854
501.371490 652.575623 -913.465881
547.370361 330.752838 -1337.628906
360.439331 460.906921 -926.887573
274.449677 820.435059 -753.043091
538.715942 479.053558 -875.189941
390.019348 260.081512 -1384.907471
294.424072 855.666565 -650.157776
540.480774 395.786987 -876.713135
156.857880 455.796173 -975.651855
258.418304 338.872681 -977.635986
382.014709 801.484680 -745.520142
622.922729 579.588684 -1314.435303
482.045837 375.717072 -1356.999634
275.791779 848.389954 -643.928955
643.811096 351.020996 -1305.076782
646.023132 690.863770 -1364.804932
438.463593 766.658569 -796.778687
485.973846 477.614044 -874.166260
241.352554 822.580750 -734.889587
758.856079 436.136993 -1284.583374
662.311218 418.788910 -1338.074585
305.860291 451.631439 -1378.624268
183.028885 777.478210 -881.558838
223.780197 381.776276 -983.109253
390.161346 584.354614 -937.459900
404.062195 787.136902 -758.570251
383.597717 839.712463 -634.750854
494.100708 171.588974 -1336.661011
468.828278 333.514252 -1240.470825
696.991699 354.223694 -1303.963379
490.673187 472.738037 -880.465881
459.789581 485.757416 -899.036255
578.273254 252.543777 -1331.858276
419.506714 820.111938 -660.682190
295.520355 454.419617 -1440.073120
412.048676 731.969910 -966.785217
346.230316 475.440643 -1411.372681
384.172546 806.395203 -718.512268
411.137299 459.490204 -1410.822632
255.361313 809.336243 -749.773438
378.292938 418.437500 -915.609131
531.498535 436.896484 -1343.752686
243.828568 624.435242 -1018.698547
276.658600 524.210144 -978.700134
275.587219 815.306946 -743.228149
653.876770 314.765717 -1324.890991
389.243622 349.952606 -912.763489
678.099426 481.146271 -1315.256958
509.351318 281.308380 -1288.808594
473.255493 604.973450 -916.519104
786.968994 493.379181 -1266.445313
533.779175 537.235535 -891.179321
290.192810 816.679321 -717.071167
676.463501 643.945557 -1335.666870
480.435242 285.673218 -1378.659668
380.264954 500.254211 -923.365295
231.407455 867.244019 -634.200195
349.892944 825.478882 -676.464050
431.169739 358.206726 -901.106567
294.314606 808.617188 -727.785828
439.036926 531.379822 -917.831238
254.585541 396.062683 -1396.517944
264.291321 536.408325 -1483.333862
238.194061 773.067017 -919.474854
441.353577 523.945801 -926.540771
426.414764 575.603088 -1341.668335
218.432343 576.982056 -1023.957153
539.666992 498.520264 -867.528992
379.536407 262.297333 -1373.043701
486.212738 443.336884 -878.137268
740.474243 453.994629 -1294.130737
451.412476 787.916992 -729.129883
647.300781 319.235931 -1314.000000
577.412415 448.532532 -1355.316528
367.420807 788.374207 -788.783081
444.690125 775.262329 -808.395508
155.206467 807.635010 -791.683899
265.891205 834.942993 -724.903931
329.465240 810.958862 -776.263367
304.011017 333.550964 -953.571899
629.605347 484.229523 -1227.614136
438.007385 577.469666 -931.786438
457.779846 340.414673 -915.227600
284.445496 377.329010 -1433.859741
507.982239 238.964401 -1321.596680
746.079834 460.481049 -1300.294189
362.973419 390.515869 -912.863037
237.564484 334.114594 -957.570374
392.695953 632.582214 -1432.270264
165.465652 783.624084 -872.624634
379.311981 375.874084 -900.969604
176.425522 777.175354 -881.235413
452.612701 338.031189 -889.562622
466.984558 541.760498 -894.874756
531.805054 257.382843 -1323.584717
462.536041 556.273743 -1280.639160
470.187164 426.869415 -883.749268
517.070007 404.588959 -886.655701
299.052704 460.277008 -1426.467529
190.843811 605.300781 -1017.488525
332.068726 801.248230 -745.586853
167.669983 579.162170 -1022.817566
720.930176 354.747314 -1296.616577
659.333679 410.596344 -1311.057129
279.112946 617.702698 -1004.313843
654.276672 729.441711 -1369.482544
252.450134 810.856873 -743.921509
426.586639 775.567566 -833.327698
218.449463 453.171936 -967.147949
551.008850 588.412598 -1324.066895
626.169373 869.459229 -1394.082764
540.758606 602.087219 -658.028687
261.162537 336.342102 -986.304077
370.735626 768.019287 -824.721130
320.972931 399.970001 -1431.874268
626.903870 491.748383 -1352.427246
573.902771 606.719666 -892.739807
276.610809 786.507019 -864.316101
547.428894 485.508575 -1371.936646
461.234589 359.378601 -1328.221313
240.860489 523.860046 -961.857666
417.429962 816.571655 -666.699097
653.581421 328.626953 -1321.604370
224.169800 790.391663 -861.527100
394.740509 414.521362 -1415.933838
452.297272 646.610779 -944.773987
403.011444 560.524109 -915.978210
795.674622 437.533722 -1284.796631
519.070923 482.016296 -1278.603882
663.888611 483.577759 -1295.753784
468.710114 539.019897 -890.435364
215.451736 553.730225 -991.214050
691.327454 816.675476 -1395.047119
297.175629 763.812561 -866.990479
263.615356 410.509521 -949.456299
237.454956 411.659637 -1456.784912
