ply
format ascii 1.0
element vertex 1387
property float x
property float y
property float z
end_header
833.187927 288.419952 -762.635864
463.932037 633.315125 -758.290894
765.008057 402.906647 -920.344421
1080.809814 -119.544868 -951.608521
743.279358 220.610367 -824.717346
1124.467896 406.094604 -1181.819458
1151.377197 264.439606 -1099.329346
1020.251953 -74.312172 -1037.648071
686.089417 358.980957 -932.917908
955.515686 70.671997 -1224.183960
492.874695 497.856934 -932.622559
1163.908569 158.908798 -1015.321960
905.206482 15.821290 -1233.567505
664.034424 533.085693 -799.298035
1159.927612 79.556419 -1015.940735
1171.332275 206.690018 -1114.266968
1081.189697 52.567383 -1089.703857
1113.182129 162.602921 -1038.773926
517.519653 548.296631 -858.782104
509.078949 575.132813 -814.855774
559.356323 618.842163 -727.776917
697.049866 586.918091 -690.955505
1074.299072 -15.358932 -1045.222412
1168.314331 102.074478 -1031.823730
1109.020508 246.602676 -1103.474487
918.011169 16.235048 -1224.485352
573.075256 137.211258 -928.271484
625.146179 538.443176 -834.617249
615.881836 619.879578 -711.171326
610.114563 192.413803 -929.432861
1089.900391 -20.610144 -1045.546509
595.316101 645.037292 -684.125061
950.357300 -61.866295 -1123.681274
689.069702 523.624878 -835.581299
688.497192 332.993561 -937.632935
647.713135 594.697021 -721.371582
737.574463 548.237122 -766.585388
851.651917 430.890564 -837.940552
1071.720703 -112.903351 -984.236633
683.776001 521.175964 -842.481750
1223.206909 129.778641 -925.273560
549.696655 465.129639 -961.055359
1140.536255 -66.503853 -959.053223
1123.110107 -54.131165 -951.436218
487.415924 511.291931 -914.612793
1105.410645 -23.713802 -1006.213196
516.452698 584.805054 -827.479919
1123.455200 202.659576 -1033.051514
641.258728 557.617493 -789.632263
983.271545 21.672264 -1086.231445
958.611023 -88.683990 -1149.436890
554.224915 632.037292 -721.376160
1083.214355 224.034012 -1103.518677
1043.726929 -157.499741 -985.423096
888.319519 -97.169586 -1192.417969
1238.286133 229.529068 -1013.206116
1184.783691 444.509064 -1202.291870
1146.766602 138.280746 -1059.518311
1096.104248 42.887081 -1067.934204
887.969971 309.904999 -684.393738
526.372131 552.616821 -838.539368
872.405396 -71.696175 -1245.828369
772.244751 92.943878 -743.723206
637.952393 273.973236 -955.755737
967.977112 -55.935589 -1138.568726
604.969910 180.996994 -910.600281
1251.255737 216.469360 -987.058472
795.936584 256.445679 -737.255432
1241.453369 68.793320 -939.557983
1128.364868 252.285355 -1114.433105
616.426147 217.152771 -934.096985
1171.896851 63.556179 -971.657654
1083.073975 150.604874 -1132.525024
838.799500 46.624531 -1288.141357
537.580017 616.296143 -737.415100
1240.450562 117.631172 -935.158630
909.428833 142.375809 -1329.220947
890.238525 10.192456 -1227.819702
690.109192 302.474579 -910.106689
1099.795044 -69.042786 -983.348206
699.462646 84.542976 -769.362366
1043.147217 -114.560646 -998.279663
808.442261 420.910797 -881.580017
732.151672 272.522278 -877.748901
654.870361 242.138123 -909.683838
731.376099 494.035706 -825.440430
761.321960 203.100418 -755.847717
823.631836 415.906006 -829.896973
778.833679 94.359291 -702.317627
1007.715942 -60.462555 -1111.835205
1221.306641 148.697128 -976.746277
824.724121 383.327179 -834.453369
477.180908 555.483276 -875.525513
1160.825195 79.776443 -997.479980
487.242523 491.947327 -949.360962
895.726074 -101.064842 -1177.344604
547.521362 609.693970 -759.295349
670.134338 602.000977 -699.449036
652.993591 584.208435 -735.910828
722.935425 135.301178 -763.650330
811.580383 241.328827 -716.259155
1234.704712 196.147217 -1018.518738
704.295837 504.781586 -829.550720
796.920410 32.996239 -1275.738037
554.988586 598.939392 -771.275879
639.843201 624.401367 -679.068054
1226.823364 46.080193 -935.221985
804.952026 -63.513851 -1297.138306
745.032959 527.280823 -774.492371
961.974487 132.252594 -1065.015747
945.313477 15.149679 -1207.169678
689.586304 567.920044 -748.764587
1007.076172 -21.640011 -1100.940552
906.859131 135.864243 -1347.066895
567.056335 563.908630 -817.943115
620.287048 629.111938 -680.408508
1276.475220 169.864578 -924.938904
544.521729 473.670837 -951.150269
829.788452 314.307861 -771.955322
689.107483 533.480469 -784.687256
948.880798 -22.212566 -1182.641357
670.331482 61.708439 -812.071350
812.716370 107.416473 -711.990662
721.729187 109.243034 -766.954529
606.155701 518.730835 -886.554810
553.865112 607.730896 -786.981384
1220.297607 205.439301 -993.549866
722.712158 554.147034 -753.617065
1228.853149 75.461502 -934.161133
844.495972 124.933952 -712.029724
1073.343262 62.872269 -1078.272461
469.345886 606.329407 -822.472046
866.816406 64.301765 -1194.839355
796.087402 296.380493 -786.136230
1059.703735 -139.285339 -961.140015
484.142853 590.009094 -824.874268
612.793396 237.621033 -955.844604
1058.256104 -149.766342 -986.248596
1102.323975 382.223328 -1180.101318
693.050110 594.502563 -708.811890
712.768860 371.094452 -975.320129
551.554443 483.020325 -933.796692
1004.785950 -138.446915 -1038.408203
1200.664673 234.972504 -1048.797119
823.841980 36.293884 -1217.818359
1004.024109 -156.704758 -1040.383545
616.493225 129.661499 -865.998901
689.944702 246.254654 -897.928650
1166.166016 21.562998 -981.173462
891.838501 18.652166 -1251.516968
1154.403198 69.738258 -1026.091064
833.190674 -59.664886 -1221.483032
1166.216675 146.940079 -1003.782043
533.966064 495.495575 -928.896606
764.269775 355.728516 -876.221375
510.346710 554.940308 -866.850220
725.804626 524.635437 -825.926880
966.254395 -90.887558 -1086.160400
940.374390 103.768188 -1206.347168
783.272400 203.670639 -750.932434
1074.908813 159.467773 -1141.627563
565.219177 535.157471 -876.000671
1011.511475 144.387299 -1150.733521
729.566589 517.554504 -816.460205
1066.679565 -100.916000 -1005.239441
614.793579 478.783295 -953.379028
1090.456909 145.970520 -1060.286255
679.752258 144.112640 -809.867310
1145.581787 112.796135 -1055.283081
810.301880 354.235291 -807.544189
1191.217773 58.932873 -967.605530
1233.685913 111.181099 -948.761353
987.076538 -111.810051 -1046.084595
773.085693 111.610497 -720.994934
645.961182 519.397095 -873.545898
1197.732666 501.155914 -1241.645508
817.528381 205.475540 -700.688416
614.072571 479.179291 -893.891357
983.788025 -171.924713 -1042.730957
756.111145 153.768295 -725.074646
1099.820801 -88.372864 -968.857300
650.669434 183.561768 -844.583252
433.867615 571.162537 -859.767212
1001.577209 -14.286940 -1130.140991
1073.419434 -77.183105 -997.468201
747.259338 570.180054 -704.243591
746.187195 282.881073 -832.011414
725.453308 269.419006 -873.504211
798.630066 202.857666 -709.994690
1007.873657 -52.502495 -996.090393
493.038544 659.914551 -731.831055
946.824524 33.185299 -968.491272
607.930115 51.094765 -868.351746
1133.810059 -31.113455 -988.848328
1056.675659 47.023438 -1110.441284
1010.367798 122.154839 -1126.991455
660.630981 581.001404 -742.536804
673.294250 92.580864 -784.695740
967.030579 -165.568283 -1037.423340
1105.849609 112.715088 -1067.016357
710.057190 162.770554 -798.654846
710.426147 340.473938 -958.108459
601.291992 180.947861 -903.253662
1000.564636 71.839134 -1179.778931
1165.382202 112.656578 -1004.249634
711.552979 71.451645 -783.769287
641.698364 569.192505 -793.868896
1001.072876 56.883862 -1125.638794
1208.677368 189.169998 -940.211426
752.188232 183.492996 -760.354614
904.286438 -85.670525 -1160.780762
1124.152466 47.842098 -1035.511841
464.037476 515.209595 -922.511902
728.127808 312.100586 -884.434204
616.189758 160.622238 -867.422119
705.360352 240.619965 -841.845642
766.531128 389.513702 -883.817444
927.277893 -89.651573 -1189.905273
959.997070 29.365858 -1176.083984
850.451050 -105.038910 -1207.419678
792.141663 -30.034569 -1264.783569
1148.831665 -50.923389 -937.660583
657.750732 576.870361 -745.788208
942.742126 94.114708 -1208.749268
722.481506 394.705383 -949.295715
607.875366 579.300903 -776.959351
1168.977295 87.769905 -988.500000
779.872681 328.105286 -844.813477
815.226685 -60.775829 -1274.621704
907.095032 -63.944561 -1169.287476
938.588562 29.973433 -995.134705
709.598206 87.270470 -772.326904
859.140564 214.145981 -700.335510
566.257141 612.286072 -742.999390
1233.123779 131.585327 -955.768738
1073.850586 85.056633 -1119.787842
574.023926 589.648926 -778.024780
1054.744751 -127.734070 -968.200745
679.459900 253.776199 -886.589233
702.066406 417.534149 -971.765442
575.273438 554.155029 -838.772766
858.421692 -49.023415 -1254.587402
1210.360840 55.041851 -922.382751
578.813904 123.034706 -895.572449
1143.444214 88.998306 -1047.490723
1097.743652 75.880737 -1101.574463
804.276245 531.216492 -796.315674
586.779358 574.330811 -793.510864
763.973999 134.494598 -724.630554
1080.990112 -50.179043 -1041.165405
1013.481995 -114.221489 -1000.889709
650.640015 108.568916 -822.417969
647.091553 592.993896 -709.154175
764.795044 183.493393 -747.016724
866.071594 -51.352627 -1248.681274
1135.604858 -63.107498 -946.132996
597.211243 529.669922 -873.749756
494.392578 602.129150 -797.036865
687.223877 138.229614 -800.359863
1119.541626 44.245884 -1041.749023
653.777222 210.223526 -870.960327
762.285034 93.941025 -729.197144
695.694702 580.136108 -732.800049
689.877319 570.039917 -732.252014
1205.822998 54.114792 -946.791077
796.646240 5.044814 -1233.437744
1130.083496 -71.795319 -950.918335
997.152039 34.418579 -1154.816284
847.455688 204.395462 -692.578674
770.087585 245.071350 -770.797913
781.421509 515.009338 -788.784790
1073.308472 -133.612457 -970.157288
531.680298 544.559021 -855.485474
731.408386 372.077637 -953.696411
605.108948 188.054276 -952.161072
622.567261 614.066040 -701.081421
548.568298 459.101074 -983.648987
583.566589 642.332397 -681.765137
696.879761 176.268265 -830.691589
714.677795 76.731895 -771.009338
1133.160645 335.792053 -1184.525269
1188.655273 147.444443 -1011.127625
673.875732 175.958084 -858.833801
637.921143 356.687927 -1029.079346
924.893738 88.016953 -1196.050903
725.159790 97.770851 -759.447693
645.675537 485.070313 -873.684204
464.050018 603.183289 -796.383362
731.860413 363.704010 -888.752869
1276.647583 147.922394 -925.498535
1010.494263 180.958206 -1090.392456
798.524841 344.045441 -814.028320
687.519470 551.763306 -777.428528
750.037354 534.854309 -780.108704
991.079956 -116.640244 -1056.889282
782.514038 327.467590 -811.583923
636.478516 84.624718 -821.607300
1180.706421 184.728729 -1025.848877
1188.955200 454.129913 -1211.057861
982.373901 25.281338 -1192.094849
651.595886 45.762997 -815.261963
1116.921631 314.897491 -1183.750000
492.292297 502.720001 -939.120789
1021.241699 3.301523 -1090.948608
730.452454 257.079559 -812.856689
608.113892 301.684875 -976.436279
735.748901 588.692444 -729.397034
954.514465 132.785004 -1047.563599
676.537842 543.308777 -795.788879
755.186890 347.843994 -889.493835
522.803894 551.627380 -852.623779
933.611816 -126.194145 -1125.869385
1186.938843 26.236059 -970.704346
952.682434 95.966293 -1205.307373
887.290833 -92.348175 -1198.735474
1016.431458 24.578012 -1026.061157
1094.660889 -51.602478 -1028.110229
1047.716919 -120.665382 -998.595642
802.801453 130.854218 -719.815918
675.903870 174.559280 -840.381348
535.927063 550.806702 -882.231079
1172.443359 180.582077 -959.385010
1193.581543 43.918060 -974.580444
547.075989 544.797180 -842.766418
800.937073 245.691284 -753.263428
429.097290 583.478271 -845.738159
616.199524 496.830505 -885.449097
698.457031 589.274780 -724.762756
888.286438 -35.209400 -1227.758301
735.676941 157.093323 -743.693420
735.179016 90.989403 -743.364441
905.829529 -17.151804 -1225.100708
631.119690 91.919594 -846.766602
1177.406128 330.038727 -1158.504395
1148.883667 166.219025 -998.877747
732.216736 293.026398 -837.137817
1153.973633 215.531281 -1140.775146
1119.325439 -23.919991 -1011.181641
757.737488 378.144531 -908.567200
798.259949 164.949112 -710.371948
539.267883 657.967529 -715.264221
1055.812866 178.233673 -1050.476318
749.133972 76.616562 -757.837158
956.250000 -165.075546 -1054.730469
888.585144 59.842804 -1255.360718
639.756714 143.469986 -852.724182
584.075867 204.822510 -954.621948
624.231506 594.260254 -748.654968
1287.185303 167.219101 -926.025330
994.693054 -172.157349 -1019.086182
1070.907349 14.850481 -1076.762085
631.798767 166.362381 -876.367371
737.937927 117.863701 -754.827698
804.027222 -41.088284 -1301.136230
719.180969 274.123016 -866.269470
609.780762 642.952759 -674.611633
1138.520752 221.685516 -1092.258911
647.489258 151.500916 -880.034241
863.620178 -36.301254 -1239.416138
1187.160278 173.983597 -972.775635
1181.429932 125.923370 -999.287170
562.954041 536.404907 -874.172668
580.603455 113.919159 -888.618103
830.974182 341.544525 -759.656128
877.316284 -3.895583 -1262.983398
674.675720 359.117981 -969.542297
849.167542 118.316360 -686.708557
1009.690918 -66.806175 -1045.886353
880.727722 46.311333 -1231.800049
636.966553 289.876221 -976.153625
607.882751 611.960449 -721.367859
1051.578003 -172.799789 -993.006897
1259.055908 218.206482 -978.053833
789.972656 132.931381 -727.744446
639.880432 534.905029 -841.471985
1260.432251 119.209656 -933.531860
1157.139648 307.405273 -1139.939819
626.518250 611.807434 -711.518005
648.516296 165.601334 -864.733337
566.053040 530.369446 -871.167725
846.880127 297.074951 -689.548035
596.604065 64.632629 -876.527893
479.758331 585.253967 -840.685486
706.115906 568.057129 -739.244263
722.411987 307.703522 -892.908813
1098.612915 -37.874256 -1003.979553
479.319336 570.872192 -833.710449
498.289368 629.521729 -753.387390
446.795074 587.355408 -844.704834
495.993164 607.358521 -782.160400
612.351563 297.048248 -1005.066772
1100.008911 69.877510 -1052.657471
815.360291 168.677124 -689.792603
1180.270630 304.472626 -1131.205200
966.891235 -109.741661 -1125.980957
777.010559 168.830338 -745.762268
863.262085 270.816101 -713.042236
1073.333984 52.377579 -1072.607544
720.760254 403.933441 -947.715942
467.896515 591.351929 -841.102966
1180.259521 160.579865 -976.784180
615.797424 78.383163 -862.636169
1005.743530 30.580244 -1115.490967
595.858582 289.435333 -1002.168945
859.908691 384.802002 -775.650330
698.961914 565.784119 -745.579651
891.225708 -37.871361 -1205.608521
914.153564 -89.490562 -1195.766846
602.096619 498.077667 -896.273438
671.834229 598.921143 -718.236084
495.910431 550.166321 -877.419739
1196.248535 147.896805 -1010.638611
852.674438 354.005127 -718.206970
1084.898315 263.081726 -1208.204102
876.479004 -58.393688 -1229.857666
641.957275 126.974342 -824.618469
529.792664 594.437866 -807.348389
644.861816 516.490112 -886.712341
584.766785 89.593559 -891.669983
1129.730103 296.554626 -1136.744751
774.627502 336.167755 -862.785645
931.001465 -50.796066 -1211.847534
589.573730 245.610641 -984.480896
774.024170 518.554626 -770.961304
769.294678 147.978668 -744.445129
1241.960449 109.593094 -943.263733
439.219604 582.876038 -833.193665
978.057617 -10.014876 -1182.708130
770.667358 530.237976 -799.484192
664.108276 567.187073 -766.330627
1107.160522 300.576050 -1187.242920
1082.059937 -90.602287 -982.371094
830.690186 113.888359 -688.286499
906.838562 -71.620621 -1193.884033
1081.771973 34.186058 -1051.868896
1230.814819 112.720207 -926.219116
627.026245 63.476051 -859.184875
774.370605 374.948883 -543.892578
1163.570313 121.909760 -1039.484253
759.906738 165.938126 -743.404358
657.592834 240.935349 -882.718018
960.912231 15.141491 -1034.015625
999.883057 -153.080780 -1065.947266
814.958252 259.807434 -756.434143
728.893616 539.570251 -771.282043
936.499817 60.276161 -1224.045898
1089.484497 -57.994793 -1019.488342
709.096069 173.059097 -814.593750
703.620850 250.499527 -864.752625
1125.140381 121.833015 -1098.955933
710.010132 112.168533 -755.565552
639.483459 234.457199 -912.700806
905.962769 -103.463127 -1169.250488
741.293762 262.601501 -859.098572
1135.803223 -65.435173 -953.746338
501.712677 527.905457 -882.585938
1150.075073 48.822655 -1009.449036
731.853638 151.990311 -745.484070
520.030518 535.590698 -863.949829
765.932800 339.416199 -854.806885
725.463928 559.003906 -759.183228
697.589844 172.651154 -807.332520
888.667480 50.194283 -1233.949707
1271.230103 181.692871 -937.080933
665.309326 264.892365 -910.937927
864.553528 249.730316 -699.994995
970.595337 -74.199028 -1140.500977
877.413818 312.030945 -706.407166
778.424377 128.583313 -731.687012
682.299500 550.942078 -791.256958
1087.365112 103.635551 -1105.483887
761.616455 132.009247 -751.500671
835.289307 281.141205 -688.243103
1264.086426 121.012863 -940.384583
682.235413 76.051666 -783.451477
817.591248 119.013680 -688.554749
607.060730 525.437866 -839.299805
950.714966 22.387615 -1072.933594
994.475647 -39.426579 -1023.441589
1082.485229 34.737419 -1082.602051
759.305725 349.292389 -901.976563
644.059998 654.663025 -656.116699
1185.530762 385.623871 -1152.953003
932.315186 109.407196 -1206.518555
1118.686646 -73.412170 -986.162964
937.325989 20.898252 -1237.316040
723.834412 524.674988 -809.075745
1047.412598 -57.910416 -1044.056519
471.264191 598.819153 -830.257141
1132.712891 289.763275 -1156.982300
1207.916016 54.313881 -946.895569
710.399902 195.778015 -792.177917
494.634033 614.890198 -773.800110
1221.382935 194.666199 -989.312561
740.255432 239.012253 -790.676025
813.583435 41.289394 -1266.524536
774.145020 547.505981 -768.081848
690.447144 187.539520 -828.298340
1139.921875 -37.512619 -958.489380
1112.515503 -40.627682 -995.787476
970.585510 -164.880936 -1051.255737
782.741211 200.282425 -723.362305
936.849792 -147.561340 -1082.119995
670.450806 613.592468 -669.541687
578.673767 83.061417 -900.322693
1111.435791 319.508179 -1203.756104
675.980774 238.352081 -901.343994
722.311157 307.271637 -872.338379
1157.786011 363.612671 -1158.268066
729.535278 126.273033 -776.316956
650.205872 468.069885 -919.723938
671.641541 618.566589 -694.297363
1109.610107 161.077835 -1117.719849
1041.925171 209.490784 -1120.833252
1146.519897 -69.159210 -954.507568
722.137085 269.490784 -844.861206
699.841553 596.867188 -675.308289
773.395142 426.555878 -906.271667
645.999207 633.188721 -670.560059
1104.409424 40.304626 -1076.390259
657.023499 506.108917 -866.075073
899.518616 -131.852509 -1139.113403
1120.416382 143.300201 -1086.908936
487.395294 591.786804 -803.546936
753.360535 112.245926 -731.815002
700.009338 502.371826 -904.144836
1133.457031 262.788208 -1170.072754
644.151978 486.968109 -924.787964
495.152740 637.620605 -733.254639
980.545715 -157.797089 -1027.719116
864.140442 219.840775 -704.992798
620.159912 55.155266 -874.710632
617.810730 549.872314 -815.158997
588.850220 141.772034 -908.494446
593.204529 520.580322 -881.562866
744.946960 121.535339 -748.700928
711.342346 549.185364 -766.900146
766.947632 243.365677 -799.015198
1112.495117 77.258240 -1067.864746
610.652710 531.673218 -854.975159
789.283875 95.914528 -723.086914
539.271484 535.476563 -886.051453
702.638367 547.082336 -756.556396
1100.890259 -103.996437 -962.350647
1003.324829 73.882309 -1134.183960
465.093231 591.437927 -836.810547
959.228577 199.810181 -1321.932861
1142.142578 77.111450 -1043.387451
1120.386963 -37.536228 -1003.789124
748.256470 328.475555 -881.764709
1051.030640 -136.177734 -984.606567
792.171265 351.190277 -830.840027
764.563843 518.260315 -790.722717
626.958313 495.517395 -918.299866
743.041504 197.482834 -756.001221
938.985291 46.774467 -1206.174927
931.859070 92.091621 -1240.759644
1169.417480 187.310852 -964.864319
1274.323975 156.233185 -949.376648
719.697998 291.260590 -862.779419
969.788086 224.394058 -1252.404907
508.873505 610.554871 -780.966187
808.058167 288.606659 -762.339966
1093.783936 160.030472 -1012.732727
1111.290894 175.274155 -996.709106
649.789124 82.996231 -807.804932
854.090515 120.156509 -710.095581
666.568970 587.918396 -727.593628
930.552673 -46.035095 -1205.939819
640.834961 227.770569 -910.729004
563.101501 89.546204 -888.840759
1256.297852 105.803925 -932.286316
918.448853 157.266052 -1009.372009
408.170959 568.626587 -882.420227
1025.599487 -141.429916 -994.043579
556.170593 145.737747 -950.240356
618.396912 663.832825 -674.288574
913.321655 227.483719 -1389.126587
1041.382324 28.314779 -1092.822388
1145.407593 -30.797661 -968.541138
782.104370 310.107391 -797.738159
611.344788 539.712708 -839.608704
992.040588 168.406418 -1080.706421
761.042114 564.290710 -746.913818
825.842407 298.399414 -773.993225
1214.352173 153.761612 -1012.283447
637.175659 295.211700 -993.957336
910.647095 -21.855114 -1194.356812
829.962463 237.563553 -703.066650
499.099976 493.087402 -937.856262
680.242188 105.226135 -790.826904
700.055481 79.475456 -754.045349
584.254761 524.730164 -867.215881
759.060303 179.725784 -743.991943
1099.596558 230.443817 -1179.884155
1089.691650 6.548407 -1025.733765
672.744629 519.651550 -859.276489
870.995789 122.883186 -1355.590332
1237.642456 120.546959 -954.605225
650.012207 523.050415 -854.025391
601.687317 472.261200 -923.680786
537.982788 550.269775 -864.243347
1072.114502 238.108475 -1189.389648
774.786682 266.538116 -821.975220
831.259277 382.833496 -809.145935
898.098511 246.004776 -1375.890503
988.274292 -174.065979 -1027.722778
826.817871 277.943512 -769.778564
795.161072 180.519867 -710.395874
788.149475 83.628387 -716.779785
987.757080 -121.614250 -1083.668945
1148.019653 -11.632213 -969.966736
972.513672 56.579372 -1059.289429
704.954346 70.595551 -780.132141
1159.899292 21.803692 -960.340210
657.192566 173.130859 -842.587463
734.886169 200.224014 -769.652283
1254.227173 183.310730 -989.350830
1118.645630 153.436829 -1061.364380
599.961975 483.521057 -938.119629
746.791016 386.819611 -917.397217
934.590088 -196.790787 -1052.645264
1215.721069 234.715240 -979.163635
583.622437 507.098083 -882.144226
514.665894 510.357025 -902.045044
1135.759766 249.033203 -1137.727417
1040.755737 349.632202 -1201.737305
697.836060 556.966736 -763.226990
927.301392 77.182510 -1240.343506
688.508301 280.877380 -872.782043
928.767639 -70.297287 -1163.578857
897.785278 29.454275 -1247.804199
642.605103 293.027557 -966.782166
1256.350342 166.574448 -965.357300
1094.102173 157.901917 -1061.451660
1199.956787 85.705208 -976.324097
1094.118164 -70.770256 -1001.043274
490.991486 487.796844 -945.951599
525.963196 564.296509 -834.588928
1100.013550 193.697021 -1123.137573
751.181335 404.309814 -917.323853
1177.580566 181.229935 -949.291748
1023.961670 -87.940674 -1020.597107
600.448730 185.785324 -960.054321
809.073120 434.932983 -860.705200
1119.878540 68.666725 -1074.458984
1180.277466 65.171616 -982.827759
1087.723877 14.637321 -1071.461670
1132.039917 253.379730 -1102.756836
1175.096436 168.730469 -953.771362
496.379913 653.018616 -777.341858
977.570007 69.987541 -1178.725586
706.876465 318.960510 -902.768127
564.841980 607.241272 -755.829651
1268.225952 193.622818 -951.681030
787.774414 242.217728 -789.724243
1214.215088 215.465530 -1025.987671
872.585693 -72.080688 -1221.100464
749.298523 370.065399 -900.746582
943.426208 -159.940567 -1096.313354
682.240234 338.717834 -992.357422
591.543030 555.287048 -834.065796
741.645081 348.210236 -923.096252
1000.190308 -176.083694 -1000.013855
838.493164 286.170837 -685.948853
934.902344 -74.951546 -1184.532471
963.624207 -12.844040 -987.441406
1003.768066 -92.704048 -1090.750610
556.833801 575.481506 -823.726379
429.093689 570.443176 -901.310547
635.656982 520.424866 -866.705383
508.354065 591.706360 -800.238037
1029.915039 88.593506 -1110.641846
533.063293 547.872803 -856.257141
747.230835 420.041199 -932.696167
1027.227173 133.332581 -1105.208252
1055.761475 -157.250931 -981.813782
1071.868530 194.535034 -1111.638428
946.060181 138.834305 -1212.618530
599.121033 59.181900 -880.336365
1011.212708 249.156921 -1094.732910
726.905579 536.287598 -795.707336
759.059692 66.220909 -774.596008
682.505920 468.547333 -903.435608
843.751221 272.045105 -730.686768
795.087585 22.537704 -1292.769775
831.367065 50.964066 -1329.381104
970.550293 -179.108673 -1024.928589
1047.928955 -48.519615 -1002.008484
856.693665 179.277390 -696.691711
1055.123657 182.452438 -1071.134521
626.735168 571.304749 -774.277100
443.650177 574.807739 -872.158325
937.212097 21.630238 -1045.237915
645.123352 260.868469 -938.224365
1101.400391 -1.526744 -1030.159180
624.226990 43.243652 -859.741882
920.246277 81.381058 -1200.205933
907.860046 -10.309443 -1252.155518
816.956482 -31.852861 -1266.619629
627.458801 621.458801 -696.754028
959.361572 14.786910 -987.791748
1200.701904 126.420151 -974.492371
507.208405 520.077515 -901.869507
735.772705 127.601814 -749.644104
650.189575 558.344849 -789.545532
1115.661865 156.994400 -1140.014160
575.102295 624.806152 -718.706360
1100.985718 349.139862 -1123.885254
837.683044 -37.285496 -1209.207031
1034.017578 65.861420 -1087.862061
1147.020508 140.505493 -1030.354126
523.622009 588.112915 -822.482239
1182.053833 63.101570 -993.438599
652.086670 523.154541 -823.755066
900.082336 -78.937172 -1173.458984
456.423187 619.158325 -791.791138
555.955933 571.361389 -826.673279
1092.525024 -124.258003 -958.476807
596.641846 564.370667 -812.448242
646.864563 326.126373 -952.472717
644.551392 568.165955 -752.598938
1055.621338 -152.728607 -974.097473
1187.916870 193.729492 -1001.303284
1124.537231 298.497192 -1151.023438
797.742859 175.284317 -714.072083
1074.895264 35.609730 -1081.999023
689.232056 470.727570 -897.266724
490.297028 572.945801 -849.807129
692.976013 239.736710 -836.855652
1078.917725 71.299797 -1115.738159
800.965881 510.916412 -810.326477
818.454895 325.581177 -780.562622
810.439453 236.025955 -745.852966
676.061951 554.372253 -779.428284
444.356476 611.841675 -839.015503
1085.618286 -134.030426 -978.020813
852.323486 68.982086 -1130.292480
698.888184 553.392456 -785.989197
1000.201477 -19.094448 -1124.884888
1158.757813 241.749481 -1054.768921
652.910461 528.790039 -848.395569
473.392853 528.419250 -897.602966
1046.815552 -126.679710 -986.078003
850.836060 415.954987 -827.817017
627.930298 193.909882 -897.366089
947.381592 -107.190170 -1103.636841
763.571106 224.270096 -751.944946
725.497498 50.590012 -761.211853
491.247650 604.637817 -801.727539
458.458221 551.814514 -862.245728
734.451355 543.561951 -780.424011
633.138489 44.042236 -876.572510
662.403015 163.245270 -830.341736
1113.724243 41.307259 -1067.700439
623.157959 166.096512 -883.168335
841.429626 198.569962 -673.696228
718.283020 165.427399 -786.098633
1165.305908 30.200127 -988.900513
433.756165 607.739197 -815.719055
675.930603 273.657684 -899.992065
1131.242920 -17.017403 -983.227478
909.283386 111.603844 -1273.510132
512.094849 615.630249 -757.896118
678.024231 514.438416 -846.915344
1111.795898 154.702408 -1072.305908
836.246338 13.232998 -1264.746582
531.791382 553.692566 -861.748596
1141.227295 271.155090 -1178.107544
599.403198 507.240112 -900.709229
1222.794067 143.014145 -969.208313
944.971436 35.704777 -1191.356323
463.418976 590.530090 -843.382263
702.383667 571.468018 -728.916321
565.397461 524.170044 -878.491333
843.997498 345.194977 -698.768311
505.376770 621.127197 -780.712280
909.353699 -55.809101 -1224.899414
649.789551 162.127014 -852.332336
712.162842 141.029327 -772.578918
457.668304 647.040955 -793.742065
482.946014 546.125366 -871.158203
1082.479736 157.541626 -1021.902283
1057.663452 86.776039 -1118.480347
976.922302 77.719391 -1206.195679
475.134247 643.957458 -737.423035
504.998596 658.096313 -717.400391
1158.189209 -53.360558 -947.084351
754.462097 61.344700 -754.883057
675.378723 615.816528 -663.294006
805.632263 -23.515312 -1288.346436
1154.969238 172.289749 -1020.820618
821.360657 277.896301 -744.964600
849.778748 182.069061 -669.048584
529.192627 517.825806 -900.101440
1058.285889 -16.833891 -1043.467163
634.500244 184.229660 -886.919006
485.171783 591.312683 -825.955017
999.233398 -72.124512 -1012.221436
977.135071 51.231171 -1212.198242
750.102539 190.316528 -774.587646
587.752930 105.728745 -894.766968
713.219543 547.910339 -759.476196
1067.506592 371.309906 -1186.205688
972.691223 4.083686 -1167.525513
898.506104 17.061911 -1257.611206
763.957703 227.426086 -769.253845
683.524170 270.696136 -894.008423
1072.395508 -114.582909 -957.858154
1010.920837 -103.690956 -1043.708252
936.551392 110.434433 -969.709412
1097.108643 160.711945 -1017.098938
641.911255 188.014389 -877.165649
1159.680054 253.783661 -1102.991699
777.932373 304.914520 -846.942444
563.620789 465.034882 -973.822021
687.844360 109.797035 -774.020081
795.755920 451.480103 -922.788574
1155.599243 368.744934 -1165.393066
474.061096 626.364624 -771.811401
835.694092 285.901215 -722.647278
1058.898315 162.709259 -1141.430664
856.832642 42.507160 -1275.227539
562.905090 508.883514 -888.936035
991.699463 -178.904297 -1001.224548
1177.607056 -23.229713 -933.980713
773.556091 201.790085 -748.713562
545.395996 563.036987 -840.688232
958.403503 -102.791588 -1129.990479
665.848877 512.666870 -876.412720
936.751892 -8.435675 -1197.270020
962.112244 -201.540817 -1024.115967
861.418274 322.954559 -728.590332
441.498322 589.045898 -851.817444
507.920868 523.587952 -909.968628
793.950317 302.343750 -779.743530
833.940735 -58.788143 -1259.683716
537.001038 488.787323 -943.517151
536.421143 466.687531 -967.448669
750.119751 125.180016 -759.967834
826.710754 401.410034 -814.533875
719.862854 360.265839 -894.445190
1091.782715 -2.615696 -1034.178833
763.880005 342.995331 -848.762817
728.708862 185.092377 -783.731689
952.326172 213.018723 -1329.137329
686.941528 102.197960 -798.161499
1028.608032 158.302383 -1097.109497
1236.161987 151.080460 -961.094116
720.429749 359.913269 -919.769409
612.793518 493.872375 -922.137024
977.442627 -108.873161 -1067.465332
607.827515 280.294189 -982.849670
669.414856 59.913216 -781.748657
889.068542 139.751831 -1354.474243
517.721863 589.953979 -787.160950
1059.923706 -148.103943 -979.126587
812.380920 196.748123 -720.758240
1178.592529 176.940613 -1003.210632
678.782959 58.803013 -804.865479
618.094604 93.663818 -853.136414
768.610840 324.449371 -853.269714
716.656555 391.103760 -966.275452
623.303101 106.750023 -881.239197
1067.020630 -80.434761 -1015.511597
555.289001 456.047333 -988.824646
809.634216 318.936005 -620.260071
1151.477051 88.533310 -1031.970337
753.748413 399.975159 -928.464050
693.827332 99.502991 -805.035278
765.984009 383.508118 -890.628052
626.530640 71.995201 -851.597900
1225.018188 66.911102 -955.597717
676.993774 608.824280 -699.212708
894.376526 134.565491 -1338.752319
1096.411987 165.906693 -1013.967529
690.785828 321.145660 -918.019287
814.679688 -5.077087 -1199.072754
1021.025940 120.080780 -1116.762329
586.430115 132.507294 -883.619019
731.623169 406.619934 -955.749146
1117.375854 196.618515 -1139.354980
691.815247 501.250641 -842.695496
698.173035 280.527466 -881.786804
735.860474 56.569588 -744.545349
643.291504 239.811432 -960.918152
582.771912 587.329468 -773.858887
1140.805542 23.205124 -1012.848633
903.796875 295.353699 -672.530273
759.502319 70.019417 -736.895874
1220.701050 204.527466 -1010.807129
518.316223 667.414368 -721.268188
615.289124 520.307678 -878.812683
1002.138855 -118.771690 -1072.604126
746.677551 175.859253 -754.506531
1112.579956 -107.897896 -969.621399
766.241699 85.497475 -707.316772
946.351807 -87.454376 -1140.109863
558.478577 128.461975 -923.808594
913.859009 224.509552 -1364.118042
544.327759 618.355469 -745.203796
841.388489 -55.002018 -1255.287109
705.951172 136.781494 -795.059509
886.031433 168.394150 -1014.030212
915.539185 -20.423788 -1214.429443
600.243103 100.456238 -914.184509
544.651123 501.416504 -907.363708
672.709045 495.016266 -892.740967
1039.990479 184.430984 -1101.079224
888.300476 -78.474739 -1219.469482
623.903381 466.043884 -949.373413
1183.234009 256.198761 -1053.669312
584.015259 614.616760 -741.644592
957.601318 81.023819 -1216.670898
722.848694 126.866005 -761.635010
781.430115 205.344757 -735.789429
1179.007324 499.528320 -1232.691772
644.247742 548.668579 -803.134277
501.322205 465.198181 -971.877563
1035.501343 244.153595 -1195.554077
670.116028 324.387207 -952.678528
667.116150 545.913391 -778.568665
584.050049 79.301132 -897.302979
592.602539 106.513008 -887.953369
481.199768 570.836487 -861.284180
1135.236206 63.585243 -1042.043335
1168.272217 -14.682790 -963.093262
704.714050 97.877373 -775.617615
990.062134 -1.241373 -1144.115601
1092.468628 279.117950 -1192.231445
865.502991 -61.126217 -1235.257324
734.428772 574.005066 -731.081787
422.845245 573.991577 -896.832092
706.096863 503.221375 -875.427979
1100.588623 67.157707 -1077.262695
858.371887 163.869705 -698.214417
714.398560 520.969971 -813.874573
1088.667847 47.119282 -1074.624146
924.388428 13.051680 -1199.760498
1213.027832 94.747070 -956.337891
587.171570 675.609497 -686.917114
673.193726 547.351624 -771.897522
1083.628052 116.179268 -1092.460815
666.060364 136.246857 -819.638794
894.049866 13.407418 -1255.644897
658.436829 85.023285 -802.560730
860.207092 372.024567 -765.914063
457.663269 569.207458 -852.890564
939.046448 -101.305443 -1138.197388
684.567322 220.588989 -853.074524
922.717957 27.495447 -1227.703979
1143.460449 495.525940 -1260.084351
972.444580 -158.365738 -1078.990356
1089.707642 -12.931416 -1033.561157
848.006348 207.648117 -708.368164
678.331848 68.514931 -819.851685
790.647583 145.196777 -708.704163
829.904236 -40.477425 -1300.008667
495.229248 611.036438 -782.150208
1012.627747 -178.793228 -978.862244
694.677673 337.024231 -932.675720
879.010254 122.072655 -1348.049683
1120.697876 272.227966 -1159.448730
753.101013 301.031769 -820.779358
1129.674072 149.499512 -1040.722290
592.663635 74.552948 -873.138977
783.510498 326.423248 -831.769775
731.980042 117.892265 -750.194214
931.011353 -172.466537 -1078.101807
1071.855957 -159.167877 -973.268860
1198.947266 90.756264 -993.823059
835.756409 456.978363 -868.007324
467.989349 652.078247 -776.356812
663.858215 503.861023 -881.215515
798.271118 393.910095 -873.846008
669.410950 218.580536 -891.468079
1167.637817 448.969391 -1214.725952
1014.489502 -158.931274 -1010.122681
1022.771240 -158.002548 -981.711182
1084.517456 -56.559696 -1004.907532
702.503723 232.338104 -840.078674
1251.227661 115.798424 -936.895447
963.788147 170.013748 -1155.590698
1215.784668 167.107056 -972.647095
708.650208 509.639099 -836.744263
1020.592224 -187.079163 -985.066650
1016.614197 4.046137 -1054.503052
514.190674 555.797119 -840.257996
746.324890 235.612686 -797.355774
937.404358 46.493530 -1236.854370
495.327271 525.998047 -910.138550
756.100708 348.534424 -864.388184
829.491089 434.701111 -872.652283
593.382263 74.421288 -867.048340
1117.905273 364.011353 -1172.953857
527.166626 569.320374 -839.193420
999.072266 -148.887863 -1033.423218
841.197693 301.791077 -753.510681
1207.015259 65.070824 -962.588562
1117.714233 292.530548 -1174.132568
707.408081 135.676697 -808.487915
849.594849 385.695374 -789.346069
931.180176 96.858170 -1077.563721
1015.235901 -32.333984 -1067.572021
922.415894 -102.847481 -1171.044556
966.514282 189.394287 -1135.040771
1047.159668 -79.034927 -999.572388
443.454315 556.778687 -884.948181
1160.707275 292.328583 -1165.575073
794.120667 207.887970 -745.856873
548.376038 581.270142 -811.296204
393.401062 280.188446 -906.399658
1090.736938 169.907761 -1071.644653
740.659851 302.994598 -829.518494
983.646240 -152.241058 -1066.226685
772.731873 249.911102 -771.594910
649.938660 133.287872 -843.990723
706.661377 389.691956 -995.496277
513.317139 521.677368 -895.273499
1165.895630 123.857964 -1040.177246
1224.858887 151.377899 -977.116394
824.295227 313.769165 -764.932678
1109.705933 56.023251 -1032.479004
1263.058105 205.404861 -984.628601
575.468323 198.551605 -954.898010
843.700745 178.806961 -676.756226
1087.922363 -37.832935 -1033.099976
645.588257 42.839855 -861.528870
1124.145508 25.193291 -1032.391724
644.471497 557.714417 -795.146912
689.913818 518.913208 -832.560303
828.592041 -18.731499 -1229.340820
751.803101 528.800415 -1020.176025
809.690918 188.044220 -704.617065
971.851318 -40.297081 -1178.699097
665.582825 504.186676 -866.983215
517.091797 571.468811 -834.817505
703.121826 115.401291 -772.398132
645.311646 616.055359 -696.942749
1001.552673 -97.498611 -1060.743164
971.111023 45.872112 -1213.122803
660.143982 487.428162 -873.289185
958.747437 -86.086594 -1144.042114
1057.916260 -146.989960 -970.155884
947.521057 -137.221054 -1097.041016
888.474426 -63.008446 -1231.022705
1163.680298 170.754013 -1011.193359
999.506165 -108.353447 -1055.677979
619.240540 642.870361 -683.713562
1112.691284 250.285690 -1161.191895
754.514343 217.298203 -783.450562
1120.440674 454.328552 -1301.127197
663.391418 44.368156 -846.692810
888.333923 -115.092934 -1175.167847
850.234436 7.529302 -1258.337280
426.307800 587.344116 -851.852112
760.032410 251.036209 -772.106445
858.689270 163.634918 -675.532471
593.219727 551.580872 -824.371155
673.631165 590.075928 -720.913025
1068.870728 -106.458595 -989.756287
1076.173950 -73.770256 -1017.877136
1019.037964 -109.738091 -1053.441772
940.402161 -115.604530 -1124.614502
1077.533569 162.182541 -1027.189209
657.763672 615.624084 -692.047119
469.083557 613.058472 -784.953735
641.465271 127.741455 -842.148682
1110.070313 253.458054 -1191.276611
1220.247803 101.918419 -946.837585
852.294861 189.330551 -694.690979
1168.447144 146.224792 -1017.624023
1190.663818 222.302536 -1061.580566
738.312805 128.678482 -758.159058
1116.298828 -91.831497 -946.635132
667.621704 102.680046 -822.007080
677.561279 232.066910 -865.878967
577.163086 641.548523 -690.317566
631.315002 129.682632 -881.849060
640.879700 41.835831 -861.823120
781.020325 163.701218 -739.372986
421.952179 547.243103 -904.338074
855.640869 272.757019 -724.984924
1070.528931 213.075821 -1108.845581
982.926941 52.306816 -1086.408813
1120.549194 -97.139633 -958.948792
706.392456 592.842285 -679.115234
1178.153809 115.051094 -988.382019
622.464722 134.722763 -845.585022
844.483093 262.474213 -706.724304
965.049011 -98.322990 -1126.007568
761.790222 69.669769 -737.266663
643.012817 122.382530 -846.189148
844.311096 278.205383 -719.206299
603.535095 216.196106 -920.212830
770.897034 270.475616 -813.007751
1095.033081 242.815002 -1155.157715
837.700012 -20.714804 -1260.937012
1071.760132 138.504044 -1100.188965
479.789337 515.330383 -905.465820
778.812866 234.010925 -777.908325
1284.491577 180.013046 -942.740723
928.511047 -52.942249 -1180.516846
629.320190 193.415375 -938.427246
418.647156 567.777344 -874.568359
680.426941 513.437683 -846.796448
824.508362 -52.370968 -1295.261230
611.854126 584.600403 -788.451416
991.534363 -94.593262 -1059.577026
930.974304 -52.425468 -1197.163574
837.506287 130.772430 -699.625366
1192.392822 62.873608 -966.141174
1090.300049 171.788864 -1100.984619
674.037659 81.541748 -789.631470
657.826599 498.598541 -851.024841
991.280579 16.706720 -1171.347290
1009.100647 176.690231 -1084.235962
1136.813232 20.474340 -1026.087524
655.663757 320.903259 -990.024963
719.250244 593.605896 -679.299500
1199.964355 263.144806 -1038.572998
957.046326 -39.716541 -994.526184
971.025757 -73.804886 -1022.392883
787.353943 266.703156 -782.458252
533.614624 616.776855 -746.390442
454.116425 541.913818 -886.893005
949.269531 17.170902 -1151.871338
954.528503 107.851204 -1131.236816
1209.964966 98.489616 -949.572266
1155.129395 355.013702 -1161.423096
1149.953003 178.410110 -1017.990112
1050.305054 33.339863 -1064.726196
1005.345947 -27.528219 -1079.240601
483.714935 611.557739 -829.328857
736.556030 57.940517 -762.204773
465.334320 619.856689 -784.264526
1140.208862 -24.387331 -969.156738
440.585419 638.507446 -787.459229
1228.216309 104.392632 -957.003540
1089.421021 -20.469120 -1022.266296
616.209290 221.630402 -930.874878
1056.994385 16.750647 -1061.385010
822.731384 189.207092 -692.287537
828.187805 153.494446 -690.229980
1200.696655 110.157570 -976.678528
1134.903442 144.728836 -1036.675781
645.143921 265.760376 -931.634949
1106.945557 136.053909 -1104.627686
1144.391602 101.998299 -1023.240845
491.972260 575.396301 -847.425293
796.098389 340.399780 -840.739136
1104.731079 180.212494 -1080.373291
1164.266602 327.867218 -1134.745850
968.090515 -86.601974 -1133.881592
818.426208 -8.603830 -1270.727051
718.597168 152.090118 -806.341187
1015.830078 164.734222 -1106.702637
1178.983887 81.051125 -1009.460083
982.695557 -142.963013 -1054.812744
755.977905 523.536438 -770.529175
973.174866 190.246124 -1228.020874
1176.240845 161.257904 -960.947510
1127.032837 -20.177467 -1008.788696
687.795715 369.168518 -974.504822
766.353638 311.775848 -819.357117
634.674194 534.881165 -833.158020
786.708130 283.933533 -820.818237
766.251587 308.621826 -810.825928
625.662659 520.085327 -882.489929
1083.784668 61.872623 -1095.129517
547.160034 564.917236 -840.541199
770.623901 384.518219 -862.938904
838.994751 266.901855 -732.913086
1140.929932 -5.898664 -963.878662
1212.168945 149.650513 -973.912476
574.799194 142.778229 -928.236511
469.234894 567.081055 -866.607422
587.672119 656.824158 -690.350098
635.585815 519.772339 -870.632202
1110.986572 102.984909 -1096.488647
851.265259 290.408752 -718.804565
1039.087524 157.619675 -1098.056885
1128.875122 -31.111469 -960.966492
582.468079 474.471283 -954.051086
602.106323 565.358948 -800.237061
489.306946 514.463867 -904.856750
645.339478 367.634216 -1022.074768
670.868896 124.923485 -818.692749
863.832275 78.415504 -1344.169800
735.960510 525.630005 -822.696106
1152.308716 -47.721340 -937.151611
711.487488 235.246780 -853.474182
1223.185913 36.491638 -935.268250
1266.636963 204.032074 -985.190369
981.201416 -90.041122 -1093.913696
724.103394 67.362144 -756.053284
478.766663 585.684448 -813.312866
1141.953125 90.383049 -1055.334106
772.293701 110.429092 -720.357971
974.601379 -44.239342 -992.051331
1041.072998 62.221561 -1109.740356
613.570068 163.565598 -878.290710
1162.513306 207.182053 -1094.924805
997.744446 -160.905823 -1044.369385
520.093079 581.262939 -825.374329
1146.204590 297.410187 -1156.083496
1037.707031 -171.179214 -996.966003
1234.057129 68.314621 -934.177856
662.796265 147.025131 -867.523315
1293.877930 186.479874 -929.927612
1001.392883 -102.940453 -1069.747559
1160.933228 151.166763 -1062.151733
605.813049 650.233215 -676.532227
645.794373 476.712555 -883.763062
628.233521 207.105972 -905.506897
619.363159 48.243900 -849.726013
984.759399 -117.923859 -1093.254639
489.938416 626.579346 -763.469543
991.176392 -1.752782 -1147.806641
830.268494 411.242401 -820.714478
494.049469 659.113464 -748.711670
473.205688 591.163696 -837.865356
646.686096 312.846100 -997.053162
535.876648 485.659576 -938.628784
1145.189209 159.763000 -1001.857422
655.420105 545.424805 -822.488708
956.210388 -138.942612 -1090.894531
488.474457 521.049927 -909.414795
735.480103 309.245300 -845.627197
1045.475586 -83.117310 -1006.275574
872.384399 -84.186371 -1217.602539
603.201477 158.423126 -905.742249
951.368896 19.084782 -1187.392212
1129.409668 -31.657574 -1001.964111
822.885254 176.511841 -693.254883
745.946228 515.836304 -793.034119
1129.684814 -55.689011 -956.047241
956.458557 0.610843 -1185.027100
461.205658 534.249084 -900.171692
731.407227 518.788696 -800.546265
846.033691 187.132736 -695.900146
835.634155 206.100815 -696.115479
727.818848 297.567017 -840.337585
629.030334 195.283127 -905.547852
668.613464 281.477783 -926.480347
1058.227905 138.407379 -1133.468018
759.627563 229.466278 -759.059937
569.745361 670.885315 -693.750977
666.729614 552.225525 -767.125671
816.392883 151.531052 -713.115601
913.897644 73.599625 -1187.328735
589.805908 139.651672 -891.505005
715.110962 129.103027 -766.659973
831.150391 -68.610580 -1274.728149
605.549805 512.920715 -882.432617
1184.575684 71.873405 -962.913025
1091.827026 -90.436722 -1000.805908
631.646790 201.842041 -926.445801
746.094177 501.156708 -901.390442
577.232605 576.031799 -797.887268
877.540894 29.037621 -1228.494263
806.449280 380.339294 -824.835327
801.101685 429.616516 -898.717224
1157.268066 358.924438 -1164.220215
963.484375 -47.705769 -986.068848
794.859985 197.016617 -720.231873
695.347046 350.826019 -943.926575
748.628418 357.384155 -882.776672
709.833191 532.911682 -807.667603
461.224396 558.424622 -880.238586
1015.514404 -117.327866 -1028.148926
998.190613 -140.218048 -1036.338989
700.421692 561.884460 -765.879089
575.481873 559.883179 -809.578552
638.075317 540.693298 -820.711975
1170.894165 105.763809 -998.050598
675.459229 498.680115 -879.465271
790.299011 339.595856 -841.186035
937.161743 79.782524 -1229.283936
798.436646 182.154572 -718.195190
690.993286 379.088043 -969.126648
1146.078613 143.008514 -1064.012939
734.616882 264.713623 -840.939392
718.551819 186.125687 -773.774902
922.290649 -119.245178 -1137.028442
912.391235 -57.554626 -1168.746582
784.800415 358.625458 -862.276733
951.106873 55.584408 -1214.294800
1019.918579 32.301273 -1161.139282
489.729584 631.274353 -761.715149
915.323181 -105.657707 -1132.904053
1100.141235 277.190155 -1146.461426
929.552673 43.697269 -1223.206909
1169.653198 401.291168 -1182.027832
972.390869 -152.221054 -1097.430420
695.783386 605.280029 -704.584167
1025.124512 35.895473 -1153.579590
706.323120 222.221756 -815.413025
1064.323242 -33.101990 -1046.700562
1160.710693 427.099396 -1205.399170
753.007446 141.152908 -729.860352
939.373657 108.642998 -1054.679810
889.743530 -116.722008 -1182.829590
1192.863037 167.922501 -989.553406
1244.209351 188.713409 -967.307617
1077.550293 222.072876 -1194.233887
490.334839 569.197205 -833.144958
980.229248 -99.418327 -1010.697388
665.770935 291.541534 -925.341919
685.212891 184.833389 -808.232056
1125.498169 267.915863 -1131.661255
987.887878 -18.817814 -1070.318726
412.451263 583.724487 -852.584778
711.590759 568.091187 -742.655273
990.035278 -55.463051 -984.402344
671.373779 488.660400 -860.094238
802.109924 169.927841 -700.801392
501.626251 501.344971 -928.602722
866.804260 -74.585876 -1247.644775
948.773376 144.812408 -1098.457153
599.251160 593.081360 -781.696167
1147.806030 152.670013 -932.744690
744.168945 373.062134 -921.246277
1072.658813 -161.184265 -976.511047
708.465942 516.329895 -845.083191
676.840210 198.471191 -868.367859
1176.418823 6.561500 -971.748962
697.126892 599.268433 -711.760315
1178.351563 130.603012 -1025.636353
455.794037 572.250732 -849.291870
1086.499512 195.925690 -1142.385132
659.221008 72.444206 -827.966003
1116.156128 292.245361 -1192.069580
734.036621 160.234146 -774.322693
1130.032227 272.551422 -1148.880737
822.839233 241.527008 -713.166199
832.452148 242.743942 -703.175720
1223.326660 184.841568 -938.513611
757.790894 275.345978 -848.881958
920.618530 -115.189354 -1124.191650
617.606750 227.496368 -942.166321
679.992249 571.280151 -737.726196
1076.438965 136.769394 -1136.414307
694.794739 616.569885 -698.938843
654.682434 521.401672 -845.491882
1145.481567 -52.128883 -952.393372
821.660706 374.128082 -829.779785
1203.931641 142.953796 -979.417419
645.776489 186.038177 -903.248413
604.983459 622.603210 -700.449097
936.095276 -30.548115 -1161.188110
1228.957031 104.543831 -966.613342
678.112732 259.519806 -873.393982
761.311035 71.695877 -765.987183
745.327454 533.080078 -798.671631
1238.640015 183.451111 -941.976013
968.556274 -45.031944 -1145.597046
911.095764 208.169632 -1342.223022
596.100220 462.284058 -941.403259
981.256470 -47.002827 -1060.911011
695.155334 280.716614 -887.255554
1022.337524 -115.030174 -1010.009033
633.729065 619.055908 -703.262207
1060.363281 -78.242752 -996.303650
947.229126 -16.377138 -1184.748169
661.019470 522.376709 -862.487976
609.811829 322.430878 -1015.204529
837.823303 263.774384 -744.329285
634.448669 524.874023 -874.531677
565.776550 595.795776 -768.599854
625.804993 544.524109 -836.698364
828.995117 -29.074167 -1243.732178
815.154358 -59.618557 -1283.263794
625.507141 183.390930 -903.601563
845.447571 315.625061 -740.245056
1104.626343 119.026176 -1072.304688
511.277283 645.003052 -714.240723
940.204651 182.157104 -1316.095703
545.753784 523.007751 -874.749512
1187.005005 477.018677 -1262.980103
538.497498 587.506409 -800.229248
1133.535645 -65.259254 -959.844788
544.585083 596.640137 -796.162109
1005.782837 2.600256 -1097.864868
751.110901 118.534431 -739.102600
669.932556 598.068298 -723.026489
855.475281 -1.527672 -1252.968384
