ply
format ascii 1.0
element vertex 1348
property float x
property float y
property float z
end_header
-249.488541 1047.728882 -376.623596
-311.388672 1304.114380 -737.867371
-632.333801 1261.317749 -601.580200
-290.731201 1038.947510 -383.869751
-427.411438 1319.220703 -657.209106
-364.283051 1233.680298 -828.908325
-439.465118 1164.463867 -202.423126
-525.225342 999.325623 -852.638855
-477.067322 1275.735718 -697.754578
-487.197113 1268.382324 -718.770081
-477.890350 899.529846 -377.319672
-648.378723 1180.881348 -690.751160
-477.389526 897.072449 -356.818298
-468.173553 858.543091 -428.676880
-473.198944 1058.487671 -865.173706
-322.565369 1051.569580 -360.281982
-700.298035 1115.985962 -689.137634
-733.279602 1401.582642 -513.275452
-441.446198 881.146790 -385.005157
-636.571106 1252.862305 -656.045654
-458.193573 1110.778687 -34.367447
-336.617157 1049.258789 148.371857
-154.051987 1153.489746 -107.961906
-207.649231 957.252625 -514.394104
-261.188934 1134.077026 -58.168800
-436.765198 1225.101196 -783.046021
-222.031174 960.699646 -450.208466
-452.342957 941.027283 -333.471527
-89.300713 980.494873 -323.196747
-261.165375 1102.743042 25.665670
-596.968384 1290.289429 -644.139893
-800.730774 1131.911865 -636.956055
-278.259247 1129.973145 -295.825500
-643.210449 1221.400513 -690.091736
-339.069031 868.730103 -445.190826
-473.442108 851.021118 -412.734833
-317.768097 1392.603027 -705.811523
-377.213409 1147.331543 -105.241653
-520.353760 1289.155884 -668.083923
-562.229736 1153.828125 -745.408813
-626.517273 1206.033936 -694.692749
-190.692200 1159.745361 -133.502701
-510.922729 882.875061 -336.855316
-217.401215 1008.042114 -435.937317
-474.855164 1245.409668 -732.820435
-623.456909 1194.531006 -722.557007
-657.937012 1154.782715 -705.660828
-340.274384 1192.298706 -260.548248
-797.853821 1208.691284 -567.773010
-705.015320 1375.956177 -523.074036
-362.267944 1329.262207 -715.987183
-315.352234 1378.942749 -730.480652
-534.487366 1061.570679 -824.992371
-284.687378 1143.118164 -72.932999
-254.985733 1087.043457 88.963829
-109.767288 1122.414551 15.017408
-243.623611 1023.757813 -416.837097
-193.533417 1202.219971 -168.455322
-649.532227 1136.659668 -700.691589
-389.956146 942.900330 -391.857635
-331.220520 874.471863 -488.193787
-551.929443 1029.768921 -823.117065
-328.280640 1060.675659 106.349167
-416.154236 1034.265015 -296.980927
-293.315308 1020.844788 -355.152466
-318.677338 1289.497803 -812.889099
-567.787903 1228.933594 -604.593689
-262.132751 1076.418945 91.919418
-295.145020 1350.359131 -759.550598
-309.222260 1138.985840 -284.011139
-477.791931 1649.384033 -458.187225
-493.108734 1249.164185 -733.452148
-473.833130 904.854797 -375.956238
-204.520737 1118.353882 -9.083283
-417.434326 1144.476807 -228.910995
-254.294220 925.091797 -485.146912
-146.444000 1157.289429 -85.989754
-525.138306 1100.546387 -761.168884
-99.303894 1119.006714 27.438206
-152.703094 1159.613037 -98.046295
-692.539063 1188.224121 -649.944031
-317.619324 1056.247681 130.191849
-757.983276 1140.736206 -621.289368
-384.193695 1344.122192 -648.466309
-112.809608 1149.663208 -49.252716
-175.344086 1136.675415 -51.088314
-423.849487 1319.128662 -682.061768
-474.837891 1157.121582 -811.650024
-309.346008 1058.453857 128.382568
-488.393402 1045.258667 -862.771667
-445.986786 1318.268677 -642.786926
-316.084747 1339.715088 -720.829773
-377.159698 962.777832 -363.284271
-728.425171 1339.481323 -531.761169
-379.038940 1277.073486 -676.950195
-609.180847 1030.904419 -804.588379
-817.773682 1131.162231 -615.461121
-174.897949 1166.238281 -129.541702
-462.404083 966.023193 -314.409393
-207.675735 1155.009888 -105.330238
-346.236267 1350.269043 -744.202454
-508.907867 883.191223 -343.472137
-454.253540 971.183716 -294.809875
-295.038177 917.947998 -475.674194
-130.315659 1101.041382 34.453682
-334.788086 957.074890 -389.399445
-750.567261 1186.412231 -597.097595
-588.609192 1239.150391 -689.327148
-442.420807 1094.418457 -839.173950
-397.370789 1133.390015 -860.644226
-451.200989 889.869202 -385.305634
-257.235596 1076.204346 56.888412
-394.896545 1347.369507 -664.639038
-346.574646 1116.601929 -27.478521
-345.351593 1141.239746 -67.525894
-371.314148 877.448669 -459.682251
-375.911469 876.995300 -442.111145
-280.017883 958.556335 -415.576721
-553.688599 1081.027222 -792.835999
-246.783768 1186.557617 -168.943848
-201.297012 1074.454590 92.488579
-344.350616 880.763611 -453.922394
-421.883331 863.765808 -401.138519
-459.645477 1499.049072 -582.213257
-423.400940 977.157104 -342.363464
-218.685730 1024.026733 -398.910065
-446.560913 1484.089478 -614.690430
-318.786072 1158.451538 -88.209686
-480.305267 1075.847534 -829.060730
-393.638733 1097.400757 -12.576299
-127.082710 1140.611694 -100.971855
-571.323303 1130.442017 -760.368835
-451.606903 889.363647 -392.705658
-449.769745 1167.849243 -824.665466
-457.678192 1183.273560 -780.653320
-238.671387 1046.264893 -377.086884
-416.395721 1055.065186 -300.049774
-459.443573 1205.417847 -800.750977
-185.089111 1170.780396 -124.213417
-472.626129 1229.717896 -762.023987
-365.743469 1094.088745 -307.657196
-672.848694 1327.866455 -569.352295
-785.001404 1308.510010 -551.765808
-255.363678 1042.781128 -387.512604
-371.108887 1073.950317 -293.834106
-258.650269 1080.947998 111.728096
-240.855377 1390.446533 -755.778564
-135.932510 1088.815796 70.331535
-515.306213 1270.854126 -663.548279
-583.644775 1096.463501 -800.211670
-467.521301 1076.392822 -867.536011
-371.316742 1273.756836 -799.460083
-256.286011 1117.577515 -35.951900
-249.716049 916.668335 -484.056030
-632.423401 1175.419189 -682.376892
-134.270706 1099.250977 27.580261
-394.560181 939.330566 -378.878174
-181.905273 975.509644 -464.926575
-500.453400 1114.118652 -798.270630
-325.900665 1054.747192 125.517578
-177.497375 1078.261475 -391.281555
-709.476196 1156.319214 -647.438538
-429.695343 919.041504 -357.400909
-171.301788 1068.388550 -424.531311
-149.653595 1159.991943 -138.851288
-539.130371 1081.804810 -834.150940
-284.821991 1132.311157 -36.986206
-268.951355 980.362183 -424.669250
-264.835968 1086.058472 -339.143616
-211.629807 964.326782 -465.278534
-368.615601 1139.932373 -101.903191
-423.255219 1066.016357 49.462685
-372.774109 1312.203247 -743.048157
-565.899231 1117.647827 -736.425964
-351.760590 940.274536 -402.025055
-206.698547 1133.885132 -334.580566
-480.032684 1103.954712 -32.796612
-513.530457 1056.203003 -812.005066
-676.866638 1160.532593 -589.549805
-404.342621 1546.640259 -593.279053
-662.114868 1212.405762 -565.478394
-662.658325 1098.619141 -762.808167
-133.614365 1134.347046 -56.318604
-212.729538 1029.587158 -399.205627
-391.375610 1020.371887 -322.664917
-242.105347 1070.525146 112.205505
-617.445679 1159.113281 -745.543518
-482.029816 1235.825195 -702.367432
-614.021118 1232.764404 -575.268921
-463.013123 1181.802002 -780.936951
-331.510986 1125.459839 -71.347336
-326.718140 928.334229 -411.561493
-317.397491 1063.713013 125.675194
-319.243439 1075.487427 -333.140594
-453.341980 1112.873169 -57.020592
-373.340424 1065.566772 -283.014313
-173.721924 1131.656006 -58.127033
-227.981522 1181.574097 -161.668213
-345.661316 1302.424316 -789.112976
-454.087677 1440.870239 -614.161072
-360.714905 1133.932495 -68.025551
-347.717957 1008.432556 -351.739410
-301.752655 1286.151978 -813.943542
-639.915466 1077.119263 -758.767822
-302.774200 1141.322144 -76.979652
-321.885040 1179.475830 -246.358780
-415.501862 1299.157837 -637.146667
-352.765564 1151.121582 -84.481743
-675.189087 1133.472168 -709.484741
-694.039063 1199.426392 -669.376465
-439.697601 1302.622681 -735.137756
-432.905182 1308.901123 -737.012390
-347.502106 1042.972900 -332.600952
-515.020020 1627.883667 -435.668640
-124.654045 992.412231 -358.510620
-202.132584 955.113403 -477.929962
-505.107178 1254.017822 -677.138855
-446.385498 1175.649536 -820.218384
-430.660919 1078.739502 37.599537
-493.045380 1434.076416 -629.617126
-136.666656 1109.232544 50.859768
-142.290985 1094.188965 54.805553
-468.187012 939.637085 -329.245392
-458.032013 1225.991455 -772.752808
-430.566742 882.631836 -366.787323
-412.283112 1200.419922 -823.496948
-489.403320 1072.452881 -271.771301
-453.328857 1299.290161 -710.595581
-645.731445 1243.374390 -616.681702
-237.354050 1164.096680 -106.038506
-609.420593 1285.179443 -634.923096
-243.768295 1180.937012 -162.328140
-254.000061 1022.810120 -412.338593
-438.397614 1091.774658 -18.414101
-370.848419 988.906799 -331.379303
-500.538025 1222.993164 -749.425049
-478.167511 1302.167358 -543.240723
-303.068634 1407.360474 -712.486816
-624.098816 1043.391113 -790.663574
-317.109314 1145.035645 -290.452515
-364.063965 1314.816284 -705.721130
-768.462402 1309.487427 -552.669250
-225.334396 959.338806 -450.860138
-285.028931 1384.021973 -760.187195
-272.588043 1133.124634 -22.711737
-623.173096 1274.984619 -627.620972
-167.431259 1089.516846 41.342094
-187.548477 1103.014404 -387.975952
-333.316589 1080.278931 39.375507
-402.327209 1085.796875 12.995898
-460.045227 857.748657 -386.989563
-418.420807 1259.058350 -787.839478
-302.218811 1022.274475 -387.770569
-497.915344 864.702637 -393.270569
-374.157532 1059.582642 -315.695984
-206.938858 1089.009521 52.783615
-155.768967 1102.999146 82.151390
-661.704224 1393.802734 -529.611816
-216.326355 964.568970 -473.947632
-438.999908 1273.902222 -630.898926
-354.851135 1293.753296 -761.796265
-455.804504 1338.954712 -632.437134
-264.478241 985.518677 -423.654968
-106.335449 1137.244629 -13.212006
-559.040710 1088.080566 -772.286499
-288.601227 1374.940063 -750.803284
-73.096588 991.932739 -268.314636
-175.297241 1102.956299 46.419685
-275.980377 1041.620972 -348.330566
-586.643799 1070.234497 -815.216736
-170.716415 1099.923340 77.950745
-212.145279 1076.945801 87.272789
-301.797516 932.734497 -421.603638
-264.142761 1177.474976 -120.056068
-477.460388 1534.901123 -452.882813
-231.261108 952.210999 -443.030853
-493.554718 1022.395874 -275.185699
-320.041016 1068.124512 -312.684143
-745.220154 1116.729370 -677.052124
-258.374695 917.213135 -482.105591
-720.094055 1386.593872 -546.569214
-349.867004 1094.726807 -10.245692
-536.007263 1100.408203 -774.912354
-282.245880 1129.401001 -37.239223
-352.408691 1203.419067 -227.453018
-454.213715 1091.727905 -855.662781
-455.122742 1273.144775 -760.344971
-536.186218 1070.305176 -219.504761
-140.119537 1122.539185 0.320435
-456.138885 1267.090454 -762.988831
-386.248962 1109.220581 -269.971924
-233.461243 957.921448 -453.311401
-308.836334 1252.722046 -826.733276
-479.085907 1088.892334 -848.490601
-382.293976 1081.596313 58.407654
-299.449249 1413.370850 -734.985779
-418.760620 1674.332642 -498.652069
-452.295135 1267.558838 -749.812012
-219.600723 1184.559570 -161.737823
-394.762115 1332.589478 -717.327881
-688.588562 1201.597778 -674.806091
-484.829926 1030.818970 -860.006531
-212.674301 1102.790161 19.650480
-280.086609 1098.651367 21.640450
-329.507751 1106.321777 43.021576
-315.187714 1157.701416 -95.379524
-753.979675 1130.086914 -637.982483
-630.320129 1132.963379 -714.383545
-410.681183 1313.325317 -739.681091
-116.150528 1117.978394 20.345030
-261.369415 935.571106 -486.318665
-483.892548 1249.529419 -603.775696
-460.960571 1103.364624 -847.151367
-459.543732 1153.387207 -828.352966
-567.286743 1025.871582 -829.017578
-455.771698 1162.137085 -824.772766
-819.349609 1127.193481 -626.618347
-454.215820 1091.573486 -863.812073
-162.419907 1117.841064 -26.684378
-368.229614 1083.856079 24.159792
-424.396057 1254.799805 -780.021118
-379.278839 1127.761353 -59.569916
-371.447205 1306.348267 -764.837952
-309.067474 1297.300659 -799.984619
-660.005554 1090.244385 -739.455383
-461.535400 861.110168 -427.622650
-327.218750 1372.545166 -724.531616
-144.639145 1106.559082 84.060165
-374.214508 1190.828979 -847.396667
-349.887970 1022.715210 -334.092865
-762.964111 1139.507813 -610.679993
-675.955872 1197.165527 -655.094971
-472.497131 1326.818726 -701.917542
-249.563324 1190.411377 -156.313904
-538.479126 1250.577026 -659.550476
-618.622192 1111.387939 -734.696655
-538.668884 1093.528564 -820.416565
-434.265778 877.026550 -388.988892
-383.914215 1075.356812 31.603098
-442.240143 1076.082153 -262.618805
-538.795471 974.855652 -265.364563
-331.744507 1395.349365 -711.457336
-331.811249 893.560913 -474.226288
-336.913483 1115.697754 11.770980
-255.397110 931.565308 -462.631073
-398.499054 1482.791260 -593.171143
-460.513245 1118.726685 -838.880432
-485.747070 1035.918579 -292.608459
-298.001495 901.500671 -448.413391
-394.451447 906.577332 -412.767731
-831.067810 1105.388550 -609.229370
-383.926453 980.532715 -340.724854
-186.395676 1103.333374 94.181671
-377.715973 1219.175415 -814.510132
-673.426392 1243.388062 -584.460510
-466.573242 843.818298 -429.908936
-527.122864 948.820862 -297.868500
-254.179642 1072.068237 78.324646
-484.929108 1142.855835 -788.201599
-100.119751 1117.402710 -28.168438
-258.711578 1113.334717 30.354218
-453.066986 1097.591309 -858.872986
-462.791840 1278.507690 -732.213928
-250.831558 1093.993408 -345.934692
-35.243671 996.277405 -251.451218
-422.635193 1291.757202 -751.907471
-556.807739 1049.324585 -818.729614
-205.144836 1110.557129 -24.108967
-359.495819 1092.942017 34.244255
-254.809753 1117.347168 -343.240204
-286.362122 1140.996948 -68.249420
-488.061737 1067.409668 -810.817688
-425.813385 1648.912964 -526.820435
-636.889465 1237.037720 -637.912292
-261.610352 1001.472290 -411.105560
-546.185486 1045.576294 -811.426208
-148.186127 1100.455688 54.499588
-741.553345 1110.647339 -684.447266
-212.050186 1162.889771 -119.146706
-423.694000 1249.726318 -775.193726
-135.561798 1137.967285 -63.723305
-285.519623 1087.835083 73.433586
-422.591736 1095.128174 -11.736498
-704.542542 1093.205200 -713.103882
-220.265060 980.918335 -467.556793
-399.120178 871.418274 -419.202393
-444.617493 940.432129 -335.810211
-65.398537 1017.649963 -263.608246
-226.879272 1067.892700 -396.019135
-399.200623 1106.569214 -28.369343
-400.041718 1236.203247 -809.790649
-619.246033 1049.313965 -790.715759
-328.473358 1225.925903 -256.108215
-372.673187 1292.114136 -784.832092
-433.716553 1114.579224 -251.507034
-736.320374 1147.400757 -655.324463
-282.537262 1069.763428 79.329872
-782.928040 1144.320190 -641.646301
-193.759796 1106.276611 34.165409
-177.184326 1108.234009 15.267628
-235.842865 960.212341 -438.065369
-576.986633 1253.902710 -660.786865
-297.507629 950.474915 -396.338440
-456.523346 876.708252 -409.198029
-526.461121 1041.612549 -825.455688
-466.851929 1297.825439 -733.416748
-642.153625 1228.332886 -669.960449
-308.178192 1065.763306 -333.212738
-428.609253 1017.984497 -316.249786
-276.126648 933.128601 -438.013489
-689.092590 1172.670288 -703.377625
-673.783936 1116.860596 -739.841919
-260.805847 1136.745605 -45.885597
-530.336060 1178.782471 -668.402832
-345.701721 869.447937 -483.484131
-214.951050 978.237366 -498.190765
-383.821381 1163.256226 -118.619835
-304.147949 1078.904907 77.315041
-485.936523 1113.807373 -208.649048
-385.852997 1152.647583 -97.974937
-543.306763 1018.217041 -836.113708
-142.613098 1085.137329 69.691795
-343.417084 898.726746 -438.490753
-675.568054 1150.753418 -713.055725
-234.590225 1155.056396 -91.377129
-132.822281 1152.528687 -77.799660
-232.086594 1099.124146 3.525206
-285.552765 1075.790527 90.110397
-354.342438 1100.714844 12.723109
-639.889709 1110.432129 -742.287170
-526.935486 856.780579 -378.711639
-343.368958 1011.074524 -346.448151
-281.465942 1149.934570 -315.142120
-797.340576 1243.158325 -572.961304
-355.912140 977.998474 -365.623718
-467.616425 1114.557129 -817.128235
-530.478516 1053.569702 -815.374451
-364.700714 1098.007690 9.543592
-269.431763 987.384277 -397.730591
-581.780029 1067.787476 -795.621704
-693.575317 1096.188599 -735.723328
-443.065674 865.897400 -406.854431
-196.521286 1094.540405 67.493805
-408.336548 1136.358398 -849.327515
-290.198761 1281.910522 -805.393921
-252.460388 1036.416992 -377.873077
-742.494080 1324.389771 -554.524292
-440.036560 1078.244751 -855.427185
-502.102386 922.007141 -304.842743
-260.678589 922.579163 -463.388580
-295.889709 1104.611572 -16.074387
-249.017090 1059.626953 110.153587
-137.461304 1184.916626 -117.798965
-276.066681 1143.269409 -102.696930
-661.718018 1368.740112 -542.630859
-417.498413 1045.474976 -283.851257
-274.911835 910.843567 -479.028961
-468.248932 1094.941650 -20.377851
-324.769043 1104.376831 -9.218680
-747.827881 1163.986206 -624.848389
-494.311920 1198.693359 -560.708618
-511.489075 1086.087891 -805.615112
-526.143738 1184.552490 -740.344421
-195.901550 1080.805176 83.633636
-448.442383 1460.172485 -604.396118
-340.895874 938.679932 -408.911255
-486.700439 1241.814941 -745.249512
-525.661804 1099.676514 -782.758057
-287.386475 1106.624023 -18.422291
-678.809204 1186.917725 -674.326416
-357.054199 951.369446 -374.609711
-581.669678 1299.047485 -519.760620
-165.854431 1165.933594 -128.761307
-405.850861 1260.944092 -790.079712
-315.304932 1294.612671 -813.835266
-160.402527 1173.494873 -119.355453
-275.867798 928.099060 -477.126373
-426.581055 1228.836670 -786.512878
-623.917358 1122.338379 -745.392517
-410.437958 1093.415527 -6.787837
-351.434235 1058.067993 90.585136
-447.667206 1409.252930 -663.000122
-450.990936 1454.985474 -652.450256
-361.901062 902.351685 -407.621460
-514.450195 954.389099 -324.430664
-73.514244 989.713806 -276.608704
-382.512238 1161.468140 -862.788330
-419.079742 1119.743286 -55.126808
-515.684204 1073.022827 -197.932861
-648.630737 1232.256226 -674.018799
-263.270355 975.596069 -431.104065
-286.910675 1054.192993 158.296417
-372.543213 1247.795532 -818.393311
-476.876129 860.040771 -376.401703
-433.331299 863.243958 -389.679932
-144.755280 1072.677368 -435.064209
-455.466156 1108.621094 -827.222046
-298.450592 924.688660 -429.356659
-304.561371 1076.441040 95.121002
-405.467468 1133.546265 -73.263420
-519.512634 1126.687256 -801.932617
-640.732422 1257.871826 -619.109863
-281.448883 1116.256348 -22.126934
-235.242676 926.379822 -516.480530
-360.480927 1027.959229 -329.703827
-304.093353 1035.399658 -349.770599
-220.516861 1198.927734 -180.664703
-477.773315 1439.331909 -622.628967
-418.148468 1604.788940 -548.625183
-470.407379 1161.455444 -816.046326
-243.691345 1109.908569 -1.598582
-271.281647 1075.273926 78.832680
-254.178741 1063.894531 108.505852
-234.645401 1392.188721 -764.762573
-525.203552 1048.486328 -818.795715
-642.886108 1285.457397 -608.981995
-436.628204 1174.857788 -793.226501
-133.126129 1165.817993 -86.915947
-399.967651 1534.598145 -599.722473
-108.052208 1116.128784 45.271408
-516.242493 1244.234131 -727.002686
-425.291748 837.532715 -438.320740
-411.458679 861.032837 -456.482910
-471.972626 1077.665771 -837.836487
-480.818085 1280.223511 -744.183838
-439.982788 971.678833 -313.498077
-304.572693 1311.715576 -722.933533
-689.480225 1154.926880 -687.847290
-192.987000 1166.577026 -131.159225
-562.394165 1033.851440 -832.946289
-440.812439 1509.381104 -604.316589
-328.072174 1152.559082 -288.559326
-537.278381 932.876099 -287.200897
-491.297302 1132.225098 -767.329102
-211.293915 966.503967 -466.246674
-265.827850 1139.848755 -54.663063
-472.919464 1020.922241 -273.776611
-352.281372 1277.439209 -774.009644
-402.757080 1233.593018 -804.030029
-332.495880 1199.993774 -268.326660
-430.618958 1009.212952 -299.991913
-531.316772 1078.226807 -790.952698
-435.445282 1149.046265 -223.973648
-411.365509 1444.371216 -648.468201
-391.469147 1118.728638 -39.212582
-490.526031 1054.768311 -867.840332
-538.452087 1207.098145 -588.322998
-736.862122 1200.650635 -577.193298
-538.879089 1141.008179 -755.232483
-475.872467 1097.107300 -237.159561
-612.401489 1038.110840 -785.183105
-782.233276 1163.916260 -609.733337
-354.778107 1084.193237 55.732018
-455.753113 1219.344971 -790.108948
-369.659576 1201.621338 -221.807816
-447.784546 1124.355347 -247.126205
-332.610657 1349.360352 -728.498779
-323.687073 1305.899780 -690.211365
-486.889374 860.543701 -377.254608
-382.622040 871.820435 -452.123627
-444.656982 863.869141 -407.867004
-195.060532 1124.549561 -26.570442
-335.766632 1030.262207 -334.113464
-443.546204 903.274780 -347.704163
-246.134247 1113.899414 -352.737366
-441.954498 1118.051758 -548.630066
-545.107361 1184.652466 -727.445435
-491.658783 883.356262 -361.477203
-567.102417 1031.979248 -839.448486
-427.158630 1216.959351 -793.303833
-661.782837 1143.935425 -710.356140
-129.399994 1149.792969 -128.541077
-402.647369 890.066895 -412.810516
-295.020386 1108.827271 10.552903
-302.415436 1111.984375 -15.529270
-303.853119 1183.191528 -282.162292
-409.040466 982.674072 -344.388824
-473.005493 1094.150635 -707.509949
-532.180969 1124.986816 -755.181763
-398.009949 1315.318115 -655.914856
-298.216492 1112.983643 -8.478672
-421.126129 1508.586426 -602.049072
-334.796967 1304.236328 -793.303589
-170.325623 1095.218994 -381.385498
-709.176575 1223.233276 -580.049133
-490.076660 1101.506470 -230.303299
-747.072144 1340.744263 -542.448975
-424.378784 1180.337891 -214.760422
-444.998169 1215.358154 -798.357544
-424.021545 1392.074951 -659.596436
-219.016342 1389.564087 -774.276917
-425.725189 1515.831665 -580.768860
-468.375397 1341.414795 -684.407715
-379.036133 1338.789063 -685.083801
-250.151810 967.376770 -411.112457
-344.807800 1120.457764 -34.257614
-450.027802 1073.393066 -254.094589
-241.843506 1350.040527 -786.373779
-257.391876 931.825317 -440.840698
-313.804901 1123.258179 -294.174042
-427.910736 978.707275 -351.555786
-506.039307 1166.335205 -764.691650
-413.923645 1309.698364 -710.222839
-522.516174 923.771118 -293.015564
-266.403015 917.846436 -491.371552
-627.391235 1244.694458 -663.223267
-116.105408 1136.361450 -33.433922
-407.359619 1193.985474 -829.712830
-329.622345 888.213379 -458.234314
-374.845123 1124.386108 -264.559845
-231.881393 1190.958130 -157.860825
-363.831055 1058.708984 92.817360
-365.331146 1011.375488 -330.889343
-324.270599 1384.014282 -718.166321
-468.283752 1157.058960 -230.940353
-441.499573 1158.346558 -827.797729
-306.342560 1062.145386 -350.291626
-183.839279 1167.011719 -117.533432
-563.877502 1014.518982 -842.291077
-368.411316 1495.762939 -566.299988
-758.829346 1157.754150 -610.129150
-295.250458 977.517578 -380.141083
-220.758636 1106.474365 -358.262085
-513.394165 1112.867188 -815.242554
-354.423279 1132.524048 -87.460358
-487.533020 1216.771851 -760.888916
-126.832001 1130.111084 -36.101696
-418.228882 1204.695435 -823.682800
-569.295166 1127.224854 -757.390015
-165.865936 1095.970337 81.679092
-295.539948 1085.255493 63.758781
-342.804810 1202.750977 -849.389893
-339.490540 950.726868 -371.305786
-469.264404 1298.677490 -727.832581
-152.421280 1094.004028 86.230469
-628.101563 1226.931396 -679.336060
-223.669327 1142.607910 -46.837029
-343.236969 1327.815430 -757.081482
-465.139160 1116.506226 -810.746582
-486.426117 1038.910767 -879.455811
-487.735199 845.485779 -400.424469
-310.596863 1310.254150 -790.906372
-450.328552 998.776672 -320.736389
-534.717651 1216.487061 -560.601379
-422.481079 1174.905518 -836.096008
-518.637390 865.302612 -361.820313
-106.332237 1149.728149 -61.858051
-384.305603 992.148071 -335.925171
-678.657471 1125.510132 -690.202209
-119.703957 1129.189941 -30.631636
-442.242035 1471.597412 -629.484558
-448.221710 1381.421021 -565.804932
-694.047119 1212.791016 -631.499329
-176.649216 1025.667725 -423.025665
-344.930389 1298.143555 -757.318054
-384.192474 915.624451 -410.629608
-654.611023 1253.676636 -632.607300
-513.793823 1070.831543 -806.909912
-619.448120 1111.216187 -754.387085
-458.371552 1166.847778 -827.363953
-741.930664 1149.000366 -642.463928
-335.112976 1330.003174 -699.192200
-296.870667 1384.697510 -761.566833
-477.358246 1155.387939 -809.269104
-675.111206 1245.870483 -616.872986
-359.803741 984.314697 -368.582062
-644.279053 1105.010986 -722.877930
-336.984619 886.603943 -436.023438
-408.596466 979.039734 -317.855042
-450.821259 1342.992920 -606.678589
-310.071106 1162.150391 -262.057190
-236.767502 1083.488159 55.568443
-617.436218 1135.910889 -740.568115
-357.975647 1321.303711 -679.807922
-351.635223 896.442261 -405.643921
-494.561584 835.043640 -396.528656
-291.670868 928.008850 -461.096527
-236.619400 1095.792114 12.166582
-275.122101 1374.475342 -777.380371
-619.989258 1262.833130 -661.248169
-391.585815 1094.028320 12.756611
-364.826630 1132.906738 -62.584167
-441.148315 1145.232056 -550.163757
-628.237427 1289.009888 -575.331238
-459.795685 1144.127808 -803.796387
-388.294067 1255.370605 -769.439941
-255.488373 1069.318970 106.099373
-507.074127 1350.532471 -659.597717
-397.989563 1542.379272 -589.982117
-544.001282 1032.680542 -841.373718
-309.956970 1105.596558 -3.074742
-316.413361 891.279175 -462.821442
-381.246185 1226.141724 -827.584045
-358.362427 1312.130859 -689.641296
-520.259766 1207.919556 -731.394043
-333.646271 1066.068604 55.530140
-481.289215 1056.779663 -255.921814
-265.459534 1134.403320 -42.871517
-542.432983 1078.179077 -790.365234
-666.403687 1174.531860 -666.788818
-507.965790 1052.991699 -216.340942
-731.362854 1242.347656 -590.125549
-471.798767 1084.488037 -236.782120
-301.033325 909.039673 -428.720306
-404.661072 967.381653 -357.831543
-497.185852 1104.895020 -803.823303
-519.437134 1025.853149 -855.618774
-322.569855 1328.279175 -695.640076
-392.061890 953.160156 -373.303894
-283.577942 947.753662 -434.765961
-315.736145 1091.500122 -312.731567
-666.943176 1182.871460 -658.367798
-438.519104 921.521423 -337.526978
-167.165207 1216.440796 -189.619614
-310.285156 1262.514038 -804.365906
-537.418030 1161.108154 -694.455627
-410.255493 1210.264893 -805.342896
-251.902695 1128.237427 -321.735718
-289.097870 921.615723 -506.930603
-492.017334 1117.409180 -233.081085
-568.250122 1039.050171 -828.584290
-500.094971 1158.512573 -795.127075
-653.473022 1230.900024 -650.235168
-343.620544 924.726135 -399.603973
-582.674011 1294.504883 -645.516418
-399.695099 898.077942 -419.165985
-481.104248 1178.022461 -784.901123
-442.184845 867.517578 -376.550629
-172.435059 1122.755981 -34.850613
-706.467468 1161.103516 -661.168335
-588.176453 1074.638794 -785.444275
-255.022812 985.087219 -435.679474
-289.260834 1128.625488 -46.767349
-401.665802 1124.059937 -859.758850
-419.351166 1352.573975 -647.680176
-340.407196 1265.676514 -805.998169
-97.671585 984.135986 -336.499298
-148.571426 1088.045898 56.609158
-417.417633 1132.297119 -78.952553
-725.378967 1199.901733 -596.972412
-357.411499 1057.359741 68.461975
-660.594727 1205.225464 -685.633545
-409.692017 1461.922119 -600.719177
-488.429291 1328.585205 -697.636719
-521.442139 1043.726685 -235.325394
-692.840454 1242.749268 -578.454346
-486.561462 1274.511108 -745.835571
-399.789429 1621.854248 -521.701416
-181.282639 1132.509399 -22.865864
-412.731354 988.666992 -310.077057
-461.988617 1323.419434 -714.246155
-459.999054 1384.208984 -606.435303
-762.581421 1383.087402 -513.258118
-194.115738 1117.488037 -22.784376
-472.445282 1268.454956 -732.930298
-450.991821 1262.965820 -753.247253
-738.599976 1296.943237 -561.304443
-332.479187 1321.854980 -681.995056
-334.847931 890.273254 -448.191101
-833.560059 1125.367676 -591.522400
-494.287872 1030.866211 -256.837646
-398.325317 1576.528809 -553.898560
-436.184326 1096.951904 -858.580933
-81.381004 1140.408203 -50.962616
-332.460144 886.331055 -448.977570
-190.620712 1139.906494 -79.738251
-271.957977 990.323792 -396.554077
-760.139587 1139.042358 -606.858765
-527.869019 1142.782227 -761.805176
-312.743347 1314.554688 -707.671631
-328.661804 1263.307373 -671.398987
-549.938110 947.031189 -279.917816
-649.517883 1215.761719 -691.920959
-393.432159 1126.582275 -57.171566
-304.035675 902.700928 -480.707001
-662.628540 1187.663574 -577.516418
-417.627960 1529.274536 -562.520752
-465.050140 1133.859131 -826.835876
-514.941284 1086.968384 -747.752991
-207.643539 1163.712769 -140.163864
-351.822693 859.935364 -469.393860
-679.753601 1080.377319 -720.061584
-197.529785 992.473328 -436.744659
-512.177612 1285.423462 -706.877014
-364.604401 1061.647949 78.130264
-444.755615 1508.299561 -577.562622
-345.956757 1213.301392 -849.881836
-769.226501 1303.848022 -544.094482
-381.863586 1062.454590 70.513496
-393.888458 1599.468506 -559.083923
-535.024719 1036.692871 -827.193481
-496.432281 890.150635 -323.360870
-288.539490 1150.791138 -86.871895
-696.827515 1199.399292 -648.804138
-469.610168 1095.018188 -856.357056
-393.337555 1164.635864 -824.607483
-319.608459 1016.294067 -357.576935
-334.740723 1096.890869 -296.589142
-250.654068 1370.582153 -787.126282
-220.214813 955.769531 -479.643829
-230.936508 1124.883667 -29.414518
-436.371307 1539.270020 -501.620911
-351.340790 1069.249634 110.610573
-476.678619 1304.670898 -698.261963
-556.414185 1117.466675 -763.564697
-287.141113 1075.918091 97.711899
-520.259766 1064.773315 -813.592102
-489.272003 1095.649048 -735.539673
-265.151642 905.099182 -502.843597
-358.268005 1170.750244 -246.402847
-400.354218 1316.317505 -699.028625
-492.212067 1126.475952 -796.315186
-357.615967 1336.955688 -742.274048
-343.281647 1074.044312 -330.764282
-387.019135 1066.277100 95.946045
-564.123230 1149.972046 -756.443787
-320.250580 1310.895874 -694.206848
-319.676514 1204.923340 -252.548630
-656.611755 1228.980103 -627.434631
-760.398499 1383.766846 -500.652008
-216.210388 1137.820801 -49.501629
-403.837158 1481.057739 -631.221375
-309.203552 896.987915 -461.341187
-362.378815 921.180786 -394.899933
-184.066452 975.427429 -481.719452
-381.103546 1081.644897 -315.455444
-226.605988 1178.318604 -154.459915
-467.650055 974.652710 -307.131470
-517.607361 1054.724243 -843.067627
-197.502914 1029.815186 -418.431915
-430.979828 1300.663452 -738.640747
-664.059509 1244.884033 -618.563171
-158.913315 1086.254028 -391.673676
-511.438995 1091.537842 -767.912598
-514.011353 1111.899658 -770.138245
-214.123535 1092.202881 79.349815
-498.996826 1137.889282 -707.806274
-696.547119 1125.005859 -714.566650
-229.684265 1075.093994 86.242500
-678.829712 1212.075928 -645.937012
-312.090210 1146.354492 -83.672676
-594.919861 1146.355469 -704.625183
-786.346069 1121.822754 -656.421204
-288.993835 1070.669434 -366.191559
-415.597748 1448.166016 -653.767334
-98.629646 996.844849 -341.915680
-743.464294 1196.319336 -593.448853
-414.839020 945.375488 -366.803925
-133.643356 1122.352905 -22.579638
-243.834213 959.318909 -439.638550
-123.958603 1167.111328 -109.994820
-251.878967 1073.980713 -354.572510
-340.193878 996.415283 -362.799957
-320.759949 997.011414 -387.921875
-300.173767 1105.881958 -2.670579
-529.722351 1142.289673 -755.348145
-173.228989 1111.483521 -390.262146
-411.508301 1029.931030 -283.500214
-195.443695 1100.382568 25.424656
-504.892639 902.699890 -308.068695
-779.932861 1238.959961 -575.366150
-470.502625 934.027222 -330.754517
-395.877808 894.384460 -409.183105
-543.128845 857.798950 -373.529938
-480.200928 1188.855347 -783.541870
-460.288849 1072.358887 -847.765015
-196.052567 1053.918335 -415.896820
-469.306183 1302.204956 -685.672607
-524.601746 1062.321899 -227.041428
-492.258331 1053.335815 -818.456177
-387.743927 1266.084473 -796.561523
-660.485718 1237.392578 -665.355225
-406.956451 1606.831055 -528.102417
-498.810181 1404.648804 -612.739563
-315.773590 1105.808350 -318.706909
-378.200592 1305.514038 -768.593994
-377.384613 1049.182129 102.609192
-200.885727 1009.021423 -428.175873
-141.528503 1145.241943 -66.974037
-161.639877 1101.783203 15.035823
-219.928787 1083.217163 54.955093
-260.272919 1157.090088 -133.597641
-152.102325 1151.492798 -80.124840
-307.409821 898.345886 -441.554596
-444.183838 1116.145142 -240.963089
-511.273804 1156.894531 -765.057861
-506.782135 1327.397949 -680.235840
-418.487793 1453.632690 -646.519043
-402.487610 1070.088379 54.463825
-548.007813 1071.810303 -805.948425
-215.499573 965.559753 -474.621429
-206.521957 975.581726 -474.908417
-418.130005 1319.505249 -728.438660
-708.096191 1112.548096 -704.210693
-373.420227 1080.245483 -290.414246
-169.970917 1121.691406 -28.464119
-256.080536 1086.471436 -360.305817
-454.510223 957.623962 -306.738220
-330.722443 1063.338257 63.482006
-289.541260 1108.924072 -15.694057
-237.491043 1147.696533 -81.483505
-293.843689 1110.307861 -31.187902
-456.771179 1041.174194 -275.246307
-494.254059 1296.010376 -625.986633
-309.034393 906.000732 -441.769958
-443.138947 987.811829 -326.460083
-434.787933 1202.301514 -811.240723
-473.108459 1277.959717 -640.512878
-497.991241 1442.200928 -620.991211
-559.326904 1207.135986 -715.412292
-319.179626 1161.614136 -288.058807
-473.503540 1410.852051 -650.261780
-478.935150 1246.683228 -727.822693
-313.979218 901.688049 -460.564453
-675.192688 1220.737305 -622.421570
-272.733337 951.492981 -408.733063
-655.917175 1201.700562 -702.513916
-257.247528 1020.251526 -401.008789
-743.752319 1144.496338 -644.754517
-498.873627 1125.386230 -223.563797
-464.063904 1327.534302 -693.483521
-389.261230 1159.593872 -239.484528
-478.079346 869.904175 -396.564453
-286.960236 1094.921631 23.247877
-257.210480 1327.269531 -810.688843
-190.712158 1134.983032 -50.663353
-285.733246 1108.969849 -0.050917
-231.478638 1127.079224 -41.062733
-352.721771 931.466309 -396.175262
-384.100220 1293.932373 -183.605438
-754.005493 1383.262817 -550.990540
-487.975739 1310.404175 -695.220703
-537.941833 1037.966187 -841.714661
-341.044098 1321.919189 -688.644165
-497.064972 864.442322 -374.390656
-495.715210 1032.892212 -868.525208
-271.493774 1163.556885 -107.881332
-222.342484 1116.968750 -345.755005
-467.061371 1332.174438 -696.412720
-665.195129 1174.877319 -683.935791
-209.419937 1153.741821 -99.628403
-688.702332 1163.832764 -698.360901
-338.964661 1191.199829 -133.225632
-294.454132 891.759216 -492.944550
-406.673615 854.180725 -443.836487
-426.927887 982.040833 -323.346771
-650.519897 1370.871460 -540.579224
-260.239227 1136.324219 -86.851166
-453.297089 848.836426 -414.889069
-159.169861 1094.766235 52.538143
-470.600403 934.013123 -323.508636
-403.086182 1086.440308 7.204847
-259.367218 1391.113281 -758.167419
-377.296204 1085.540283 22.985943
-450.076752 1323.749146 -605.208496
-200.004410 1175.630127 -157.634628
-159.374832 1124.234375 -29.007895
-480.694763 1196.058716 -770.000488
-270.914154 1161.782104 -299.656555
-411.845764 1086.378906 12.199395
-630.110657 1261.740234 -601.096924
-484.618225 1080.756592 -830.147278
-650.442932 1161.747314 -727.559265
-375.159943 1146.630981 -845.485168
-488.174866 846.921204 -392.721497
-429.400757 1497.291992 -627.807617
-108.995071 1132.869141 -13.256545
-410.723572 1085.669189 -4.286211
-311.460663 1231.697632 -260.490967
-111.679390 1121.538330 -2.047946
-450.077332 1096.066895 -224.516663
-235.260345 1096.745972 23.835266
-342.518250 1223.921997 -837.256714
-459.629120 1294.535278 -649.162048
-168.797775 1144.443848 -343.357178
-756.602661 1395.667236 -522.400208
-256.720184 1098.091309 -364.263336
-102.525742 1109.074463 37.661388
-525.497192 1158.415039 -754.848755
-249.940292 1341.715698 -805.476379
-105.443001 1114.957642 -0.297109
-128.422501 1075.310547 -363.210602
-467.546997 1488.611206 -563.374939
-507.583649 967.184692 -269.190979
-329.500366 1064.028076 -320.578613
-335.343414 1205.726929 -240.229919
-401.161896 1509.201416 -613.747192
-631.177307 1178.629150 -708.804504
-763.987244 1232.752197 -564.518005
-163.986969 1155.728027 -102.218819
-803.502991 1214.797485 -568.832947
-360.606293 1146.366821 -83.317734
-306.525146 1159.171753 -137.277832
-225.946365 961.414246 -453.806580
-459.666779 1331.884888 -656.414673
-344.482788 1096.734375 24.799360
-195.097321 994.403259 -450.325073
-166.114502 1103.966431 28.392101
-271.875885 913.551086 -473.220947
-345.447144 1145.924561 -86.111542
-193.376465 1158.639282 -108.136223
-670.808594 1363.858765 -543.981384
-221.098083 1128.907227 -27.467224
-291.848755 982.932495 -378.949066
-129.844604 1105.571655 16.081249
-295.134583 1276.350220 -806.682617
-339.464020 1315.253784 -681.192566
-477.292419 1252.797852 -745.830566
-160.849854 1198.647339 -162.433548
-310.635834 930.304382 -445.266663
-531.549988 1066.798218 -809.923157
-736.591980 1143.755615 -612.042419
-418.023010 1566.605347 -523.586365
-330.169617 1295.661865 -784.323425
-253.731308 1136.381958 -60.596485
-272.893677 1107.777954 -339.204315
-330.921173 1218.678345 -820.537354
-574.231445 1210.303101 -712.681458
-317.957520 920.877563 -422.296722
-342.797729 1183.021240 -134.628189
-293.417755 1207.618042 -242.553772
-435.348358 868.645813 -413.805939
-515.609009 975.906738 -275.958801
-557.261902 1110.550049 -757.105835
-193.006546 1023.942993 -444.983673
-334.949066 1108.009399 -19.360403
-408.718048 1023.596924 -335.175476
-288.471375 1002.616577 -376.007507
-324.540619 1149.574219 -283.712280
-288.401367 1088.864624 -318.798584
-276.285065 1040.985107 -347.682678
-314.416321 1134.378174 -45.165222
-384.257660 957.742554 -372.660217
-771.267334 1331.001709 -526.743835
-353.124420 1227.671875 -821.939697
-195.771805 1011.643616 -421.695801
-460.779938 1092.736694 -861.497620
-592.265381 1022.546570 -818.307678
-732.718506 1389.441162 -528.328613
-356.052643 1113.437500 -41.613239
-422.233429 1517.853638 -543.240662
-279.129303 1111.428833 -2.678593
-549.312073 1030.147583 -833.451355
-367.048492 1129.368896 -52.356754
-421.214661 1072.410278 27.679739
-419.051544 1099.672607 -5.335561
-704.491394 1362.426636 -543.048035
-549.231262 1130.996582 -725.794434
-430.513428 1122.455566 -260.192566
-598.221436 1051.017212 -815.138367
-422.896301 1147.499634 -566.329773
-678.476929 1228.893311 -610.954346
-286.309296 1125.875122 -42.437416
-283.915558 1361.005859 -707.269043
-484.774628 1456.701050 -584.980896
-490.868408 1124.288818 -792.483459
-464.252991 1166.382446 -784.632080
-487.482758 1152.172852 -734.109253
-422.170990 991.460938 -316.573120
-232.338486 1174.122070 -125.013733
-470.159088 921.975098 -321.448151
-655.870483 1203.150757 -611.119263
-179.934509 1092.921875 28.609421
-379.640106 1129.950928 -53.602581
-484.165405 854.044556 -409.145447
-378.364899 1303.473145 -766.074097
-211.332443 1176.953491 -322.162384
-302.748566 956.913269 -385.630493
-550.197449 1071.318481 -837.358154
-330.476837 1076.309326 46.968395
-781.073181 1107.535889 -652.839661
-426.696594 1395.240845 -616.139465
-421.301819 1009.512695 -324.642090
-354.237213 1317.817139 -765.372864
-482.584503 1111.065674 -223.672104
-459.808044 1103.380127 -827.511414
-335.131805 881.653381 -478.400330
-285.093536 892.213135 -462.168610
-519.996704 1130.442261 -728.210327
-231.072815 978.107178 -419.065430
-462.342926 1441.870361 -655.716736
-585.401489 1082.306519 -790.042053
-413.415039 1304.189941 -750.984131
-198.537216 985.045959 -471.595398
-339.333557 1134.648438 -89.375023
-259.904022 1174.042480 -145.401840
-439.444153 1075.691284 18.163822
-383.257843 1133.487305 -100.488960
-188.880493 1035.033447 -443.970581
-733.494995 1155.789795 -561.422119
-454.578308 1283.172607 -733.809998
-421.824677 1020.320923 -296.211761
-689.724915 1197.623169 -621.658081
-645.454346 1302.048828 -581.845581
-293.872620 1380.778564 -741.015991
-301.896393 1341.439819 -760.097778
-131.293808 1156.573486 -104.886055
-778.334290 1278.706055 -566.897705
-238.267532 1010.696838 -392.087341
-236.686432 1115.174194 -33.187576
-125.304031 1148.588013 -93.195892
-423.986572 1118.645508 -54.321560
-380.151978 1077.551392 73.601662
-218.022430 1036.096436 -381.930786
-443.677856 975.584229 -338.210510
-371.770538 1156.974854 -108.568047
-427.665649 1681.684937 -475.823120
-181.385788 1064.646362 -391.575409
-187.138260 1093.605103 -367.971649
-712.193542 1217.867554 -616.122559
-400.622406 856.394165 -454.464264
-446.760803 1079.096436 19.838760
-45.180031 979.385620 -289.116211
-279.203979 1122.134888 -40.568382
-245.043777 1117.664429 -20.562613
-180.083481 1098.307861 9.608390
-110.797409 1148.988770 -104.822258
-259.855865 1178.277100 -306.125031
-461.606476 895.585083 -375.960968
-724.746521 1133.882324 -617.401855
-202.126190 1126.093750 -22.108496
-293.567200 1083.953003 48.380470
-272.133118 1094.787231 43.210724
-319.166656 1118.028076 8.858999
-443.060699 880.256287 -381.500214
-246.233887 1168.310791 -130.977554
-495.448334 875.438049 -359.774170
-577.922668 1085.671631 -801.492004
-417.471680 959.875671 -343.522491
-160.717606 1048.966064 -423.652191
-448.162567 845.551331 -432.120087
-461.549591 902.393616 -378.337891
-257.881897 1109.295166 9.629569
-319.837952 1177.121704 -127.169258
-330.967499 1043.577759 -355.296936
-241.895737 1066.241577 -370.656677
-298.416626 962.022827 -384.663818
-455.777374 1260.273560 -756.514526
-578.211426 1079.458862 -795.279663
-597.776917 1061.933594 -808.633179
-330.267914 1338.420654 -684.662720
-337.876373 1022.116455 -355.715820
-246.366486 1166.094360 -129.894012
-307.037689 1170.537598 -105.716614
-310.754608 1205.572632 -255.791870
-685.481262 1288.117432 -568.028137
-490.360992 1178.077026 -776.600952
-487.685760 866.200623 -381.070892
-256.280670 1180.148682 -289.160980
-456.813049 912.363464 -347.176880
-335.352753 1146.860352 -299.193787
-615.568420 1124.705811 -725.105774
-456.660217 1467.102783 -611.045166
-480.947571 1118.944824 -698.017151
-300.063477 1053.579468 -358.263977
-513.204163 1249.799316 -597.968750
-351.860260 1211.336426 -841.290527
-529.658081 1115.784180 -774.542053
-403.194031 1302.522095 -759.368469
-492.820831 1625.071167 -492.422089
-441.697754 1201.310425 -811.910706
-370.685211 1052.106689 106.653152
-311.707886 930.192810 -416.760559
-214.298645 1000.962402 -430.167694
-179.200043 1104.903198 16.997105
-105.149620 1145.918823 -55.652477
-486.186554 1068.378906 -769.388794
-519.227600 994.925049 -243.522797
-628.958069 1139.834473 -729.828369
-630.555420 1199.607300 -693.465820
-145.270706 1167.799316 -126.458611
-271.448120 1162.322998 -109.836761
-343.720428 940.216003 -417.671204
-212.562546 1028.212158 -398.976410
-429.008942 1226.863770 -794.736023
-147.599442 1187.161499 -193.186935
-236.951721 937.671265 -477.712006
-333.408600 1335.674683 -682.117920
-184.959732 1146.933105 -73.636635
-347.793823 1323.492310 -699.500122
-415.043396 1653.565796 -506.191742
-437.382660 1168.119507 -818.737915
-371.787201 1079.308838 72.752617
-351.987946 971.992493 -370.800262
-268.411163 956.465576 -407.796265
-303.612762 1074.733032 90.930542
-276.548126 907.664307 -484.143921
-442.555542 1460.762329 -590.641357
-336.321503 1388.678833 -681.110840
-379.083588 1075.001831 -305.938446
-498.766785 1161.271851 -801.468506
-426.834137 1166.901001 -213.422562
-570.591858 1090.232666 -802.915527
-233.497101 1149.992065 -91.417679
-348.782410 888.032043 -434.203491
-203.020508 1094.086182 43.060307
-522.497803 1014.212891 -861.134888
-215.106842 961.145020 -484.352783
-700.946411 1153.311279 -681.765869
-331.557098 996.113342 -377.025360
-271.865143 895.769165 -471.974884
-395.182068 950.085266 -361.608948
-444.905212 1139.523560 -88.685181
-392.982422 1313.236938 -663.749451
-661.508301 1198.936035 -675.143433
-249.443665 1033.918579 -375.453125
-274.950287 1159.540405 -88.340599
-335.604492 1337.960815 -732.348755
-452.469604 1148.021240 -821.213318
-330.148865 1325.450928 -745.405212
-382.915924 1286.961792 -768.876404
-548.281250 1094.683105 -822.480164
-440.787109 872.330322 -399.756104
-538.089539 1646.256348 -453.694763
-334.278839 1323.871826 -739.089905
-451.044647 1286.192505 -748.424744
-647.556946 1222.718384 -682.559631
-730.286377 1111.617798 -627.164856
-460.371185 1092.721680 -12.195621
-364.353088 873.057861 -438.231873
-347.724640 1180.006836 -838.690247
-176.151337 1099.598022 44.315117
-393.327179 1205.238647 -817.238220
-513.109070 1018.734009 -865.853333
-346.999939 886.566101 -423.650818
-538.024475 1048.397461 -844.774292
-242.569519 963.658997 -422.613983
-471.205444 896.650452 -383.651031
-317.907043 1059.673340 102.885857
-637.341553 1226.028320 -688.741760
-464.475677 939.117981 -331.139252
-658.648865 1273.065063 -605.553589
-225.898026 1011.004517 -416.010345
-103.479485 983.002014 -343.652740
-464.607788 1170.365112 -821.982361
-687.360596 1145.129761 -690.491516
-427.712189 1128.986938 -852.032471
-182.794876 1079.807251 -398.352570
-530.500854 1039.736450 -856.974182
-231.832703 1150.987061 -96.072571
-466.668457 1336.342896 -645.552795
-421.456635 1108.962524 -866.623230
-192.445923 1163.684570 -124.157501
-263.870361 1091.104736 140.339813
-285.197205 1013.588623 -375.581085
-458.123901 1094.557739 -676.925964
-237.859787 1073.461914 -362.357574
-679.892883 1068.021118 -747.399292
-220.637756 1068.339478 109.841995
-118.208672 1054.083984 -418.005676
-168.689850 1095.488892 26.413395
-734.518372 1414.504272 -526.234680
-245.260284 1342.229980 -801.345093
-259.360962 937.660828 -452.647430
-402.657074 1102.211426 -31.418289
-187.604706 1096.102783 54.102856
-545.060852 1114.339233 -754.748840
-437.440735 1280.916504 -732.384155
-402.246460 883.718201 -403.990295
-308.107239 974.926270 -390.180908
-533.442871 857.474915 -197.632019
-442.562103 1287.869873 -752.441284
-697.508240 1088.122925 -725.782471
-327.333435 949.855408 -375.758392
-307.788452 1099.436890 8.984839
-441.448761 1086.565552 -849.519958
-279.199707 1329.966797 -783.147522
-413.720856 880.298889 -378.831848
-312.193939 891.178284 -462.197510
-416.238464 1296.825195 -676.904724
-372.275177 1330.704712 -717.887207
-491.813477 1292.095093 -689.879700
-691.870789 1163.586670 -682.280823
-338.068207 1063.997681 83.483566
-417.528412 1099.714722 -36.534424
-333.036865 1018.651794 -345.832184
-718.632874 1079.638428 -698.427917
-170.637955 1189.611938 -152.026398
-251.057953 976.411499 -404.034241
-400.223022 1319.772461 -744.136230
-423.851135 914.892578 -349.788025
-551.285645 1110.023438 -783.816284
-425.324524 892.907227 -381.792603
-614.595642 1226.426392 -663.253052
-620.067871 1027.999023 -783.876526
-283.461731 1292.832275 -744.473633
-371.087646 1061.549927 54.705902
-685.131592 1205.791870 -646.479309
-415.034241 1288.583130 -651.817627
-752.338684 1189.013306 -617.551086
-328.333923 1053.939331 111.650955
-408.813477 1099.632690 -27.321253
-453.606354 1121.350342 -849.570740
-376.842712 897.229553 -395.596008
-454.439301 890.050415 -393.296417
-576.173950 1272.208740 -604.825378
-486.824890 865.671082 -366.916473
-522.807129 1109.088623 -798.422241
-406.073822 924.256104 -366.016846
-461.099792 1329.949219 -623.525269
-500.422546 1128.479370 -734.940247
-417.140503 1291.952759 -726.290039
-470.487885 982.264465 -279.893921
-496.490784 1035.686035 -850.214172
-334.460938 1360.697388 -747.000671
-353.869843 882.781189 -441.278290
-269.896942 1085.647461 129.853073
-544.234558 1060.856201 -842.814758
-250.588211 1038.034668 -396.560913
-437.456726 1027.753662 -293.217865
-248.013763 1062.793335 -349.301300
-438.384735 1451.048706 -589.646729
-396.372955 1196.552490 -819.385010
-141.929367 1094.274536 71.529274
-249.438309 1112.113525 2.738304
-255.966324 948.473083 -444.550476
-511.578491 1231.531494 -752.229187
-344.103821 1251.590332 -810.819946
-377.513092 1178.243164 -841.932861
-478.735718 951.049133 -307.016418
-471.805573 1360.343506 -587.789795
-241.852341 1080.821167 132.905258
-688.858032 1112.506836 -692.085754
-632.723999 1132.144775 -735.379639
-472.349762 1506.010620 -546.991638
-151.866669 1147.332397 -67.245499
-496.419128 954.951599 -284.355835
-516.754089 1049.187866 -809.703979
-430.417206 849.959473 -446.931580
-321.757813 1328.417969 -725.865417
-347.803436 1068.100342 -331.955048
-493.999481 1247.966675 -606.845825
-267.249725 1398.318359 -745.571106
-233.778656 1370.715454 -788.639099
-432.110107 862.086487 -398.217896
-215.691727 1081.679443 80.276085
-244.050583 1396.459839 -764.198608
-591.874451 1227.741089 -582.327942
-431.764496 1239.442261 -776.742004
-388.715088 1062.008423 120.543022
-476.590851 1142.299072 -768.541260
-278.050812 1335.657471 -759.685364
-151.269135 1105.808350 -5.287161
-426.785675 1129.607910 -82.793686
-606.904358 1205.965088 -700.238647
-623.607483 1012.744690 -791.381714
-224.502533 1096.711792 58.673950
-161.765656 1125.444580 -31.432671
