ply
format ascii 1.0
element vertex 1392
property float x
property float y
property float z
end_header
-1199.864380 1005.718750 150.997131
-777.928162 426.953979 665.655945
-993.322632 417.751831 560.811890
-1302.623291 678.878784 61.699242
-1408.961060 596.022766 138.631088
-852.954956 670.211975 168.734909
-955.537476 459.028900 237.695297
-1251.556030 785.007263 -44.927185
-957.403198 422.575623 189.026367
-1289.389160 639.023071 -63.791149
-1435.931763 883.980896 567.517273
-1354.432861 921.581726 374.489563
-986.766113 497.116821 338.072021
-891.114014 405.556915 612.104919
-1298.379395 822.942932 88.948059
-965.033264 658.758606 483.507202
-1341.728638 666.875244 97.003304
-847.791443 700.009399 280.701782
-882.934998 523.183899 112.529007
-1237.139404 1011.554443 241.212036
-1244.202759 814.637146 -1.870231
-1215.620605 802.908813 -91.234039
-1288.466919 731.919006 40.044823
-685.438660 539.496277 684.920166
-782.127991 535.680054 644.228210
-1001.492554 403.040894 266.727600
-797.471130 629.978943 601.549072
-1240.833740 851.833008 72.287804
-1241.353516 883.065491 64.081680
-1381.698730 554.863281 16.970333
-955.179810 542.926758 297.464355
-903.355225 484.228210 140.575531
-877.594788 565.498108 142.405807
-784.141235 377.630432 703.401428
-901.851379 611.697327 304.652588
-857.116272 613.065125 125.920784
-815.816833 545.313232 598.989319
-1330.703003 675.690735 37.459702
-1003.426880 596.806641 428.773590
-1255.728394 899.715271 104.378647
-1224.110840 690.128052 -36.909634
-1217.686768 726.362854 -28.144075
-1252.714233 793.546753 -10.472254
-924.131958 534.859314 247.745361
-1380.531982 953.525024 481.326843
-939.462158 533.964294 568.197815
-1273.539673 885.024780 133.209534
-1239.409180 752.034790 -34.935120
-854.379150 605.401611 153.128036
-914.834351 234.830826 290.082794
-1177.084106 845.525269 193.591187
-759.380859 522.286682 641.112366
-857.291565 610.949707 130.687988
-1259.979004 909.564575 262.133118
-713.246704 589.203918 658.645142
-1378.500244 617.485901 70.810783
-821.701965 596.344849 579.777893
-704.522888 545.855591 665.944031
-834.968445 719.119995 230.447189
-776.409546 454.516235 659.702087
-860.887695 619.250061 153.783005
-1275.945679 699.253418 248.415909
-718.132996 506.157593 668.428955
-921.487000 407.880920 599.703064
-872.568298 422.540558 615.029846
-1357.816040 608.651855 21.351913
-1379.385864 644.818787 200.495712
-1262.409302 923.519653 161.395142
-885.434509 546.487671 134.772858
-1237.510132 761.774902 -96.319008
-1278.273071 870.130310 94.362816
-1280.156128 890.520813 174.740723
-1281.903076 865.956421 186.504929
-1000.296448 623.918640 454.877655
-899.417358 495.806183 597.833130
-1379.443115 976.176636 503.443726
-1266.777100 695.691101 -4.663871
-809.530090 553.369812 613.113525
-771.971497 479.826813 657.889038
-1277.451050 747.035828 30.641281
-1345.963379 918.604065 414.755219
-982.042358 519.687500 386.609192
-903.078125 690.673035 369.446838
-837.741821 708.981262 197.358002
-987.048340 483.745697 321.458893
-1018.744263 461.893372 366.004272
-1364.082642 593.645691 17.025671
-1251.038696 907.810547 163.693253
-895.986206 539.748779 189.077194
-1466.741089 490.175171 164.920547
-846.110352 590.903809 580.210999
-906.151245 511.579834 153.787888
-1283.538574 897.103577 208.716629
-1390.566528 599.344055 86.976868
-818.613403 389.412170 655.826843
-1422.641357 532.175171 199.512314
-1295.976807 786.288574 116.857147
-909.109314 640.608398 340.098419
-771.154175 563.404114 621.778320
-782.925903 506.979187 640.401489
-854.283020 410.255829 660.503601
-1260.278076 809.978699 -5.840201
-935.436157 495.142609 169.979126
-1000.080322 430.380035 263.778870
-901.652649 367.512177 612.223267
-1243.652588 783.279541 -1.385344
-1351.622681 640.642029 98.064491
-1456.148682 538.816040 224.038925
-1397.232422 575.966797 71.881874
-1350.179810 615.528137 17.330761
-1223.955688 834.127380 -20.777613
-1265.863281 742.899902 -16.082502
-1319.827026 744.624390 124.726860
-1251.842163 899.939392 209.578705
-1222.184937 955.641235 120.572739
-869.559937 651.717590 148.015106
-1318.795166 793.261597 95.508926
-1338.363281 711.500732 112.691879
-894.069519 544.160889 140.951263
-1285.510742 774.696350 36.252758
-1333.347046 807.557617 227.684479
-1251.353394 827.834167 26.372612
-895.571228 526.319946 139.831802
-1191.902466 1043.683105 148.427582
-805.822876 460.908722 656.590271
-1206.627930 1049.875732 224.738251
-813.610901 348.877472 675.485291
-847.690308 648.148560 564.375000
-1398.136230 564.501770 62.026100
-1021.895874 583.024902 508.027130
-838.988159 368.364471 670.007935
-1000.145569 395.841278 570.590637
-1017.325562 553.831848 471.483582
-1222.235474 948.144775 116.965302
-855.253479 695.701111 284.749908
-953.873474 457.030945 196.195648
-1329.999268 819.023499 264.854248
-1255.709473 891.272278 146.446136
-1223.774414 801.681580 -82.310722
-1218.494019 738.305298 -65.580811
-980.573914 624.360718 465.526367
-975.704041 404.308868 569.806641
-822.529297 503.635010 628.997192
-1381.214600 818.836792 330.466431
-1001.646973 446.886414 314.819336
-765.689758 624.169739 612.756592
-1326.653687 809.062622 208.270111
-695.497986 592.388489 680.323608
-1346.183472 685.514526 71.627388
-765.419434 629.293762 604.079773
-775.837341 420.070618 666.735413
-930.687622 475.093323 155.693832
-1087.140991 448.891663 428.769379
-1294.475586 841.708374 155.099655
-710.386536 520.403503 683.747498
-1250.016724 754.230408 -43.382030
-886.131775 589.324036 223.874329
-1243.713013 727.669983 41.786919
-1211.051025 821.806396 -26.373028
-893.891174 662.684387 333.291626
-1221.249390 991.924622 164.123444
-969.191345 625.065735 410.587189
-1354.558716 637.145264 79.496208
-890.902893 578.202942 145.086807
-1393.096436 587.744019 183.215576
-1295.206177 671.808105 -39.832794
-1286.631836 667.383240 -20.779713
-1210.078247 901.898254 62.578297
-1188.733521 689.300415 53.854977
-1234.056885 765.381348 -5.363743
-762.907410 498.595764 663.132690
-1313.179565 792.104492 83.581673
-1330.148438 582.697571 -31.156784
-1235.031494 857.633789 11.426417
-1314.026978 635.477173 -4.086844
-1287.573608 855.468079 125.017815
-985.862915 394.202606 238.557404
-952.387939 497.109558 223.533051
-1002.170166 460.691010 294.349091
-742.216064 464.181091 690.368164
-880.839844 587.061462 209.985809
-940.284851 529.977783 552.908752
-1219.827148 870.805847 -12.062022
-867.638245 502.188812 601.944641
-862.015869 666.650940 187.003464
-1341.631592 647.926636 36.957840
-982.550232 518.407104 345.630341
-1271.997925 796.413879 262.496246
-939.913818 445.827118 225.265732
-1202.006958 958.655334 107.526299
-1357.559692 553.652771 189.066711
-863.632263 642.573425 130.096085
-1046.048218 419.804779 389.832977
-783.089111 493.393219 653.020630
-948.704956 451.779846 585.004028
-759.787659 598.127014 607.399597
-1024.171753 519.809937 482.713837
-921.526367 586.092590 548.617126
-966.954102 433.387817 219.059601
-1437.046265 484.345367 133.126068
-1258.650146 833.356445 46.949486
-1450.538330 852.893005 525.100037
-777.444702 494.060120 638.349548
-1322.278809 913.057800 345.885040
-1422.673584 649.026489 272.560791
-1405.665527 615.758972 182.882339
-1420.905518 538.759888 152.441895
-1374.608276 696.313782 167.607269
-1345.665649 936.026672 364.754089
-1276.034546 757.716309 24.076990
-850.075012 666.859497 266.765869
-1251.824707 826.538086 21.698191
-1261.806152 892.460205 199.918793
-1335.601440 623.997559 -2.810428
-1294.497192 816.017639 75.112610
-776.988403 536.079102 629.196228
-939.085999 440.923523 175.520004
-724.473877 625.955200 614.683228
-786.217896 388.584473 676.463806
-1311.053223 850.819031 180.374420
-1381.085083 629.367798 102.551109
-870.617859 635.212952 232.251572
-1349.327148 679.070129 113.186211
-856.698730 421.443146 639.619263
-774.949524 354.896851 709.012817
-948.814087 429.569214 176.273346
-885.113708 618.794617 272.605286
-943.511108 471.541107 243.445435
-993.045532 472.803467 322.992371
-846.293518 517.223267 615.291077
-899.959839 556.044495 562.076355
-1272.938721 653.940613 -118.182236
-1308.614380 842.870178 150.117188
-709.216614 511.315704 681.233521
-1008.312134 538.039917 371.431396
-722.431030 444.843872 714.965637
-1379.588257 591.682434 95.007721
-966.589294 559.853027 327.876434
-935.018066 393.146637 595.037415
-973.318542 498.885651 566.840820
-1309.535156 853.835754 174.659119
-903.032288 505.812164 589.151123
-935.117859 495.563385 176.086517
-1306.053955 827.082092 127.266937
-1398.024658 980.498840 562.843079
-1356.527222 932.092041 417.563049
-1253.079346 716.621948 -87.478287
-867.181641 605.446106 199.356842
-862.430786 367.656952 648.797180
-1357.524536 648.442322 127.091652
-960.236633 653.005005 421.652985
-1320.124634 816.626892 181.856186
-1225.176392 968.744019 148.279907
-980.606506 617.669067 449.633331
-1382.847168 670.874329 163.787125
-907.963501 525.472290 591.349365
-1332.341919 821.660034 264.767120
-1253.371948 981.472778 219.723175
-1380.665771 525.367188 30.148808
-1330.502686 895.622742 370.836548
-844.411621 622.029663 573.166992
-1018.061340 501.277283 402.917694
-1435.351318 450.670685 70.312683
-1299.350586 763.747498 66.240494
-1024.079224 530.636597 436.462280
-1222.048096 968.607727 170.796356
-1311.485229 699.375427 278.169861
-920.753113 480.729675 213.517761
-845.994995 514.681213 610.712341
-1284.289795 830.033875 248.518326
-1336.729980 877.505310 462.933472
-976.156311 479.524719 569.948608
-883.019409 473.663940 590.290588
-1391.063232 592.100159 81.994621
-1220.323242 875.177979 15.824136
-815.282532 557.537354 609.328003
-766.250977 549.627563 635.323730
-961.693665 598.361450 374.326660
-1190.946289 1031.301147 129.775818
-873.748230 690.381165 292.240234
-894.485168 590.610352 275.110260
-1259.844727 843.440125 59.728214
-1188.909546 678.769348 105.714088
-920.145264 510.860077 181.395340
-1244.693115 688.108459 -108.345009
-1268.792236 667.882813 -111.316467
-1411.362305 491.872681 96.574181
-1213.640137 927.418457 219.683777
-1280.291992 702.583618 -44.520863
-1284.902100 869.889465 197.024719
-1292.671265 616.222778 -83.012184
-1419.369629 562.271851 158.163849
-1278.004395 887.145569 175.694702
-1057.007813 442.788879 362.065125
-880.671570 517.646545 600.987244
-731.958862 588.193970 637.270447
-956.980225 424.193756 165.904877
-1209.896118 921.943848 200.693680
-1426.580688 445.504364 177.500458
-1289.325073 642.737183 -98.154732
-1381.768066 951.070923 527.537903
-913.145203 469.897064 160.811737
-959.553833 484.824432 574.156189
-888.431519 378.686584 622.484680
-1266.261230 695.907471 -86.116623
-914.049988 517.801758 200.045227
-1306.660400 778.258667 137.306976
-822.312500 449.226746 639.886841
-873.134155 566.543945 157.082062
-1217.142456 965.748291 161.705215
-1231.730835 994.277588 186.792633
-970.395020 273.408783 256.424133
-971.203125 553.354614 561.834167
-1009.256653 460.724152 308.445313
-1385.617798 949.736633 478.799652
-877.801575 380.844849 638.166748
-1199.481934 691.260864 121.729462
-1225.581665 722.256897 -113.916641
-890.754395 588.426758 227.397888
-881.795593 359.124176 648.476868
-849.934509 336.248779 646.990295
-879.487854 533.690002 590.591553
-973.547363 397.370361 123.420113
-1387.278320 575.449158 48.626549
-1286.010010 714.456909 42.556664
-898.730896 410.545288 621.697327
-815.307312 365.356720 661.015930
-1358.093750 892.301270 391.168335
-1244.481689 843.029785 7.210878
-991.210632 568.940491 390.188629
-844.846863 662.349487 225.727600
-1017.652893 397.893860 342.475220
-738.776062 555.508484 642.268372
-1359.538452 585.763733 -0.056289
-1216.897461 929.855774 104.217804
-1220.492676 843.007996 -21.132412
-896.651245 704.038818 404.568848
-1400.281128 564.124695 73.454094
-1255.521484 864.294800 74.370087
-1404.309082 555.195557 44.892262
-993.995300 533.879822 373.659882
-728.121704 495.620667 672.543579
-1324.176025 661.446350 40.694820
-773.870972 607.471619 596.450500
-1274.851440 914.808167 250.997299
-1232.088013 765.670410 -51.323093
-1275.351196 892.850037 269.564423
-1245.187744 733.794983 -70.592560
-870.322754 502.978088 608.766479
-1313.635376 633.987427 -42.924770
-1306.205200 837.456970 159.136169
-1247.569092 711.378174 17.309645
-883.649902 632.732117 124.068764
-961.940796 522.186035 353.758057
-1415.021973 625.795959 141.288376
-1448.709351 478.234131 135.874512
-901.578796 636.875122 351.944153
-912.475037 475.162933 593.535828
-918.557068 509.750305 190.463196
-937.345886 642.878845 345.172302
-1299.456665 669.475220 -42.772572
-1284.027344 812.571594 123.560028
-1312.985107 830.757019 138.295273
-876.705566 581.812988 171.166519
-1207.029297 945.425659 188.449463
-970.285400 501.052826 313.484100
-815.705200 639.290527 571.018250
-1409.390015 552.731079 112.654663
-1405.680298 515.599243 41.992908
-874.260986 740.313232 305.089264
-1309.230103 830.629578 222.937103
-863.317200 722.445862 331.572418
-728.888489 572.444214 642.111877
-935.946350 581.013489 334.690643
-1004.289246 398.537659 276.334381
-730.439026 544.715820 651.296936
-839.633484 730.441406 285.634674
-973.933350 460.113037 228.970169
-1366.456543 693.982300 126.999611
-1346.218018 931.349792 418.685730
-1380.403442 605.398682 65.506653
-1064.664307 397.548828 389.489227
-914.253052 471.410217 600.478638
-954.383667 612.695557 406.362640
-1438.940430 586.493958 248.356796
-1224.989624 727.699341 -133.222275
-912.319946 584.972656 567.537415
-1007.780701 360.004669 231.666962
-844.424500 409.984894 652.396240
-705.378845 500.478638 721.991943
-988.313354 565.219482 458.506470
-1292.329224 688.470520 -57.080788
-873.510498 559.780396 148.761322
-853.229370 698.415771 192.854691
-909.148865 541.925598 232.687698
-852.588501 645.208191 155.407928
-917.683105 372.571625 617.740784
-1037.056274 507.605560 461.889862
-1228.020752 744.804688 -112.692276
-853.459717 500.104401 617.538147
-1330.565918 655.905640 281.784393
-876.127014 569.858887 136.087082
-933.609497 505.083313 243.618652
-1296.913818 892.314941 401.046997
-777.188660 639.308838 577.980347
-980.851868 428.721954 114.957329
-1298.482788 691.453613 -56.027645
-1253.398315 912.538635 207.330765
-1326.068604 643.065674 -14.984388
-921.487915 451.008820 133.698914
-1364.565552 672.089050 230.215042
-1013.148804 473.036011 407.103638
-1053.959351 422.160126 339.580994
-745.701904 634.962585 619.395264
-725.703064 571.367065 637.063171
-1373.227417 638.898010 140.111740
-1288.755859 667.616577 -73.218597
-1357.729858 895.160583 386.871521
-1324.220947 716.075684 133.988800
-1375.411499 822.440674 342.184052
-1259.367432 868.487366 87.034142
-974.496704 494.123535 321.528076
-797.867676 505.519989 624.296326
-810.691711 575.282349 591.432495
-1215.754639 940.130737 42.407711
-1244.477783 695.478760 16.029984
-1313.957153 826.483337 167.616470
-858.108521 664.548340 245.913071
-916.794006 539.511780 232.730896
-798.716431 483.788788 630.478821
-1257.085083 695.401672 -58.024887
-985.720581 598.167542 414.914459
-711.348938 517.763000 671.690979
-1395.828735 947.505981 559.473083
-939.907959 429.924438 201.280212
-1330.573853 803.394165 148.639526
-889.796570 669.048279 347.230225
-1226.011108 884.770142 227.241333
-1276.524536 914.148926 169.458847
-975.610901 393.815460 138.986252
-901.940979 471.608643 607.671509
-848.465271 433.382782 641.270935
-914.005249 495.578369 170.132401
-1018.191284 580.946289 498.817841
-983.296692 609.917603 424.756989
-1372.499756 598.732178 42.097221
-930.370667 474.701904 180.076233
-1208.079224 844.002380 -46.476379
-905.027710 483.936005 594.479675
-1240.332153 775.109741 -22.765303
-1352.578857 566.238953 -26.118824
-870.203674 503.301239 589.215149
-888.804138 363.562012 629.384766
-725.415588 545.932922 649.292297
-1288.369141 696.955261 -83.092415
-740.746948 558.536011 639.041321
-940.971497 467.737762 218.150528
-901.866333 512.918762 164.090424
-976.283020 593.927063 566.409729
-1305.054932 770.327332 109.256401
-817.742432 392.181458 654.083984
-825.314392 546.345093 613.434082
-1260.331177 852.122681 98.400093
-1341.220947 601.494263 -18.162893
-1032.947266 602.111755 491.393555
-756.729004 513.224060 641.031372
-1231.267578 777.406128 -62.829708
-959.676941 413.222351 161.020401
-1015.758423 417.177856 323.187805
-694.836426 677.532837 354.116882
-1223.883911 824.329468 -12.348226
-874.410522 552.960327 157.690155
-1427.661743 514.595093 147.797668
-1309.886841 835.916077 133.200333
-953.763184 477.020599 576.671143
-822.573730 494.411346 623.511108
-862.290710 616.409851 199.838882
-917.250671 605.868896 318.697784
-1230.699219 743.316406 -51.857914
-799.261841 544.121521 621.724365
-1309.060547 890.747375 274.777252
-1369.478027 683.625427 110.258415
-1324.460327 897.424377 293.681366
-949.171204 429.700836 122.567856
-1002.742920 351.748108 192.596771
-938.216309 534.627625 312.199219
-817.698608 496.126678 644.262207
-1003.681641 440.455505 326.131714
-877.232422 621.151550 210.822998
-817.261597 336.463348 699.433167
-1308.750244 649.983032 -6.546156
-927.793335 714.836548 429.332092
-879.231567 334.728149 643.657043
-1288.510132 758.244385 86.191811
-861.427063 575.918579 591.183716
-821.207031 426.397888 647.114136
-1236.353027 851.854858 18.509497
-811.383972 557.023560 600.750610
-1192.216187 987.154907 93.001564
-930.792053 557.925415 239.711914
-1344.734741 629.116211 -10.926636
-834.970093 413.540131 645.106873
-1383.303345 670.743286 172.702957
-977.411682 367.944092 582.744324
-1269.394043 660.412354 -84.180450
-740.413818 591.307312 636.427734
-731.285767 381.669891 719.540588
-1265.518311 891.103699 183.905090
-967.654663 408.186676 162.848083
-1274.059326 884.978516 138.804718
-1016.717346 608.952454 515.294434
-1198.694946 1002.090454 110.778816
-972.131897 482.401123 268.307251
-1353.834595 937.105042 443.410492
-850.183960 688.540588 260.098419
-921.419861 476.050781 209.121140
-853.815491 367.144836 646.328674
-923.135254 520.352356 224.730209
-1219.081543 689.202271 -1.684148
-909.805115 510.808960 137.347748
-859.597778 664.077332 571.346436
-1310.763062 795.860413 230.283829
-935.830505 525.959045 305.535278
-1195.128174 994.537048 108.369331
-1321.656128 748.778870 148.638428
-914.038513 532.588867 561.166016
-893.224731 601.114624 269.694397
-930.135193 502.333710 99.667404
-1255.245850 881.238220 58.500774
-1263.385742 842.508850 42.177120
-1262.691040 740.235352 265.440033
-977.895630 444.372498 116.567909
-906.323120 675.095215 392.425812
-737.725769 543.486633 637.835327
-792.488281 544.563416 615.994019
-877.104736 603.428772 211.130875
-1200.188110 1004.445251 189.720200
-926.994263 563.114746 260.582611
-745.252380 399.085297 694.465576
-1228.201904 908.021790 66.283852
-1247.774292 892.915161 92.935669
-920.764343 531.810730 552.612549
-1247.793335 814.396362 43.490585
-1259.918823 911.816528 236.941757
-981.606567 362.241516 175.862762
-1209.637451 823.227295 -64.021690
-752.981628 436.653625 685.072571
-1275.163574 697.340881 -31.891869
-1340.480957 630.230225 7.394989
-1322.484131 626.318359 -4.874000
-1398.307861 561.251465 81.480614
-863.729675 605.598755 123.778778
-1227.793213 795.505310 -101.391640
-1302.536987 771.603333 113.228233
-1042.228394 403.247925 346.607727
-1359.739380 570.506165 213.303925
-1196.579224 991.782776 94.375000
-1253.073730 777.096619 0.721721
-1274.748169 816.176941 43.107170
-1359.599609 896.146179 380.664093
-960.814819 620.622986 393.012024
-988.629517 375.736115 204.441620
-1380.994751 645.607300 54.295631
-1309.331543 869.095703 293.388031
-1396.754883 634.564941 113.433136
-1253.718628 909.046570 238.527512
-1254.371216 930.533875 168.997894
-1373.465088 663.577332 124.062302
-1086.026855 460.424133 480.220184
-1330.221313 672.186035 42.849686
-1396.757935 660.729309 196.031769
-995.703796 351.372620 183.145752
-1288.628418 844.232300 220.960037
-873.446350 654.513916 539.374512
-1032.981445 440.063477 415.624695
-1256.306763 693.635925 -55.263432
-1471.711304 480.223450 113.858185
-919.841248 339.874634 606.969543
-1422.776733 459.233490 188.206818
-1273.179199 860.676086 216.161774
-980.225098 508.458282 344.946503
-866.196594 640.857422 243.632889
-1376.187988 687.869629 166.549194
-1414.639893 484.276093 79.595879
-1390.883423 960.847900 501.851196
-842.937683 399.478882 653.051941
-1220.635376 955.521729 75.120331
-989.226440 591.598328 436.456177
-998.896240 570.189941 389.217865
-829.468384 513.488220 616.857971
-914.675049 584.836914 314.284821
-1237.511719 739.457825 -94.425217
-998.040283 442.894226 304.023041
-1282.742432 684.150208 -48.095608
-820.214539 405.471741 662.335083
-1239.191284 755.600830 -71.659081
-1181.869751 990.560364 175.703110
-1389.416016 594.080078 149.375305
-1336.456909 880.061707 367.707855
-1311.284302 760.970093 183.252747
-944.444519 499.312927 559.149414
-883.197266 614.630066 246.917114
-870.604004 657.861450 240.961563
-940.058350 665.874634 392.929321
-877.014954 586.237000 110.013435
-1286.834839 708.437927 -73.022453
-923.767212 625.929993 355.434479
-864.143921 500.690186 592.177856
-1241.142212 922.455444 177.777115
-960.237061 413.664276 234.179535
-1250.932495 709.828125 -50.755806
-937.203308 460.090973 135.761307
-864.657898 644.142334 145.073990
-904.749023 626.619324 260.350708
-1316.453491 649.222961 -17.856432
-1188.195801 990.732605 180.088882
-903.125488 653.483398 367.302490
-728.341431 422.151215 702.426331
-1207.435303 1027.480103 197.605591
-835.143677 648.981750 555.208069
-1308.667480 801.496399 176.951965
-1231.771484 898.058838 31.444981
-1283.473877 699.505066 0.974906
-981.771484 369.932617 233.971725
-895.161377 568.116394 254.093491
-1219.262207 953.116760 157.506332
-1460.370361 868.202026 555.835144
-1271.099731 757.985596 29.758436
-1430.927368 522.936523 80.629417
-852.036621 455.154144 642.217041
-1352.916382 640.147705 45.206791
-828.686890 650.479065 567.594971
-925.840942 482.130920 138.714935
-785.409912 484.613708 657.298157
-943.202026 559.229187 557.670898
-920.906250 489.592804 137.555191
-936.467773 549.669373 292.517456
-909.958191 542.053406 228.208771
-951.148193 447.801575 104.079781
-1289.275146 854.658447 116.890450
-1261.833130 907.416199 130.664398
-1224.808716 767.244019 -88.953812
-950.390381 435.324158 584.873657
-979.668945 376.970947 117.734016
-1330.695068 844.193604 262.765808
-1232.749268 712.366699 -100.362038
-1196.849365 991.765869 87.559731
-970.973328 630.236633 423.090332
-1239.279907 798.527100 -71.212364
-746.253723 443.975342 705.117126
-1355.800049 596.618774 -20.602768
-1309.394653 749.034363 171.797119
-959.770630 504.303589 319.651093
-1337.458862 833.845703 460.921692
-863.347473 587.161987 146.398529
-1004.418640 352.495361 184.085052
-810.393127 641.706360 580.404663
-848.617554 658.883911 226.918045
-1260.583618 876.814636 64.590218
-1018.979980 430.511658 347.212372
-875.376465 568.522339 140.051819
-951.103455 577.843689 380.530731
-742.983704 475.990723 666.350342
-946.870911 513.129883 277.184326
-1267.483398 778.658264 11.467251
-1212.379272 932.634094 26.605742
-1214.000610 851.346130 185.097092
-866.303162 481.068298 597.974182
-1216.011353 898.072754 34.159649
-1271.913696 812.894836 36.823486
-762.382996 363.464386 710.396667
-735.810730 469.070160 712.678772
-1280.825073 638.687012 -83.757751
-1236.649170 928.039185 155.818161
-1388.277710 663.773193 162.887878
-1215.645386 854.807983 -48.711655
-962.411377 434.805450 208.758850
-902.074158 572.889526 567.549561
-1283.112549 844.418579 251.870850
-850.300964 693.153564 161.075119
-997.871277 483.717224 358.492981
-1223.776489 693.069275 28.503061
-721.798096 490.271545 680.791870
-1282.187134 846.585999 180.149155
-848.404114 628.305115 190.728180
-830.128601 607.914734 572.003845
-925.271729 479.899139 223.805374
-729.967896 550.804443 653.535034
-841.187317 512.644348 619.303223
-1347.353394 900.748535 371.293365
-817.154175 453.015198 632.460510
-1383.317871 594.969238 22.896360
-857.601746 584.811157 129.278000
-1310.314819 646.226868 210.281281
-775.382751 431.976288 678.895081
-788.923645 423.348511 660.921875
-921.854553 479.986328 151.187073
-961.352173 410.624390 155.332321
-1408.955078 963.657349 560.012878
-1212.015137 891.672791 17.431229
-885.226929 428.842590 619.995361
-879.935364 394.631744 622.194763
-1253.269287 886.204224 142.044281
-893.902710 322.545837 644.662354
-812.735657 474.800842 646.917664
-1398.648560 553.648132 155.225937
-849.878052 428.638092 632.653198
-907.003174 574.355408 243.967041
-854.172546 352.760345 649.397156
-896.545227 602.258606 215.570450
-1402.764282 465.376740 125.983368
-946.802979 345.736145 594.580078
-1250.059326 842.909302 39.117260
-823.317383 344.781677 674.125671
-1035.446045 489.942688 424.820526
-1314.057129 553.848450 278.625641
-925.947632 500.884491 578.338928
-1312.875000 710.831970 60.467281
-744.585388 419.870514 690.532532
-1316.554688 899.590332 294.815704
-1375.591064 695.551331 180.241623
-1412.473877 573.046936 94.480431
-979.345398 403.394135 127.213448
-972.266785 401.515991 177.542130
-1227.412964 913.572449 105.832413
-904.480164 531.164551 204.177811
-920.936096 495.360107 160.903534
-1409.758179 535.830688 93.686661
-823.088928 354.659729 665.924011
-988.742126 488.593170 368.481445
-1324.213501 632.238586 221.640030
-1277.053711 693.646667 85.129494
-905.171509 609.610291 281.589050
-1016.892334 407.770172 274.629425
-1012.282532 543.917297 444.058807
-1231.432251 846.470764 -15.754552
-1363.227783 529.384338 -13.142117
-888.009094 524.451782 589.908203
-1279.193481 747.304810 78.114075
-858.331848 674.625183 149.305374
-881.484314 625.824097 206.596527
-995.394531 451.663147 302.289673
-1224.708496 816.007629 -3.158630
-1026.100464 604.986572 525.835388
-886.339294 604.393677 254.244675
-1356.213745 928.073425 440.875610
-1337.166626 919.536926 291.064026
-823.413269 511.989532 618.683533
-710.081543 537.816284 666.897522
-870.771240 578.010742 200.965057
-771.035645 586.059998 621.423523
-1008.240967 421.581665 566.176880
-685.179688 517.168579 691.031189
-1187.003662 958.777405 210.968323
-1234.183716 844.037170 -31.730917
-860.692566 678.565857 242.970215
-763.725830 405.560852 684.548584
-861.011902 568.081787 581.879028
-1316.528931 696.830872 231.616928
-966.145325 405.835052 178.066971
-1353.342041 592.775757 38.255978
-1350.345093 683.347168 87.278946
-1316.092407 658.578430 204.733017
-1369.728027 908.403564 362.710876
-936.655090 528.044434 277.168518
-1472.983521 616.325684 307.242554
-1262.391968 869.978882 224.861145
-872.665222 682.546265 278.202454
-1398.749023 613.593201 164.704453
-1276.046875 844.460693 220.331604
-1230.890747 757.631226 -73.368858
-993.878906 488.394409 305.632721
-1370.589966 682.428406 96.356499
-809.454346 398.179504 673.487427
-1258.627319 681.911072 34.287556
-1222.777466 734.368713 -133.835007
-830.817078 400.921173 648.937805
-1269.013916 901.619873 167.087997
-1194.608643 923.240173 14.669805
-1288.025146 907.176941 215.806366
-845.564209 695.380310 149.035751
-1280.010742 862.659241 131.196640
-969.796509 439.565216 560.506226
-709.662354 587.913940 657.336731
-1418.904785 470.904663 51.541584
-968.191284 658.009094 489.381195
-1349.342041 882.979126 351.389343
-1350.790161 618.643921 58.810715
-893.975952 546.301453 151.373535
-1299.350708 827.951538 175.919083
-1004.565491 485.315582 373.927673
-1189.407349 1066.453369 206.492584
-1462.123413 663.695374 323.586121
-887.716370 602.648315 566.994141
-1246.144897 740.481567 53.555538
-1397.786621 624.504089 139.776535
-779.392883 438.296265 660.754700
-975.133362 580.496094 376.469940
-885.304749 472.071014 594.294922
-937.382080 483.296967 224.806107
-1269.352173 820.785706 232.450668
-1277.014893 804.003662 20.306580
-869.221619 671.668274 293.816345
-1516.594238 602.175781 386.813538
-926.995544 557.928345 320.774475
-880.539551 574.966003 193.236115
-784.304077 568.814819 607.359436
-1262.785278 863.533691 95.168831
-1243.638672 822.313354 -17.411310
-1236.978516 991.622620 195.707718
-1400.361572 553.255005 57.662262
-681.532166 540.135132 693.780823
-896.235596 617.325745 289.611450
-1041.917725 503.336639 394.611694
-846.875244 397.915253 632.796753
-709.861389 490.443359 686.811035
-813.432739 454.901459 655.625061
-1302.745117 817.991028 159.268951
-742.085022 578.918030 635.358826
-1276.620605 784.557312 39.420666
-851.704407 627.258240 557.068848
-918.384827 463.310913 176.659912
-1314.466797 691.898376 -10.529204
-1377.134155 517.451660 101.585770
-927.645020 647.936768 374.083527
-1237.963623 840.285706 35.440628
-804.429382 505.839203 637.011047
-831.532043 347.696045 660.367676
-1247.173096 878.373535 36.327435
-1045.985229 515.571838 479.260254
-1343.694336 593.751160 -27.803745
-798.066223 374.796600 676.590576
-855.725952 671.799255 238.025970
-831.739136 724.947449 287.873169
-849.308716 680.785339 201.108414
-890.633728 357.086456 635.876709
-915.047546 473.725006 146.397415
-1219.976074 932.657471 134.201431
-966.498474 403.267853 166.985291
-858.506287 396.848816 637.251648
-923.191223 331.014679 618.632874
-1304.799194 831.366455 115.371658
-1226.740356 741.299683 -129.593460
-682.737183 511.438721 697.833008
-767.229370 506.632782 643.259766
-825.989868 592.667969 589.920471
-960.803162 501.090118 547.571960
-850.116699 460.522980 626.863464
-744.226074 608.791687 609.761658
-1225.131714 954.257263 180.503204
-1368.759155 530.096008 163.792526
-1409.858032 534.024292 77.523308
-918.189087 507.951202 175.106293
-1283.545654 793.767883 202.089981
-1403.700073 560.706360 84.165482
-1407.038086 606.266052 180.615036
-883.333801 711.321533 392.699280
-925.729309 660.501892 371.673279
-1376.217529 977.136902 503.883698
-1355.930176 648.401123 27.899580
-1231.950195 784.322510 -54.735306
-855.202209 464.973877 623.075745
-1456.128906 495.705200 171.375778
-741.158875 459.418793 695.487549
-854.655090 494.650665 618.426819
-900.865356 523.418335 98.922050
-1361.389648 625.651184 48.679764
-1510.511597 587.332764 323.706268
-962.458862 470.690491 256.466370
-1296.565186 646.086853 -67.653160
-893.049622 553.120056 203.557236
-711.980225 554.828674 665.145874
-774.124878 605.719543 605.789551
-1294.220459 837.201660 91.449387
-1217.284058 1018.685059 159.120499
-1393.346313 646.716431 90.450577
-1237.408569 881.222839 19.535873
-1264.722778 681.705750 -69.319092
-1324.045898 820.287598 272.307770
-1322.453857 642.065002 -28.071503
-769.703064 420.208527 693.317383
-774.010376 603.622986 609.036438
-1340.752563 886.644043 370.125488
-879.398621 546.035400 585.531494
-1049.427734 397.361267 410.991425
-998.194458 409.924103 269.239502
-1349.967651 628.243835 -0.331926
-885.515259 703.176147 324.436066
-1268.637573 877.315979 138.688522
-819.003967 440.646698 665.572937
-1273.916504 854.382874 206.253708
-1339.909180 614.733948 -36.557865
-986.116943 497.042664 349.683228
-772.279480 449.522949 668.201233
-899.697388 406.331726 609.077026
-726.443787 594.798828 632.197266
-1225.343384 858.711121 40.042118
-1284.565063 840.691895 175.035919
-939.496887 498.855072 237.364090
-1358.202393 723.796448 119.663620
-938.072632 458.269806 170.551666
-855.670715 517.626709 593.939819
-804.985535 644.762207 584.421082
-945.533630 576.991272 330.587494
-1229.515503 762.814819 -101.440262
-1209.741211 935.785400 194.779907
-1222.157104 933.199219 213.012894
-1400.007202 508.691956 49.425442
-1266.715942 906.774231 208.373428
-855.962830 682.149231 193.264374
-909.769348 525.736450 212.845322
-1070.326782 464.456055 434.715546
-1194.417236 1054.384766 199.373886
-1296.137207 780.704468 71.292130
-951.289185 557.139832 322.207794
-875.508850 558.913818 568.224060
-727.783508 579.819519 643.269104
-1366.623047 668.766235 97.228134
-774.841919 416.275543 668.394165
-1292.740601 826.803955 227.009598
-836.290405 389.621674 646.366882
-1407.409180 970.446228 566.377441
-1347.630249 569.120117 168.255402
-1314.654175 596.894043 -44.633224
-1311.160156 934.545837 390.949921
-924.212708 488.613708 159.184113
-1371.406738 613.951721 66.222527
-1242.404175 715.977539 -116.815117
-922.967651 318.342194 633.734680
-1314.733521 841.832886 184.715469
-946.701294 416.850830 586.213684
-1254.762451 776.615051 -31.697598
-872.544739 559.984375 591.846069
-739.203491 399.108704 711.127319
-860.217590 657.564148 244.940674
-1325.191284 824.952698 338.456299
-1212.467896 707.815308 -16.925735
-1292.563232 889.014648 189.492493
-1265.275879 696.320618 194.589676
-703.123047 672.517212 388.357758
-879.198242 737.808350 349.944183
-933.972656 667.667114 412.766449
-1388.710571 671.212585 128.402771
-1253.915649 964.514343 207.906906
-1296.809326 649.745972 -55.825748
-719.030029 476.216949 685.694824
-845.631104 687.143555 220.537796
-1471.654785 616.101257 342.024445
-1301.925537 860.947205 174.746613
-1296.184448 794.619141 65.541603
-847.788696 434.558472 636.591187
-1305.815186 853.066223 259.428894
-727.994995 701.031372 502.661835
-1275.763062 829.650452 126.226715
-850.696960 658.707886 170.971634
-1276.624756 687.468811 -4.139621
-1211.678833 938.408936 31.606398
-832.181641 706.454346 269.996826
-1032.377441 552.042664 460.234039
-768.578613 478.836243 648.280884
-837.268311 668.670349 554.542725
-848.813049 337.848419 655.419800
-847.304932 526.518188 609.356995
-900.141052 426.562195 606.674683
-1461.164795 622.029968 313.984039
-1210.231079 1014.728882 187.824020
-862.025818 665.242737 560.364136
-1050.148315 543.572510 490.173096
-869.498840 648.772156 245.570526
-996.718750 366.919800 203.593079
-909.491638 396.831665 617.867065
-1218.781860 775.835449 -98.655045
-882.084229 661.953857 290.011597
-1315.169189 798.814270 187.433578
-854.935242 649.544128 155.869736
-1392.834595 650.261658 166.380112
-1430.704956 888.170654 555.878296
-758.940430 490.078888 664.723083
-1395.768555 477.911438 122.008232
-921.437195 465.166809 168.561295
-768.785706 424.218109 674.518799
-863.065857 604.955994 187.576248
-1286.107178 888.411072 183.162827
-961.330750 452.488251 246.792969
-1399.341675 677.789063 278.164368
-1370.959961 545.203247 131.924469
-1373.094238 547.050415 -4.755204
-1302.432983 647.454956 -87.017220
-1195.728760 978.914063 90.897537
-803.111633 457.118530 656.671387
-1243.371704 741.634033 -51.658741
-983.232056 409.768677 136.487335
-977.429382 431.262909 242.194839
-987.813721 586.281372 441.380646
-936.193542 524.928711 549.590942
-1000.060425 581.977051 459.537354
-1012.048950 423.244141 326.949982
-1395.623535 580.089783 137.055008
-957.092102 472.035706 245.727173
-828.352600 546.532349 596.634155
-1413.242065 491.889526 189.744980
-900.007446 490.961853 142.130508
-1258.788208 705.721558 -67.896309
-837.307190 693.203430 207.472397
-1234.435913 911.560791 82.995316
-858.231934 590.379639 150.383072
-1238.041138 738.831848 31.351347
-950.856079 440.231140 214.844208
-1212.676758 826.746521 -54.623558
-1347.094360 811.265930 432.103424
-1280.257202 698.601196 206.340042
-959.042480 405.395447 129.596954
-1243.295288 736.066528 -56.448090
-1092.152222 448.082977 442.270416
-972.283752 397.172668 244.480118
-920.194397 574.859375 316.077606
-1005.325378 396.672913 206.627914
-988.437622 384.187256 224.342072
-1361.401611 684.176147 104.830208
-668.774902 688.076843 341.971680
-899.602295 358.486908 614.682434
-1020.396179 441.851715 343.270477
-773.353760 595.839294 621.643250
-835.366333 678.880249 190.316193
-763.340149 484.325897 648.845459
-975.023376 369.011414 139.914841
-958.039124 478.867859 294.049316
-932.848145 478.268280 194.228455
-944.853943 420.921173 159.187241
-1424.369019 684.315186 338.612061
-870.387573 410.076569 631.378784
-1401.985107 945.488037 548.772339
-1258.461060 715.452637 -104.686165
-732.129395 600.550415 619.996704
-1326.648804 633.317322 179.574692
-920.982727 511.881195 202.492966
-1321.917725 722.105164 236.365295
-883.138794 655.505310 127.828743
-822.940979 557.502014 602.328918
-826.236267 690.372681 222.573105
-758.050720 579.434998 625.920471
-934.775269 473.879944 556.310059
-975.463745 620.683044 458.151611
-876.646667 632.153625 109.849861
-929.216309 466.110077 154.758987
-919.229614 467.473816 190.445053
-995.643494 516.002869 369.881104
-985.296387 399.614441 238.945984
-906.384399 530.255066 179.609299
-727.941772 567.209534 640.053406
-869.992065 535.280945 595.874756
-1332.154541 565.533752 -46.343712
-801.232910 643.055725 600.217651
-945.871765 359.489349 597.310303
-998.735229 415.079956 292.489716
-851.229065 644.034302 165.368759
-1271.608765 894.257202 129.725006
-860.243713 587.458069 174.517181
-1189.730225 863.957397 -38.736862
-1277.438110 860.012390 156.714050
-752.549438 579.977844 628.589905
-745.138123 489.732483 658.776855
-958.891907 520.054626 301.403870
-1484.417847 514.469604 203.233276
-1233.789917 825.921509 -56.836338
-1246.638794 717.195313 -75.113503
-851.732788 640.431641 556.919006
-813.246948 515.092590 617.638428
-1219.582520 880.760010 192.846786
-984.328674 489.573334 365.427765
-1362.507813 690.468079 126.252800
-1475.421509 480.088165 150.631454
-985.747864 518.171814 365.163879
-790.959717 637.556213 576.573669
-1067.609741 447.938202 441.522186
-780.418518 435.955292 663.765625
-1251.849487 926.190674 128.182388
-1066.200928 372.311310 379.657410
-1002.628113 379.539551 133.573318
-1397.311523 554.756042 203.041611
-832.262146 311.764008 701.651550
-1387.224731 936.724731 477.436279
-941.263489 540.949341 562.104858
-908.369812 471.369415 587.241943
-825.866943 317.269836 677.483521
-724.511658 447.627045 697.171265
-929.041992 434.412659 585.144348
-832.719177 471.925110 617.545959
-1499.732056 560.413757 283.335205
-882.726746 584.712341 576.983154
-1221.213257 933.489197 66.835754
-697.062744 709.042725 286.067474
-1281.291382 792.927368 241.981064
-856.346008 631.868713 154.807098
-890.739380 614.050171 565.075378
-970.790649 412.777466 207.858963
-909.268616 499.118774 596.205750
-698.379089 517.657654 690.395569
-780.591187 491.366547 641.104553
-1299.475586 885.403564 395.807068
-1307.618408 922.003540 309.074951
-938.258057 529.795532 307.394226
-864.200562 594.885254 156.758667
-1267.233643 686.070496 -93.025818
-782.106201 573.677979 620.153198
-1341.797974 609.822754 29.562761
-726.017578 578.185913 630.847168
-1275.126709 891.458191 172.744095
-994.091370 410.069794 259.242889
-1306.270996 773.929749 77.698158
-892.782654 417.194366 622.935364
-967.274902 455.054108 571.042542
-1400.419556 607.657349 133.259613
-909.531738 540.048828 158.942886
-1495.363770 510.629913 224.275528
-982.896362 406.078583 173.028229
-975.162415 581.583740 435.865997
-829.095215 567.843018 597.927124
-1282.268799 689.319336 -77.070892
-871.621399 477.260284 595.466553
-687.206909 543.962280 698.645935
-1346.719482 593.059082 -19.261690
-1304.913086 737.185547 134.676926
-1315.662598 702.530212 175.338318
-1205.188599 822.418579 -74.122810
-988.334167 503.727051 383.723419
-899.088257 572.881226 123.885796
-961.896729 495.261749 295.241821
-807.298950 469.786438 647.155823
-814.069275 672.141296 583.957764
-765.340271 544.439087 635.033936
-928.089722 622.034729 317.219574
-1409.097290 630.051208 131.767899
-898.594604 555.135925 192.379791
-1355.160400 691.623840 75.219467
-940.620605 573.240540 288.037262
-1227.511841 859.815063 -27.331526
-1403.261963 493.493286 35.040527
-808.490112 412.831207 658.711792
-1190.705933 986.077087 117.545532
-897.888611 559.161438 153.479095
-1371.988892 857.628784 415.333069
-743.190552 597.389404 615.209717
-1457.659790 643.668335 294.587830
-854.783997 612.091492 169.020309
-1251.930786 848.618103 89.236465
-942.867065 415.265106 586.457703
-1428.489624 451.299805 66.294136
-860.733154 603.330566 149.264557
-1344.418091 676.498352 102.849365
-827.502869 532.542175 599.701050
-710.016785 508.079926 688.312683
-1450.307495 485.377563 160.038834
-1308.912964 700.732910 162.033203
-1271.921875 770.810791 4.091259
-1199.110352 962.400269 52.341194
-964.949646 375.670959 593.796326
-996.192078 398.612518 290.531952
-1469.823120 664.541870 322.530609
-1009.343445 346.675415 165.959320
-1211.298096 706.650269 63.073948
-1264.244995 686.349548 22.391901
-1203.064697 999.531799 110.275238
-1214.989014 945.932068 47.440353
-778.837097 407.867493 675.444763
-1309.751953 920.622314 289.282898
-1029.304810 410.291931 303.501251
-960.511780 492.374695 556.853882
-1027.682983 569.230164 489.007141
-1190.145508 1057.845825 169.984192
-893.019470 597.454773 200.684402
-1280.477661 794.150818 246.166672
-914.742432 472.892853 184.908203
-794.171936 528.888916 629.202820
-765.915833 460.716858 662.622864
-834.069458 471.116241 636.729065
-1271.033936 721.409973 -28.204676
-1266.917358 649.151978 -103.496323
-817.268555 544.729736 608.986877
-1249.327637 743.188904 -31.131744
-768.713074 459.760742 666.114807
-858.911926 724.607483 259.251648
-1264.617065 846.243896 117.342705
-1028.722778 366.638550 282.827026
-1257.826172 709.258850 -57.325821
-837.196533 577.160034 590.735413
-1211.939209 889.498352 53.083153
-892.556396 600.883362 263.415314
-860.534180 675.102173 298.104614
-764.278137 568.733276 623.185608
-865.657288 572.384399 163.094910
-1216.558105 727.252319 -58.799980
-753.945190 516.305115 643.885986
-1036.371826 407.742249 359.397095
-1331.177490 776.069214 275.881927
-1281.414429 729.218872 44.341869
-1351.315430 573.093811 -21.626886
-915.117615 465.703033 176.376923
-856.768982 661.005859 151.967957
-791.896667 457.721893 665.417969
-1217.023804 859.785767 -14.548247
-953.117798 454.580811 562.019043
-1407.250610 637.650085 136.361420
-872.339783 506.715271 589.366211
-1292.876709 670.825806 76.290802
-1270.850952 955.224365 254.818939
-800.468933 404.218994 665.699158
-884.078247 611.573303 193.563034
-725.615295 495.355347 665.561890
-880.350891 667.250061 271.318298
-888.137512 611.306641 555.512573
-656.181641 664.995422 378.173798
-863.624329 437.010620 627.578186
-1273.635498 689.378113 122.790070
-1346.739258 600.289001 -8.728074
-1235.408813 741.859497 -111.083435
-662.438843 690.449158 327.643341
-764.445679 623.415588 619.571594
-948.211426 415.958099 187.693008
-1363.493164 647.696167 78.065559
-948.986328 428.635559 593.049072
-1348.762207 661.504578 0.551496
-1393.127197 927.265869 521.487061
-847.877380 698.980896 263.305450
-1212.002563 1002.492126 149.532867
-1480.913940 631.777405 322.802246
-1240.117676 759.238647 -48.828049
-1237.669556 935.393250 119.488647
-918.326355 652.112000 373.216614
-1383.031006 625.771057 93.233109
-1055.545776 435.344727 468.016571
-1296.125244 830.309021 106.462601
-959.013123 608.408875 407.111694
-1333.586304 691.208679 52.215061
-1239.969482 917.628662 114.187866
-1049.426636 481.658142 409.012573
-1298.250488 899.952698 407.792664
-732.392883 621.628113 642.712891
-784.240112 512.775574 639.248413
-921.327454 469.030457 170.480530
-939.389343 385.127197 595.156067
-994.634460 390.304810 260.019043
-896.399536 577.020691 117.002281
-717.106140 608.484009 646.215698
-1028.598267 399.296448 292.788147
-1248.892944 908.228699 125.735954
-1025.889526 500.108246 421.465302
-930.179688 629.922668 369.207825
-1209.428589 984.378967 93.034088
-844.527771 436.397430 628.883118
-1328.764526 702.695923 70.809494
-1227.916382 923.203918 53.152710
-872.292542 667.069458 257.501862
-768.665710 637.246826 597.782532
-938.936951 379.845825 604.630310
-1348.927734 586.841309 -12.597323
-1198.659180 1038.828125 154.010452
-1393.246338 570.498779 67.282936
-1381.285889 566.380127 27.867582
-1018.145142 443.839539 291.091095
-1341.748047 675.156738 50.348518
-813.427856 534.613464 616.984680
-896.937805 575.653015 217.734955
-1309.829468 786.038452 87.464226
-979.579895 639.493225 429.737854
-1381.049438 961.056274 493.486237
-898.875183 629.219421 301.972870
-717.391296 472.696747 686.291687
-1260.449829 932.750671 164.547684
-970.477539 642.531860 461.416595
-1379.596802 833.890198 305.604126
-1328.228027 664.445679 52.893093
-1194.075317 1015.523621 146.940674
-729.148621 472.926697 714.479309
-869.434265 582.836792 194.949921
-1391.375610 597.552246 58.126163
-912.023682 552.416809 199.343597
-976.452820 470.168030 285.499207
-1290.906494 829.446960 108.092072
-1351.978882 902.370667 390.186096
-1395.110596 957.344299 513.198730
-1386.526245 588.604431 74.738892
-1261.107178 800.493225 35.682198
-1294.658569 820.475464 106.919556
-932.100098 504.099579 274.480774
-710.750183 508.974823 698.816467
-834.392822 666.155396 207.775070
-778.855774 600.070923 596.640808
-905.220337 491.386780 575.910706
-1031.719116 447.972931 367.378815
-1393.207397 635.474060 130.430588
-847.250488 651.148560 135.327026
-956.805664 412.380157 180.444901
-1396.531738 648.410828 222.172729
-1219.556641 794.858215 -90.927979
-1189.802734 1061.030273 156.408020
-1376.931152 549.786377 0.522567
-1216.910156 911.955261 220.656326
-922.920044 553.820984 542.346619
-868.054749 638.861511 170.812912
-1289.003418 808.473816 248.474060
-1019.740967 528.600342 436.556061
-1264.982788 832.802551 32.063545
-1266.861938 827.282898 208.339706
-790.398865 601.128296 602.229980
-949.622375 451.055847 253.607132
-940.700989 550.064575 554.793396
-1039.913574 455.360382 393.882019
-1397.770874 563.193420 133.643661
-889.471436 629.341553 268.480652
-949.852661 455.702820 126.893867
-752.030334 622.010132 620.905884
-1213.414795 727.062988 -41.531502
-690.095825 548.595947 674.601013
-1252.968872 888.581360 98.790901
-1314.876221 824.574219 211.618164
-922.956299 490.402771 129.539413
-696.892090 590.028625 667.894653
-853.456726 648.451660 217.287643
-980.450867 409.833740 568.190918
-894.758972 591.279480 547.961731
-1222.753418 1015.100464 179.793350
-1344.534424 932.050049 359.739319
-925.169373 471.169922 171.675507
-999.137451 570.555664 413.183960
-948.252258 431.671204 172.622925
-1268.552734 746.541504 76.941109
-863.189636 608.838440 107.454224
-1413.049683 522.127319 80.711815
-1287.106934 899.389954 190.263794
-810.336487 638.307007 583.789917
-848.794250 697.822266 247.541595
-878.882935 545.799744 172.092712
-1234.237915 857.594482 -9.119241
-1229.475464 938.570496 176.575104
-850.739868 522.331787 616.875610
-1199.489624 988.201965 128.772980
-1308.102417 791.442749 182.217529
-1411.637207 641.340271 248.520050
-1257.435913 863.664673 45.461124
-1052.321045 469.131897 452.856537
-1249.765259 680.696289 151.434387
-1203.099121 1020.168457 178.432617
-834.499756 508.522827 613.635071
-1203.976685 966.703613 150.333405
-1251.264038 707.346558 -72.402748
-1230.915405 841.847839 -0.893660
-844.161011 650.820984 202.476425
-939.594116 629.219604 384.271729
-958.044983 556.177063 333.944855
-924.866272 483.265778 147.608963
-849.022034 678.217773 202.546356
-843.382507 381.768860 650.733398
-992.245667 373.787994 202.998978
-1260.569458 737.426758 119.934425
-1245.643799 940.457581 139.155731
-1349.467407 907.102112 334.920959
-761.015137 510.418915 655.679260
-1295.007568 672.564758 74.341637
-718.217651 538.117554 676.064087
-723.254822 579.347961 645.351257
-1022.067383 558.869324 448.780518
-1268.476196 896.883240 133.311996
-721.659058 588.883911 634.623047
-1258.825073 867.137390 212.401932
-949.074646 463.129456 582.852844
-1239.277222 815.426453 11.918101
-949.753845 454.527313 217.152420
-1215.882813 983.843201 182.375992
-1418.451172 570.447021 187.606949
-1183.603149 667.021484 131.047318
-898.739868 519.099243 129.164963
-879.992859 629.837341 546.634888
-1436.029053 839.117554 548.639709
-1289.013672 869.508118 165.851074
-743.954285 591.060425 624.759521
-880.160034 636.928406 238.723511
-907.190796 633.788696 352.764771
-1290.642212 672.721191 -50.570892
-1237.400269 935.359314 99.020416
-1343.512329 603.979980 -16.622992
-852.102539 657.958252 179.476166
-907.940796 344.496674 622.316895
-1203.611816 919.398010 31.705996
-1400.014038 652.336243 226.183777
-880.462585 314.812988 648.358215
-952.126770 501.120819 270.894623
-1420.110107 494.613525 132.453659
-904.159668 628.721558 334.611725
-915.854797 475.460663 586.950867
-1210.640991 791.376404 -72.509010
-1029.250732 415.528198 332.806732
