ply
format ascii 1.0
element vertex 1339
property float x
property float y
property float z
end_header
-1100.710571 -586.322754 1024.593262
-291.192535 -289.688019 1032.162598
-1108.378174 -280.310394 1154.043579
-1093.413818 -547.865540 944.052368
-684.847168 -417.750885 786.760681
-1123.024414 -315.774719 1048.554932
-1073.865845 -487.775970 971.231445
-1004.450439 -446.940735 1035.057373
-723.118164 -204.359756 736.968750
-628.690979 -273.692902 1038.458618
-386.101715 -372.996704 1024.399536
-734.583923 -408.287231 663.659180
-1077.729614 -280.699310 872.545410
-649.773865 -433.590790 911.900574
-1034.859741 -378.346619 1226.016479
-1106.873291 -115.351288 1175.602905
-1150.975952 -76.863716 1026.030518
-465.530762 -388.637085 1032.821411
-670.693237 -187.811066 875.400024
-1176.572998 -402.875061 795.620239
-469.366364 -202.721954 1076.190918
-1171.399658 -192.533508 922.800537
-339.656067 -291.605164 1037.544067
-1055.259155 -276.396271 873.846924
-1167.168457 -419.762665 803.184326
-682.513367 -207.257065 927.853149
-1129.365479 -553.739258 883.399780
-1155.704468 -255.203934 966.153381
-701.284485 -432.615082 708.602722
-507.263611 -63.143318 890.376099
-301.141510 -515.017578 955.340576
-1123.445801 -68.966850 1072.054077
-704.213623 -230.808609 745.934021
-682.322266 -265.136627 843.907837
-612.454590 -329.637115 1057.492920
-681.784912 -295.915375 905.319336
-1096.190430 -147.266068 1108.654297
-1099.435181 -512.020447 871.889465
-1100.996948 -319.225830 1032.429321
-1193.252319 -255.486069 723.846497
-1084.976440 -465.526093 978.442688
-690.392212 -159.050186 848.170349
-705.795044 -423.848236 687.129456
-680.562256 -285.092407 842.893311
-1176.442139 -221.649719 839.627136
-684.518188 -488.929749 787.510620
-730.338989 -224.426529 755.645630
-681.108887 -437.287292 793.538025
-1182.892700 -176.500107 802.442871
-677.776733 -227.216293 906.344238
-689.813782 -364.068146 733.024292
-426.344971 -401.833160 1024.944946
-368.408264 -385.962158 1016.466553
-1058.900391 -199.427124 1144.753784
-344.175690 -285.356628 1041.026001
-1123.254639 -283.144684 980.123901
-704.446594 -86.772255 844.371338
-432.416595 -400.473419 1022.219910
-1118.795898 -492.473358 951.883545
-728.374939 -171.123535 767.853821
-1117.528198 -464.870789 954.131592
-1178.221313 -417.494629 777.909180
-662.799744 -288.220886 978.564026
-1171.467773 -351.057953 841.640381
-400.407257 -437.884766 996.708435
-749.253357 -385.502258 647.039917
-1189.214600 -351.874908 758.571960
-712.403870 -355.993408 751.500488
-1211.113892 -183.286346 760.909668
-763.922485 -223.660583 683.483154
-674.977356 -113.488518 891.098511
-433.338318 -211.810287 1080.154907
-1135.198608 -126.066818 1048.303589
-502.702606 -353.296570 1029.642334
-1106.908325 -248.073410 1046.171509
-730.884521 -215.307205 740.178650
-335.448975 -270.626709 1042.557129
-1159.382690 -287.986664 808.596313
-701.608765 -140.168289 894.522339
-1201.465576 -291.052734 770.365234
-1124.906128 -197.569275 1084.419556
-1131.460327 -273.695007 969.082947
-1058.952148 -586.337402 1161.596680
-691.467896 -106.046974 846.026733
-400.518188 -237.849640 1051.550903
-1127.171509 -252.778320 1025.435059
-330.519623 -380.807678 1008.494934
-734.112610 -104.976128 820.488586
-320.941589 -375.501068 999.901733
-1077.383911 -317.125946 1033.920654
-454.824310 -46.538734 937.496460
-1012.031799 -382.549896 1440.087891
-396.232849 -447.342102 993.497620
-1179.956543 -208.540588 863.329773
-1122.400269 -445.526672 942.429565
-688.680115 -274.511536 832.817627
-347.196533 -214.903778 1070.123901
-462.170227 -358.760742 1036.237061
-1075.238159 -513.391663 1103.552368
-703.851868 -346.761505 733.211304
-662.388733 -246.290909 982.646301
-776.574951 -264.953003 686.693604
-1064.129883 -560.362488 914.660583
-1143.425171 -476.996277 921.599670
-1196.508667 -238.518600 734.715637
-367.413940 -338.782990 1022.423767
-472.181000 -213.941833 1106.261597
-1216.751587 -235.302322 771.635620
-659.625183 -385.199402 913.298889
-1198.638550 -328.110504 739.194519
-715.740356 -133.654984 800.823669
-719.426025 -360.712555 687.811157
-464.776855 -442.752319 1006.992188
-1151.277588 -557.308167 804.717346
-643.623474 -359.306610 1026.350952
-260.589966 -430.199860 992.632263
-729.086609 -179.449783 742.756226
-1053.375244 -203.002747 1053.298950
-369.637390 -512.652771 954.882813
-1092.337402 -297.418091 1028.224243
-649.951904 -239.824753 962.965149
-369.262970 -250.124115 1056.651978
-1078.479736 -574.693176 845.718201
-1194.011719 -254.925964 768.931519
-630.656372 -420.137878 939.758728
-506.089752 -399.714996 1029.243896
-396.397186 -469.667480 974.366943
-1066.830444 -235.976944 1151.275635
-1173.382690 -406.732269 800.629089
-356.780121 -508.556702 947.205872
-497.095428 -68.819618 911.413879
-1116.960938 -474.058228 906.934814
-662.135925 -130.642410 946.679443
-416.104492 -213.243271 1081.138550
-1153.845337 -465.991852 839.801697
-676.856995 -150.264511 901.275635
-332.065369 -248.833649 1044.658813
-1158.468872 -152.539505 965.904663
-1129.276001 -85.905579 1089.532227
-340.408539 -493.210724 960.716553
-1138.604248 -210.868362 963.468933
-658.466614 -439.016022 868.362549
-1144.609497 -600.459473 830.845886
-993.119141 -323.315002 967.109619
-713.056274 -364.219635 716.151672
-377.332489 -337.637360 1027.786011
-1006.002319 -309.223022 923.376282
-499.169861 -267.577057 1058.299805
-737.647888 -271.029175 703.412537
-1153.660767 -347.712372 879.327820
-1165.044800 -95.967720 960.617798
-488.179291 -442.459442 1008.723755
-1053.729248 -332.420197 1213.372803
-1118.779297 -292.379852 1055.452515
-455.502075 -383.292511 1028.219116
-725.251648 -169.878372 802.623474
-1169.781738 -137.336777 880.596313
-1109.146484 -246.372101 871.958557
-255.491776 -392.440521 997.484741
-332.668762 -321.192627 1032.164185
-385.279297 -294.886414 1053.293701
-1050.299316 -340.129333 1180.036377
-1209.574951 -207.968506 777.651550
-331.011688 -338.756470 1017.463806
-252.110535 -278.432495 1055.253540
-1059.626953 -279.304382 1131.019775
-1148.908569 -403.168152 895.101807
-1153.788696 -249.239395 974.322876
-1208.055054 -220.372864 755.521484
-1055.821655 -163.795013 1087.038818
-465.790802 -323.577728 1049.150391
-293.010284 -230.601990 1066.910645
-504.860046 -318.863770 1053.175293
-1074.264893 -268.545898 1050.203491
-1081.476318 -435.741577 1043.298828
-478.805420 -362.673706 1018.824341
-418.066284 -290.451996 1057.779419
-750.796875 -219.808731 671.312439
-677.581604 -364.102783 847.898071
-1185.192993 -365.288574 762.554932
-411.515350 -260.688538 1055.113403
-738.142822 -78.111000 818.707153
-662.778442 -463.424957 971.107300
-745.334229 -123.755806 760.665100
-448.880249 -471.596863 982.165771
-507.636597 -498.094269 981.058594
-719.317688 -235.034470 720.706970
-414.446228 -406.231750 1009.470825
-690.481995 -338.011749 797.582886
-1124.302490 -426.541473 963.228638
-1159.950928 -210.088135 946.838501
-719.030884 -420.347595 672.336914
-645.577332 -489.281921 944.002991
-1142.528931 -474.631470 929.913513
-716.661316 -262.607971 705.502869
-365.001709 -204.311386 1072.918091
-383.858643 -350.878784 1015.395386
-373.447815 -279.280273 1055.969849
-649.163452 -473.671326 947.163635
-469.780640 -509.853088 979.526123
-1152.127075 -168.432480 1014.107117
-736.839478 -399.758423 661.078003
-670.563171 -453.678070 849.627625
-1145.693359 -99.211922 1037.562500
-249.856705 -419.148865 993.112915
-488.463684 -306.983490 1053.282959
-1160.696777 -236.630096 954.924561
-1136.422607 -160.095856 1007.996826
-1093.426514 -120.869308 1105.807007
-1157.068970 -285.491028 823.636841
-653.189026 -276.374756 944.191345
-1089.840454 -338.543030 897.595764
-513.484497 -527.012573 982.744202
-659.337158 -366.967743 852.578552
-1158.375244 -389.380676 917.709412
-426.289185 -490.727386 967.654907
-683.940613 -377.789459 901.969055
-696.373230 -95.195419 891.401001
-700.405334 -336.189056 838.913147
-735.096741 -380.513550 696.715820
-512.002136 -204.257126 1079.487305
-1081.316772 -414.348206 1023.351196
-985.634033 -347.916351 1300.637329
-683.902222 -401.080322 847.482056
-1137.295532 -594.845642 849.696899
-302.856873 -303.460938 1029.279419
-665.869446 -192.217331 913.033264
-407.415497 -318.063171 1049.693115
-1152.751587 -260.307159 891.362122
-1163.284058 -514.668152 827.854065
-682.788452 -253.648788 867.313538
-329.888336 -227.142456 1058.709473
-678.745483 -452.369263 862.327332
-382.671875 -487.709045 965.212646
-1127.467407 -577.347534 851.358215
-415.329254 -413.856750 1015.047729
-377.865204 -296.535675 1045.502441
-1186.762573 -206.176086 864.730591
-1118.564331 -91.403206 1066.017090
-1142.221436 -271.406128 833.474121
-455.479523 -347.299194 1042.261353
-377.976044 -356.941162 1021.127136
-270.026306 -282.146851 1037.299316
-435.138336 -165.578171 1066.866821
-1151.551025 -156.590225 1021.870911
-702.231934 -463.079071 694.666931
-653.391052 -254.852066 944.492615
-662.419739 -117.462029 932.074158
-456.294312 -389.203461 1026.317017
-1086.722168 -136.484146 1096.400146
-303.497742 -451.414703 977.080200
-234.871674 -387.852539 1026.698486
-1154.894531 -144.958115 1033.706055
-1207.427124 -265.579315 727.953979
-1098.948242 -259.356598 1090.218018
-737.078735 -199.536560 721.145935
-1125.172241 -192.765381 1020.086304
-1178.771973 -161.824860 887.413940
-1173.741211 -242.750168 880.300293
-738.100647 -101.797775 821.362183
-416.040161 -482.770538 969.589600
-1171.044556 -314.697449 778.872498
-1047.867798 -330.365417 1038.075562
-351.555084 -231.543457 1053.439209
-1083.830933 -542.882141 1053.838013
-223.721695 -367.963440 1018.362915
-1169.792114 -126.768066 884.410645
-648.368958 -345.856445 1017.691345
-1148.343018 -248.340881 980.364258
-272.617828 -331.105621 1016.233093
-1162.803955 -492.518433 802.468201
-381.057495 -231.683777 1059.968506
-309.270782 -416.040436 987.521545
-384.484894 -353.551971 1018.270996
-1099.947754 -517.739197 922.343872
-253.783630 -349.722565 1012.174988
-610.222412 -341.721375 1065.337646
-1136.233032 -44.390888 1091.797729
-1207.678711 -189.350327 754.086853
-1023.978760 -313.174164 1308.207275
-1154.032471 -500.874481 849.394409
-698.164124 -387.996460 728.676392
-1077.302002 -126.215683 1195.118652
-654.518982 -507.193024 904.841614
-693.532349 -263.746002 809.745605
-1172.928711 -349.008545 820.334290
-704.385010 -278.035583 837.980042
-1137.085938 -534.126953 835.215454
-678.742737 -413.612213 831.491333
-693.877075 -350.616394 776.868286
-1121.369385 -217.940887 1081.140503
-514.241760 -299.608002 1046.784668
-694.592468 -430.098724 714.300537
-1153.997070 -453.508301 800.965637
-1008.156189 -347.141693 1358.588989
-1197.127686 -196.148361 752.110657
-649.309998 -63.399731 917.883423
-1173.620483 -243.815506 822.415466
-1124.701172 -79.830833 1077.300171
-686.544922 -389.455444 838.981018
-1143.059204 -268.576263 1030.011108
-719.114990 -123.764854 813.006775
-682.699646 -145.316360 896.167175
-759.795105 -302.884216 673.911133
-277.410370 -410.101685 989.107666
-524.354736 -409.314850 1037.522095
-1122.151611 -155.475403 1063.578857
-761.907837 -175.993637 736.862732
-243.759323 -296.339600 1032.588257
-683.555603 -183.154419 841.144592
-1163.712646 -135.634293 902.693787
-235.381561 -352.010254 1011.638245
-711.167603 -389.971863 747.864563
-1173.072266 -389.692291 812.667297
-1161.863770 -65.018852 1031.396362
-1162.047241 -472.939026 803.207581
-1057.257202 -352.687256 1233.570679
-271.692291 -255.750946 1059.011230
-657.662598 -299.576691 921.135132
-1104.640503 -491.208649 945.808472
-344.622192 -447.716644 990.011414
-434.405365 -210.107574 1077.694214
-415.189331 -271.029144 1044.535156
-301.792816 -207.764755 1067.289063
-686.930908 -300.115082 799.041687
-429.398315 -353.946655 1029.815430
-1159.120850 -252.074310 978.711609
-666.695496 -137.072327 961.694214
-1162.514404 -312.587006 835.527771
-681.394287 -270.181702 867.641052
-253.027847 -331.320587 1047.427490
-1041.365234 -235.798447 1057.443848
-709.022705 -157.226761 793.380249
-1124.557861 -277.450439 1045.085693
-1136.356934 -311.308990 868.101440
-1106.692261 -623.654053 824.608704
-497.846466 -327.478943 1047.938354
-643.198853 -178.216278 1044.183594
-1174.249878 -105.947685 957.069641
-271.210114 -427.511658 1014.711487
-1160.271973 -91.800789 980.147034
-752.590698 -195.516968 712.485779
-705.332031 -425.711700 694.849915
-1170.518433 -176.754608 912.873962
-682.447449 -296.669495 774.312927
-1208.330078 -315.806458 745.046997
-471.398346 -411.257355 1022.552307
-1144.854004 -265.333862 824.294922
-981.887451 -370.622498 1345.365356
-464.217010 -260.893616 1062.393066
-1190.610962 -110.311516 903.098816
-662.254761 -256.931915 979.183105
-691.319214 -295.739685 791.536621
-1140.698853 -268.985779 998.899902
-365.983582 -245.673920 1062.384033
-675.761719 -261.272034 866.199280
-390.288239 -419.489502 1000.121643
-1126.927124 -332.066467 875.715027
-702.086243 -308.035492 821.135620
-503.902588 -438.849945 990.498291
-636.601379 -382.003418 1001.172913
-433.878021 -238.886505 1054.305420
-606.408936 -384.561859 1115.233398
-290.888672 -223.379440 1082.879272
-291.681427 -255.859070 1047.808228
-1100.112305 -266.048706 1050.298096
-514.115295 -452.665802 1008.062866
-679.167603 -218.234818 870.898743
-765.009583 -250.339859 697.506470
-754.274292 -180.170731 702.251038
-676.576538 -120.416946 913.006226
-734.328491 -182.230225 731.065857
-358.210052 -300.196411 1038.524170
-1046.085571 -553.043152 1154.151001
-668.561768 -490.623352 836.797852
-1148.236694 -238.022278 923.842346
-337.664246 -345.012177 1036.455444
-733.317139 -339.092896 718.669922
-775.402771 -158.343094 720.177002
-519.804199 -381.868347 1053.799072
-741.456848 -243.285660 728.740723
-1111.444336 -107.085457 1087.859863
-1068.033691 -233.191330 1098.173584
-1117.741577 -324.756958 1024.091187
-1138.426392 -235.839828 792.153015
-1095.484863 -80.588570 1173.568970
-1036.258423 -365.471588 964.023438
-1192.863037 -278.862579 717.148438
-1171.914429 -400.605560 815.293335
-712.171875 -337.951019 706.367249
-412.244446 -360.951538 1018.089172
-1053.971558 -236.339508 1093.979980
-1092.398438 -259.624878 808.307495
-732.115051 -387.095978 674.004761
-736.659851 -156.028076 773.550232
-670.312256 -197.837265 869.554810
-1104.844238 -541.567932 875.121582
-219.654724 -329.754974 1024.948608
-622.508179 -418.311737 1033.500488
-1146.075684 -142.135513 967.624268
-646.150696 -250.209000 1062.872437
-726.021301 -239.470322 725.746582
-272.915802 -238.621109 1068.474609
-633.570068 -44.730988 873.064575
-1193.268799 -150.791168 873.445496
-654.692078 -200.669312 1025.046509
-660.467896 -465.821045 762.919739
-1121.390259 -285.729187 1053.064209
-953.520386 -407.180389 1292.864868
-1034.489014 -300.288727 1263.664673
-340.413391 -318.488098 1043.270996
-1171.627441 -230.291397 882.544250
-370.624542 -224.992722 1062.250244
-1138.287964 -148.477524 994.227966
-1188.809326 -192.308060 786.105103
-712.494812 -304.476318 797.521790
-1045.916870 -406.293884 1161.131226
-735.964600 -394.851959 694.294250
-704.605652 -211.930954 840.370667
-259.881409 -404.715759 1019.535767
-679.447510 -71.120880 937.385132
-759.448242 -306.492950 687.833008
-1209.597168 -255.018616 762.274475
-1077.674072 -506.308685 1022.980469
-237.609055 -295.540100 1077.210693
-1184.903198 -174.667221 890.280518
-683.239197 -321.157227 916.615173
-1189.437012 -139.736862 846.396606
-1129.060913 -420.950623 967.266602
-409.847351 -309.908569 1042.631836
-503.649811 -493.481720 984.043274
-329.322571 -355.734802 1022.697205
-347.748566 -453.059052 985.943420
-1095.814331 -271.437469 1098.622559
-1131.883545 -55.843494 1141.474609
-634.307251 -405.043671 997.264954
-350.328003 -345.697968 1021.321350
-1094.965454 -449.887482 983.042053
-1163.915649 -114.564621 910.276855
-1058.756592 -107.225052 1089.334229
-1118.599365 -222.015320 1086.190430
-1145.968262 -540.571411 809.403931
-1083.283447 -528.243713 884.559570
-391.281281 -211.102310 1056.085815
-437.386353 -228.780853 1058.231445
-720.375183 -88.383522 810.420898
-1154.267456 -232.649384 833.760254
-1039.286255 -236.219803 1079.221558
-1134.677734 -526.431458 824.405884
-454.536255 -482.788239 991.886292
-1106.854126 -126.824158 1172.220215
-299.248871 -358.898407 1029.497437
-679.867065 -398.709167 812.674194
-665.427551 -432.917969 854.032654
-1107.066162 -424.569916 970.727417
-1153.148071 -474.346802 854.777893
-1067.100098 -439.554596 1010.990601
-497.508728 -393.348175 1031.794800
-1057.508423 -333.172577 1106.703857
-1111.431274 -107.329788 1105.238159
-1039.940796 -313.936707 1266.314575
-345.510468 -243.724731 1055.271362
-380.223053 -413.262787 997.063110
-238.987061 -302.657166 1073.574219
-1058.035889 -329.244263 1061.575684
-666.703186 -446.975983 777.535034
-1169.993164 -95.394417 997.623352
-1051.301270 -302.936127 1124.048096
-1203.067627 -150.689163 859.537903
-396.176056 -320.476807 1037.938843
-1191.819824 -332.259949 752.585022
-744.292236 -391.879425 659.263611
-1145.877930 -220.739090 996.661316
-494.126129 -341.882874 1035.748779
-1132.318237 -237.664383 798.378906
-313.373566 -446.194275 987.828247
-1176.911133 -220.974640 928.406799
-1165.722900 -118.244026 978.714783
-701.780640 -130.002350 874.494385
-1071.665161 -577.663879 1112.434570
-761.525330 -323.727234 662.629333
-335.823608 -471.665649 978.014465
-643.743042 -458.045776 928.329834
-756.045715 -162.712143 750.078186
-342.379395 -506.522736 957.473022
-725.963867 -276.842346 691.897644
-1119.275269 -609.428955 872.502747
-1133.921509 -164.213196 1056.764893
-777.234924 -251.586258 678.258484
-700.234375 -352.848206 736.884216
-1134.159668 -213.895355 1030.881592
-1164.954956 -454.695984 890.262817
-1069.533569 -367.820038 1166.239014
-393.191925 -371.587738 1020.871521
-1131.941650 -393.174591 951.312134
-759.955261 -295.500885 676.927612
-1092.428467 -621.346863 1013.570984
-338.628387 -346.270477 1023.363647
-1068.284912 -293.804382 1058.299805
-1094.002075 -555.090393 853.320068
-677.964355 -396.654419 821.688477
-1150.238892 -508.464325 841.194031
-762.040710 -101.880913 803.676392
-1117.974121 -417.801208 990.050537
-1103.284912 -173.937134 1138.354736
-657.731506 -476.626129 767.300110
-1153.816895 -266.418060 810.867554
-400.211609 -233.156067 1062.094971
-779.538269 -129.118484 763.325012
-500.545685 -345.236664 1050.006104
-410.933990 -276.878845 1051.193237
-670.679932 -470.373657 844.057007
-428.391815 -425.490479 992.700684
-331.500519 -352.104187 1017.848999
-705.814087 -116.893898 880.491028
-330.756836 -297.368408 1034.184814
-720.707275 -307.836853 698.858521
-296.911041 -362.611969 1003.766724
-1119.271729 -299.893188 1054.055908
-431.577667 -400.723846 1010.900452
-655.569885 -357.276398 923.067017
-1152.358643 -528.300171 805.091309
-422.302521 -253.789795 1061.930786
-675.153992 -362.703064 845.140686
-726.144104 -266.938843 721.555908
-1141.098511 -357.428009 845.433777
-618.537659 -329.678558 1045.155518
-682.813477 -339.847260 766.027466
-735.388428 -293.095520 724.392151
-401.492950 -443.368256 987.594055
-340.304596 -520.745544 952.736450
-1166.016113 -253.780975 897.476013
-658.039368 -274.956177 920.138733
-676.139404 -437.828522 874.506348
-708.107849 -392.866577 748.999817
-357.477997 -403.886810 1005.745544
-665.483826 -109.512878 967.440552
-683.375000 -448.557220 711.707397
-401.141937 -426.252411 998.874329
-1127.155396 -542.679993 840.800049
-1196.564331 -267.401978 758.129883
-718.493347 -107.881874 821.209167
-694.170898 -463.112488 798.728882
-668.454895 -472.682800 779.554443
-1176.788330 -117.070061 949.738525
-402.837219 -451.605743 979.638672
-686.883118 -123.621498 878.959473
-329.802124 -267.938843 1053.515137
-1170.416260 -250.179016 917.959900
-1163.808350 -179.023438 887.512268
-1188.605103 -198.225311 851.689331
-1195.173584 -203.321045 775.199890
-290.801514 -406.383759 988.635437
-689.556641 -116.039436 864.411926
-718.028625 -100.718269 835.103638
-717.528931 -143.334595 825.404724
-458.292206 -386.748810 1011.616455
-730.763000 -359.144867 676.080933
-688.378906 -148.720230 876.185791
-1162.782349 -219.235184 939.413757
-615.720398 -472.640747 976.307495
-1126.036987 -62.879131 1125.531494
-1153.713379 -227.882355 974.342773
-1095.565552 -567.492371 916.001465
-650.495789 -283.133179 972.479370
-684.269104 -118.634087 872.663879
-249.677307 -253.709839 1048.678467
-475.217651 -492.749695 994.665527
-1142.464111 -58.537003 1103.749878
-1194.158936 -232.906052 730.747314
-465.937958 -229.125290 1080.613647
-697.513550 -321.402039 742.362366
-277.806396 -456.918060 970.837830
-1159.953369 -412.054626 836.872986
-374.924805 -367.908722 1008.545898
-371.443756 -198.810501 1075.518921
-705.431580 -276.987640 751.535278
-399.713867 -303.012177 1043.604004
-705.682068 -235.659180 766.494141
-1109.482300 -123.833694 1065.814575
-1127.532715 -267.716675 897.285034
-1173.618286 -419.412170 789.886841
-499.608276 -180.239166 1095.183594
-708.146118 -212.743988 744.777161
-513.003479 -289.418579 1065.442993
-1050.583740 -492.088470 931.331726
-1020.423584 -293.480255 1279.061401
-1129.454346 -125.467804 1062.093872
-1158.167480 -369.748077 860.479614
-1156.528320 -345.622620 870.536438
-702.100403 -227.942154 829.176575
-1114.634766 -511.916107 943.555786
-435.931946 -223.970657 1083.910034
-672.236938 -201.636032 952.484009
-1067.877686 -267.066498 1231.250244
-718.631592 -292.593781 710.893433
-671.535889 -427.178650 834.618896
-486.092255 -308.852814 1042.895020
-997.644775 -379.439331 965.293762
-679.804749 -323.140198 903.935303
-461.817383 -309.260925 1049.388428
-255.841965 -308.540344 1020.631165
-1090.911011 -447.759155 1026.894531
-434.719269 -322.210846 1047.812256
-657.946167 -391.980286 846.739624
-421.528259 -443.280853 1003.064087
-232.988129 -309.958649 1057.525024
-685.380432 -172.417618 866.010620
-509.300537 -375.707397 1028.920044
-1150.153931 -53.302555 1076.717773
-1195.565918 -344.804321 750.056091
-692.223877 -261.351807 758.425171
-291.588562 -338.861786 1017.117798
-724.576538 -129.006912 800.500916
-1153.118164 -464.989227 852.452759
-709.273621 -393.236908 709.467529
-242.164993 -324.631805 1016.657654
-1058.365356 -286.221924 1215.150269
-1171.637085 -260.964661 790.430542
-693.457336 -245.286804 802.730530
-1075.583862 -352.350555 996.588135
-1173.751099 -147.844376 945.477844
-662.636047 -347.070251 912.318848
-1099.311768 -113.641426 1149.886475
-308.402496 -217.280914 1069.126343
-687.219055 -308.956726 799.689575
-653.975708 -487.719147 871.631592
-1083.685913 -512.970337 1153.194946
-362.635712 -264.611084 1048.720215
-1214.221069 -263.561066 772.626099
-1189.587280 -366.820099 845.705017
-516.183350 -362.742828 1033.806274
-654.270569 -266.817169 1011.007141
-661.105896 -241.940536 989.212219
-448.091309 -249.833038 1071.460083
-1131.341553 -59.650188 1078.581055
-499.503815 -409.507202 1008.407288
-1128.957153 -302.895264 832.972778
-473.981781 -379.228577 1022.663208
-700.236145 -303.777222 774.319702
-676.527039 -415.351166 799.643494
-1091.563721 -326.348511 910.473816
-1101.380737 -259.054688 821.491821
-1107.587524 -128.211670 1116.717896
-1139.500732 -320.311340 882.105774
-1129.252197 -267.091278 1040.639038
-1059.985962 -218.649277 1079.382813
-448.209808 -306.570343 1045.956177
-371.195862 -461.792328 989.805664
-1191.648682 -363.900238 746.908569
-1094.846680 -326.792389 1040.054810
-772.138123 -301.459900 680.590332
-427.316650 -476.154694 988.589905
-343.482269 -498.172241 973.368347
-1187.013062 -351.371033 816.102600
-1096.613159 -73.556633 1179.012207
-695.857422 -204.167068 836.860046
-1081.254761 -429.223267 1006.355896
-412.673309 -246.110031 1058.679688
-1115.121826 -98.364479 1147.612183
-449.461792 -438.695984 993.043945
-465.103516 -361.659393 1022.421509
-1164.013672 -471.117493 802.206116
-702.730103 -262.951202 788.061890
-363.806122 -430.375427 1000.279541
-1008.579590 -319.907440 1323.873413
-742.405334 -99.958832 791.332336
-668.561096 -324.293579 886.963013
-1139.728882 -162.731018 983.826843
-409.299377 -369.470337 1023.505981
-295.467072 -251.382446 1039.672119
-944.048157 -319.748657 942.499390
-1122.474243 -298.355774 869.762939
-1127.667480 -278.924133 918.776184
-472.568329 -286.304626 1048.941284
-1164.251099 -315.047119 861.650024
-1053.976440 -325.448975 1231.352051
-712.796509 -131.748367 791.607666
-283.614532 -422.732422 995.316711
-1165.494019 -246.653809 969.991821
-1148.264404 -252.098068 976.229736
-696.979492 -242.553543 793.323792
-695.215820 -180.832809 800.497437
-1124.001831 -539.687683 855.988220
-694.128845 -211.128937 819.284851
-1120.850464 -220.634766 1022.936707
-715.546387 -226.279785 726.546875
-757.710022 -211.244095 707.388123
-672.155762 -441.743958 762.057739
-724.223206 -166.893677 783.817627
-341.553436 -404.273529 1018.324646
-402.665802 -514.300110 967.415771
-694.891785 -356.125549 771.385437
-448.910980 -336.183624 1041.823242
-658.802246 -380.208679 837.057739
-1021.282532 -334.703278 1267.520386
-1082.449707 -579.091919 1096.973022
-1191.572876 -182.483749 817.626526
-1051.204956 -374.755096 1198.425903
-693.969666 -279.120422 744.617249
-750.726013 -139.680710 734.853699
-715.434143 -221.185104 798.625244
-686.197693 -178.909729 821.618958
-701.119812 -209.903046 773.533020
-1140.779175 -499.161469 920.129578
-1063.381348 -410.855988 1022.724731
-1179.257080 -402.292389 843.880188
-259.340698 -459.574219 991.947815
-679.675476 -385.196869 921.116516
-1008.474426 -323.503174 1351.727173
-1178.072388 -272.390747 775.635742
-378.654694 -305.722290 1035.240723
-353.851624 -252.476593 1053.915894
-1034.921997 -303.785645 1345.690918
-1133.805054 -386.547913 956.549377
-485.973816 -466.441528 988.609497
-340.266144 -303.353851 1033.099365
-692.011597 -169.939590 854.022949
-1046.499878 -378.117371 1226.385010
-1084.162476 -161.533646 1133.993774
-647.451416 -489.890198 901.428101
-1063.123535 -473.198212 1068.074341
-1007.941162 -408.141388 1195.217896
-673.726807 -179.981369 914.432739
-722.194214 -301.408417 709.815186
-481.787384 -480.163544 993.475220
-678.298523 -354.529266 931.468689
-1183.160278 -249.828247 813.521423
-1162.914063 -248.145172 870.237793
-1164.891235 -321.820892 838.749878
-720.105408 -320.514679 700.911499
-353.428131 -402.075592 993.385315
-630.608765 -436.178192 931.581116
-521.987915 -367.346466 1053.735596
-1138.916382 -252.538345 800.900696
-1199.445679 -376.650787 790.699219
-1123.919067 -262.946320 997.983215
-1037.698975 -233.802322 1079.337646
-324.192993 -443.012024 1007.733154
-715.984741 -115.326958 828.286682
-369.791443 -477.449524 983.442200
-389.333801 -390.014740 1027.295776
-355.831726 -229.575424 1063.816650
-505.134613 -503.357574 708.761963
-1187.303711 -263.958588 791.081299
-746.466248 -298.782623 700.218994
-1184.294556 -342.490356 843.536621
-1082.799805 -124.118576 1204.896606
-1036.869507 -350.857300 958.847778
-738.310608 -321.385468 678.625305
-1153.830688 -304.631805 849.938477
-732.153320 -159.544800 730.756836
-643.742493 -189.378189 1001.001526
-1134.917236 -564.776062 863.655823
-389.776581 -167.448898 1066.702881
-1162.766846 -137.425400 1007.871033
-358.239563 -386.782867 1017.028870
-1157.142700 -187.685028 1009.666016
-1130.046265 -251.002945 1045.007324
-282.665222 -334.446655 1019.339233
-378.776062 -466.876068 983.372192
-460.390381 -339.899048 1043.824829
-1101.296509 -295.259064 848.244690
-690.697937 -138.977982 837.737427
-1028.465210 -351.208557 971.982544
-442.818848 -221.529694 1078.977905
-650.948853 -450.881714 926.885864
-687.130737 -435.670685 819.426025
-335.577179 -301.882507 1029.077637
-616.055542 -325.787933 1059.809082
-698.476074 -265.747192 796.318054
-741.068237 -159.905289 741.184937
-444.777802 -407.702545 1008.132385
-687.654358 -347.124176 837.685181
-1189.892578 -165.588516 838.957703
-686.204834 -105.245354 924.990906
-462.321472 -295.124756 1064.286621
-449.399811 -523.463623 956.740601
-321.132324 -392.416412 993.929688
-1072.139648 -199.352936 1057.574707
-398.807587 -453.553833 987.080139
-401.979248 -342.213745 1019.296509
-1092.435303 -62.215477 1182.153931
-1020.751648 -331.325409 1392.675537
-1082.945801 -428.302795 1014.569214
-1150.867920 -128.553894 1029.840332
-457.188385 -334.873322 1039.956177
-645.884155 -485.331543 828.004822
-716.970215 -315.577576 704.762756
-1189.992554 -268.999664 792.805481
-533.612427 -8.822087 872.607605
-1161.778809 -245.468811 858.497375
-673.470154 -309.362274 854.927979
-457.381470 -464.312622 984.433472
-649.507141 -420.133850 976.140869
-1155.321655 -410.632568 817.697510
-666.179199 -251.305283 959.312805
-685.146301 -307.947113 810.082214
-1145.016602 -198.956543 999.363586
-1132.884521 -146.534515 1047.780029
-1153.985596 -146.789780 1017.311768
-1141.002930 -286.393280 980.465271
-745.770142 -113.546738 759.236816
-1045.234863 -430.379944 944.834778
-1149.725952 -241.102020 916.946838
-714.721130 -235.092499 735.465515
-721.216675 -199.430710 737.155396
-1191.839478 -318.490295 718.594543
-1117.098755 -170.518784 1086.489990
-482.553284 -427.976685 1001.918762
-704.432556 -191.824768 763.264282
-1152.158691 -579.457275 835.472900
-1156.826050 -211.856369 956.858093
-1157.580444 -367.161255 876.228577
-464.554901 -268.818970 1071.657104
-1154.142944 -573.446350 832.022217
-1052.285522 -161.505173 1120.715820
-1071.425171 -357.534027 1161.533203
-241.703979 -349.409668 1012.059448
-441.882446 -288.131775 1060.822510
-345.726471 -216.472000 1063.253662
-1189.299316 -206.033371 787.516235
-697.895325 -220.194290 768.011902
-676.356506 -256.740997 867.314087
-1087.249023 -559.925964 1147.882568
-700.410400 -231.162994 851.393311
-1111.382202 -543.066772 839.931641
-1181.911743 -406.175903 811.567200
-352.283508 -342.682373 1026.154175
-1093.375244 -549.807068 898.599670
-657.374695 -446.503021 813.217529
-1164.089233 -308.609772 822.128174
-651.102051 -460.715454 940.790161
-371.220551 -413.460968 996.021240
-1115.273071 -530.826843 890.956604
-1070.537964 -153.837769 1083.710815
-675.820496 -289.940948 901.622009
-478.240601 -325.928833 1054.868286
-711.498596 -337.820770 712.898193
-694.820129 -405.939392 792.273071
-383.650208 -234.580551 1056.339355
-697.006531 -369.331146 751.858643
-753.847412 -214.873688 724.911865
-1171.401123 -263.184814 798.717346
-1198.473755 -327.389679 725.959717
-1133.795044 -146.191483 1071.723022
-1117.753052 -227.739746 1093.497559
-1080.623291 -343.908386 1171.342773
-715.031189 -128.581146 790.321899
-654.127014 -219.054184 934.483459
-1046.703491 -309.038483 1201.969971
-1187.114136 -182.382126 887.806396
-268.965149 -277.095428 1031.131592
-706.646423 -198.461014 787.887451
-1167.190308 -240.761429 879.722534
-731.753601 -282.621185 731.913269
-649.463135 -259.895050 986.497375
-1036.473877 -370.806305 1259.769409
-1003.933838 -356.214905 952.809021
-665.183533 -362.981079 829.503601
-1161.998657 -383.637390 843.563477
-1092.386963 -408.280731 1015.529663
-1152.411865 -95.383728 1050.177612
-1141.661865 -254.076569 792.078613
-410.975861 -263.005737 1053.268066
-1156.228394 -139.828690 977.810852
-1137.546021 -450.902588 896.420227
-436.237579 -518.901367 961.514526
-1133.359253 -548.909668 849.620544
-1120.982178 -294.260132 1035.377930
-1091.307617 -422.213440 991.899658
-680.812439 -278.687744 788.377808
-1209.254395 -310.505707 779.164978
-716.032288 -226.745209 776.283569
-1154.922241 -508.541748 802.922424
-1162.858765 -211.403824 822.118469
-1169.457642 -301.317719 787.037415
-1200.138672 -223.533310 765.260315
-1060.003784 -165.944290 1050.478394
-266.180786 -230.991730 1057.339111
-680.584045 -312.050385 829.086609
-1168.505493 -410.343079 808.571838
-517.155640 -408.594879 1029.392212
-337.343353 -370.099060 1016.924072
-1144.442139 -511.116974 849.913513
-662.705444 -225.112122 913.925964
-456.191437 -424.616089 995.643188
-1125.623901 -332.510193 961.476501
-1193.598633 -363.057739 744.991211
-1192.914063 -160.242020 825.832886
-311.915314 -310.403625 1027.640503
-1149.221924 -221.301895 985.335876
-665.271362 -350.596069 882.507324
-1175.416138 -118.958359 946.451233
-1128.981812 -285.483368 1032.886597
-727.088684 -166.914322 773.299622
-1200.583862 -214.937927 782.046814
-697.746826 -320.806519 777.056519
-1069.686768 -331.295502 1181.145630
-1147.955078 -199.395126 1006.987732
-1101.253784 -130.854584 1137.540894
-762.193909 -118.300797 762.070740
-457.433746 -424.039368 1004.493042
-468.188965 -207.259369 1076.812134
-707.383667 -375.063995 727.630066
-1170.351196 -99.916061 987.761475
-1164.322998 -199.157089 885.405212
-318.406738 -339.646179 1025.960327
-491.758362 -357.911438 1049.061890
-1173.015381 -335.361633 826.219482
-634.957153 -456.057159 906.802979
-1093.970825 -442.170929 962.673462
-1142.873413 -310.597839 891.364319
-1111.898926 -535.081543 853.981934
-648.482117 -243.826691 983.097778
-718.026123 -340.267853 696.672607
-677.384460 -195.560394 859.603943
-1202.639648 -200.270477 769.467407
-1150.344604 -161.688217 1034.953613
-721.296692 -139.638443 774.569153
-1146.742188 -520.682861 832.204407
-707.236816 -258.904541 775.441467
-346.819794 -235.146011 1049.938965
-416.270477 -229.677795 1062.500977
-726.971863 -315.512726 688.102783
-1082.308228 -543.056885 1099.349487
-1144.601563 -313.422058 955.874207
-404.686035 -562.631226 959.802185
-1150.478882 -460.302124 793.434814
-1075.109985 -221.294128 1134.135986
-430.997131 -466.336090 979.703308
-485.251465 -392.928284 1024.137939
-365.244812 -382.973816 1017.564575
-1107.348633 -262.204895 1097.957642
-514.758728 -406.372925 1019.235657
-1182.861084 -312.152039 811.763367
-744.880859 -377.491302 664.734497
-1137.619019 -297.473053 851.698792
-690.123108 -102.178207 890.909546
-1151.742798 -131.214859 938.496765
-1166.303955 -190.880478 955.695862
-766.315613 -137.021896 730.847107
-661.459106 -444.964966 946.734924
-1168.330322 -336.819550 882.498840
-257.663391 -456.917938 976.418518
-767.758972 -287.383331 677.928406
-672.271729 -332.850494 798.704468
-1096.730957 -238.876419 1082.169067
-726.299927 -272.726227 729.152222
-377.667114 -217.058578 1078.669189
-1149.288574 -192.173813 994.309143
-704.210754 -369.314453 814.295898
-342.882721 -430.677643 990.411804
-996.721741 -335.983521 1086.379883
-614.574463 -18.265955 854.889099
-1100.471802 -251.709534 846.210571
-1161.909668 -417.233032 780.422180
-1174.699585 -416.742584 795.331299
-714.515259 -112.713898 844.917236
-739.043823 -348.438477 701.330994
-1163.576904 -213.023224 975.583008
-304.162964 -234.213913 1041.723511
-738.682800 -273.100861 681.397339
-1099.325439 -570.791321 884.814819
-981.699402 -424.617310 1421.416260
-743.409119 -214.755035 707.937927
-1141.908813 -451.438751 905.766418
-1193.806274 -325.481720 799.132080
-1175.256348 -208.399918 928.921631
-355.424866 -236.131805 1057.336914
-1140.727417 -294.126160 1000.858582
-415.095520 -364.406860 1029.386963
-701.813843 -322.126282 743.271973
-1080.484863 -265.447784 1103.451782
-652.299866 -431.343018 1015.229492
-486.305206 -352.384064 1026.820190
-1148.872070 -587.627991 848.450134
-1182.217163 -368.853607 718.370422
-1112.173584 -244.664856 1035.471191
-1178.454468 -398.306427 775.307251
-369.166321 -505.793610 959.276184
-1136.322998 -136.517380 1071.987305
-430.850677 -508.368683 968.936523
-1206.572632 -168.093063 842.537903
-747.518127 -328.224579 663.455078
-1152.079590 -258.350677 898.906189
-271.337555 -440.684753 995.336060
-1166.159668 -392.778839 841.826172
-264.662781 -332.955963 1017.401245
-398.182373 -408.534302 1010.723450
-255.212784 -266.374023 1055.667969
-1012.984070 -336.297241 1070.855835
-1062.180298 -162.605301 1209.985962
-270.942108 -423.022888 1002.540161
-731.383972 -248.641205 709.627869
-418.556091 -369.231995 1012.513184
-449.209564 -432.505341 1014.519531
-1140.948608 -242.971298 944.473633
-1114.425415 -262.079071 1083.132935
-260.918304 -335.321747 1020.405884
-720.245605 -99.299515 843.714294
-740.650879 -89.931038 813.409546
-654.519470 -339.372864 873.363953
-1119.290649 -87.505234 1137.889893
-698.807373 -331.593628 709.448975
-280.286041 -374.082886 1012.829285
-388.894501 -517.778748 966.790588
-666.678040 -203.658463 880.543945
-679.850891 -323.065491 875.950256
-717.021484 -354.278198 749.696167
-492.794861 -276.000610 1076.679321
-640.947876 -364.215485 982.005554
-979.667358 -388.223053 1323.513306
-705.056885 -435.940796 705.252869
-1050.840576 -296.806030 1210.491821
-407.273438 -407.190948 1007.591675
-652.582397 -229.308212 1009.034973
-668.323303 -126.173050 949.692261
-1061.507813 -239.326172 1095.050415
-1165.199463 -210.575302 980.584229
-1093.769409 -169.873535 1099.919189
-724.327148 -89.125160 812.681946
-460.039276 -279.714539 1061.979736
-742.564758 -234.618759 707.945007
-737.010132 -153.383804 754.034241
-497.012604 -361.540100 1035.437134
-390.006317 -516.819275 956.949463
-748.159668 -142.632568 752.488770
-270.751648 -367.732025 1005.281372
-679.034546 -384.468353 874.017212
-1186.448853 -406.593689 792.019897
-282.644989 -338.354401 1016.147217
-1059.920166 -278.263763 886.589783
-291.788605 -289.820374 1024.724487
-1087.240967 -562.771240 976.785828
-1158.871948 -429.698029 837.244141
-1108.099243 -298.233826 952.047974
-400.388153 -435.440887 991.468933
-1111.519409 -413.196960 994.163269
-641.928284 -374.370514 985.269836
-637.595337 -331.388672 1031.268311
-393.028992 -300.477600 1039.893188
-631.273499 -260.719238 1036.327515
-391.644806 -255.409973 1045.683594
-411.537659 -355.892914 1031.260742
-1129.209961 -161.583939 1068.515991
-731.331482 -191.652939 722.817993
-1081.620972 -250.515091 1069.100952
-476.117920 -421.063019 1017.472839
-618.694580 -15.831945 838.432800
-1158.875122 -224.533066 944.467590
-1185.095093 -222.703339 838.621155
-731.973083 -345.945923 676.400818
-640.403015 -494.129364 983.756287
-371.884644 -325.505585 1020.194031
-428.950134 -322.315002 1029.934082
-1126.626709 -447.308899 939.278076
-1149.485352 -152.358017 1007.485596
-473.263184 -418.394226 1020.400024
-697.746948 -185.344818 789.017578
-695.447327 -427.412476 737.184692
-644.653625 -258.511932 992.070801
-1119.269287 -553.064758 835.592773
-1091.216797 -281.907501 1211.419434
-1157.688965 -488.225128 873.188232
-1133.604492 -480.343933 921.724792
-453.602875 -282.438293 1043.974976
-1111.045166 -352.226807 968.466492
-693.552917 -353.830627 776.374146
-377.600433 -223.538956 1060.592041
-690.719727 -191.855179 926.618103
-1003.957947 -332.620117 1360.087891
-1105.977783 -303.386993 1029.178345
-276.868805 -375.735046 998.625183
-495.587189 -244.616806 1077.882813
-1189.474365 -238.335876 775.968384
-655.797363 -171.504929 957.933105
-1071.277100 -247.622086 1203.432007
-767.660278 -186.083527 728.430908
-1155.067139 -221.555252 860.451050
-1185.245239 -380.894257 769.897583
-674.874207 -474.219330 750.905945
-268.381439 -246.789673 1041.932739
-738.433899 -336.545502 673.724365
-655.620789 -242.582932 922.573853
-636.978760 -293.761749 1044.064575
-365.351563 -513.319824 956.296997
-1116.231323 -539.678040 851.041931
-653.368652 -403.103027 948.850281
-722.217163 -226.011688 753.076233
-992.045532 -316.694611 1454.064575
-1141.223999 -430.076050 912.000366
-1125.572266 -257.790344 1051.108521
-473.593658 -500.877869 980.761536
-313.301117 -463.364655 973.159790
-1163.752808 -237.837814 861.666077
-238.134140 -330.520905 1027.935059
-739.723633 -393.960571 692.495422
-1106.923706 -111.308662 1115.618774
-1146.799072 -291.453369 995.948730
-450.652344 -305.943512 1051.779785
-764.588196 -232.187027 708.737488
-723.305176 -261.398499 710.820923
-701.970581 -226.946426 750.665344
-1078.944580 -517.058350 882.755554
-1077.227295 -642.279602 1003.462402
-1056.022461 -149.708481 1091.576050
-273.245117 -433.157013 996.891724
-674.136658 -228.531586 914.538696
-671.050903 -481.223328 758.135559
-677.884583 -256.944336 820.148621
-422.947906 -409.893127 1011.814148
-1159.581177 -415.903168 849.255066
-677.648499 -386.997803 824.109985
-286.105957 -416.754211 988.527344
-693.655640 -421.913483 849.410767
-1199.579956 -304.420380 773.931458
-372.828644 -246.975800 1058.849487
-1158.905029 -232.400909 846.159790
-1143.063843 -251.561478 936.592224
-660.510254 -220.596558 952.078674
-490.311798 -255.679733 1055.427124
-1143.736206 -315.927582 871.657288
-1074.257080 -462.916901 982.765503
-354.849274 -187.769180 1069.383911
-713.800415 -434.062683 678.202087
-1160.818115 -63.692539 1035.257446
-670.573792 -204.859543 920.852905
-1114.865356 -216.003677 1091.510498
-1108.331787 -52.319736 1121.789673
-1154.062744 -180.748474 977.214661
-338.974304 -261.166809 1045.682251
-1151.818848 -184.485077 1013.107300
-1024.093506 -305.933411 868.297791
-732.747864 -108.876366 803.020813
-366.307465 -210.126022 1065.570923
-1150.510376 -85.255775 976.316772
-705.360107 -109.310493 871.038452
-1152.193848 -140.102936 992.705872
-1100.543091 -34.758312 1172.499878
-465.542664 -381.687927 1038.164185
-1165.117676 -236.508484 961.841797
-666.590149 -175.696793 937.195007
-1143.694946 -188.589691 1012.717957
-705.339539 -389.231689 688.017944
-436.127777 -210.382706 1078.481079
-443.524353 -448.923126 1002.656616
-1070.120483 -171.922409 1117.187500
-288.277863 -344.794586 1034.942871
-1165.383423 -107.110092 907.513672
-764.228149 -271.223572 689.967773
-302.490082 -305.018921 1036.844360
-1104.742065 -105.364464 1120.582886
-1088.301147 -240.784912 1077.665527
-1107.722412 -586.615784 840.542358
-304.501007 -462.142395 965.079346
-1074.963989 -312.640961 1194.147949
-1099.870483 -155.785599 1094.889282
-426.939117 -334.520386 1035.214478
-1107.449219 -184.922623 1102.371460
-403.614044 -412.852936 1012.176514
-645.610413 -291.026001 949.455322
-664.974121 -447.747253 862.723206
-1088.687622 -329.624878 1018.935852
-286.073273 -301.223694 1037.700806
-1157.619385 -271.975311 863.567444
-1165.632324 -155.586227 902.300720
-710.195923 -118.263519 854.335388
-1175.805664 -230.535721 881.726501
-658.982544 -296.699982 942.308594
-712.516174 -105.353989 851.097046
-1169.427979 -379.570709 832.400391
-757.237854 -231.717239 688.812683
-1184.587769 -375.553772 762.965393
-243.811249 -269.390656 1040.007324
-440.517761 -450.047791 1004.269287
-654.923950 -337.504608 991.041809
-644.837158 -329.089417 1066.317139
-661.200500 -222.637817 992.467407
-404.529297 -265.985931 1054.407349
-1146.101196 -429.438507 904.558472
-759.300171 -330.701965 678.142212
-718.153625 -392.240784 749.148438
-620.630066 -381.320129 988.642761
-1054.412109 -135.281906 1097.041260
-622.401001 -394.118103 1040.432129
-1165.701660 -136.355133 972.650208
-530.258728 -305.416656 1077.875732
-1185.350464 -352.404388 726.666931
-1056.897339 -378.578766 976.903137
-404.174133 -207.926178 1068.960449
-681.251648 -361.274200 786.338562
-695.400940 -97.012367 892.321716
-1078.523438 -539.839417 916.095093
-984.655945 -351.577667 1310.760376
-712.432068 -384.529480 687.383301
-1129.753296 -422.746063 906.786926
-685.005188 -304.355896 833.354309
-1136.737671 -199.927185 1050.545044
-540.513550 -339.605286 1082.916382
-1051.334106 -301.934357 1152.713379
-706.399353 -409.153717 708.169617
-346.750854 -214.413071 1051.697388
-1014.007690 -461.758942 1107.304932
-1097.114624 -507.316528 925.891602
-1161.688721 -270.668091 949.947388
-711.589783 -260.725006 781.453003
-281.302155 -274.927979 1037.219238
-1177.125977 -213.041748 911.322815
-709.248352 -241.178848 763.835449
-1132.873901 -485.760040 905.094788
-376.143372 -352.658295 1027.683105
-661.868286 -433.560883 942.137024
-1116.905151 -561.753174 842.213257
-1135.325317 -259.325897 869.857178
-1138.840698 -436.998322 857.442993
-628.324097 -415.572662 1046.894775
-627.469604 -357.894928 1023.756531
-268.298401 -323.130035 1020.394165
-654.690063 -514.067200 874.369019
-1073.176270 -187.761307 1094.031128
-1207.395752 -199.158936 768.643738
-340.663177 -294.361969 1037.894287
-705.593323 -303.239655 705.406311
-756.483459 -286.101501 668.358765
-1057.007935 -200.222092 1184.492310
-476.632202 -332.784698 1049.014893
-541.428833 -0.319217 873.142151
-343.093445 -272.032257 1039.125366
-710.240906 -248.516968 752.539001
-1055.152222 -265.354340 841.049133
-717.455017 -184.340775 745.524597
-678.088806 -203.136749 917.698181
-665.691162 -170.200775 943.328674
-1013.315247 -349.556854 1282.095825
-505.422760 -71.141708 894.268127
-1079.369141 -77.774727 1146.597168
-1149.363892 -126.745354 961.582825
-369.218567 -335.117523 1032.703613
-663.188599 -427.176697 881.315674
-1100.057983 -326.983826 895.663513
-387.167419 -303.323456 1051.410278
-447.086243 -264.181244 1064.115479
-1169.494629 -174.913513 942.179932
-703.520447 -225.033478 806.502869
-468.282013 -346.548950 1025.718384
-321.143311 -396.793488 998.875488
-289.600342 -257.690338 1042.668945
-461.683868 -356.123657 1034.125854
-257.402374 -363.664032 1025.303833
-701.826721 -391.542053 726.289551
-680.803955 -132.238556 955.013916
-1116.068359 -328.632568 917.248169
-719.242981 -268.251373 751.658508
-534.658447 -322.877258 1075.684204
-1053.791260 -327.668091 1222.973145
-1140.279419 -233.814041 954.450562
-698.540100 -226.994080 790.375977
-1133.391602 -482.487946 954.736145
-1102.433472 -197.888885 1084.163330
-709.827942 -358.348999 707.906921
-1144.473389 -96.292992 1063.103638
-768.238525 -176.466171 709.528870
-447.448608 -257.648102 1066.412964
-1155.054077 -115.006233 998.361389
-444.705566 -299.877289 1037.453491
-1180.994019 -109.094536 929.391235
-645.734192 -455.496002 1008.268921
-690.134827 -242.025208 781.469971
-1047.434692 -391.105469 975.894592
-682.976013 -203.636047 946.822998
-687.853394 -122.856522 897.316956
-703.619568 -181.033371 809.122925
-242.366898 -364.090942 1020.155212
-347.524200 -408.796417 1007.254517
-745.112610 -237.852768 692.800232
-664.054932 -284.768158 853.012756
-480.093414 -289.225067 1055.272461
-392.501465 -455.185089 982.140198
-718.632263 -284.053650 769.829346
-1094.704590 -540.367493 1121.348511
-665.283630 -227.141052 925.682068
-1162.473145 -212.946152 847.680359
-1072.438843 -304.513428 1174.477783
-696.157654 -340.402100 712.928223
-716.321960 -77.606834 862.421814
-1110.589600 -63.082733 1164.806519
-1066.456787 -171.477005 1075.996460
-465.580780 -215.961639 1066.325439
-295.635223 -453.004242 977.074402
-1150.712158 -521.634644 815.475037
-1134.194824 -183.861816 1039.934570
-642.215698 -381.051666 917.339539
-674.287842 -265.310425 862.445618
-1159.934570 -123.579575 970.744873
-1191.720337 -157.871643 833.846680
-1101.875854 -585.480652 929.508667
-482.163330 -412.475616 1026.666382
-438.597443 -307.795746 1034.707764
-485.912323 -517.746033 971.281189
-1158.733643 -205.576492 953.748779
-738.800781 -193.356842 724.675232
-338.193054 -501.584137 948.757935
-694.410400 -401.270050 811.333069
-347.759705 -402.356079 1000.338379
-659.357849 -167.438812 981.951416
-736.021729 -402.320374 697.383972
-369.995148 -273.790283 1039.748291
-505.713043 -404.953461 1034.895874
-649.505859 -384.725769 949.919495
-1176.543945 -384.133423 783.316040
-760.919861 -91.188980 791.891907
-732.855774 -282.977875 683.041992
-549.098083 -230.237274 1097.585083
-754.127563 -387.060089 654.430176
-1051.091919 -205.484039 1101.899658
-1100.586182 -446.249786 972.824280
-1181.224365 -201.990448 882.235474
-236.472198 -433.307068 1017.341919
-427.654968 -491.882874 968.413025
-699.892578 -166.197296 795.660034
-1149.614868 -421.541077 875.632324
-1178.503540 -362.356323 800.081421
-521.300659 -501.123566 990.406006
-717.936218 -119.393494 818.842590
-500.560669 -249.552032 1078.053589
-1161.305664 -203.584396 994.451294
-668.440613 -166.678223 990.736694
-1004.176819 -286.648529 1276.994629
-997.241333 -312.005737 1012.619324
-1203.662354 -256.074005 795.075317
-752.974304 -135.204422 773.078552
-675.714478 -207.524307 953.563843
-345.390747 -377.374023 1012.479553
-1158.654907 -371.720123 864.510010
-1064.095093 -338.373749 1108.804077
-480.262665 -440.558319 1011.017273
-434.203217 -400.139801 1009.349976
-1142.986694 -431.185455 847.820251
