ply
format ascii 1.0
element vertex 1391
property float x
property float y
property float z
end_header
192.932617 918.047791 -570.176086
232.375702 908.133301 -588.604797
289.749268 928.635681 -533.872437
133.047287 523.868164 -943.625671
187.876129 872.582397 -810.205383
354.244415 871.841003 -680.944336
300.791351 898.080933 -643.642395
290.042694 894.980896 -587.098755
385.353699 480.443481 -1345.691284
570.470825 822.734253 -1289.639893
324.566101 571.804565 -1384.448486
316.968414 574.867920 -1367.041748
243.156357 868.520935 -804.411194
404.465179 617.288086 -864.053833
603.558105 451.651581 -1272.926270
477.616577 504.104034 -849.950134
89.928139 882.070374 -718.496399
279.484406 470.273315 -1406.539551
239.196884 437.218506 -929.193604
426.436005 578.833496 -1351.774414
321.823883 883.816650 -622.115234
218.773590 641.697693 -927.581543
208.236237 553.021545 -927.812988
310.735870 776.139954 -898.618164
222.087234 445.144623 -1391.990234
251.135696 428.573914 -939.236450
696.807373 575.746948 -1261.211914
721.986023 646.026245 -1252.672974
274.923065 880.118042 -693.802368
281.209137 511.668274 -883.372864
294.114258 509.372162 -894.061157
500.078735 640.378662 -826.845581
605.626709 431.761505 -1274.099854
468.979797 400.509399 -1255.347412
198.707367 509.867981 -931.338440
480.374878 558.704346 -837.105225
468.335846 534.920654 -1326.797119
544.340759 546.766357 -1325.528564
559.111450 445.309937 -1288.687866
374.757690 523.125183 -1367.767944
219.002838 481.104279 -919.507019
258.726959 438.086273 -926.775391
465.835907 676.159180 -849.490662
372.157898 463.749512 -864.438965
156.432480 913.079712 -637.325867
133.746399 849.036804 -831.125488
267.867737 444.153259 -914.447021
540.814575 622.321228 -1332.325073
425.186249 794.617371 -875.584961
774.919434 609.806030 -1242.472900
315.388550 879.734680 -692.259827
201.202927 923.557861 -598.242310
591.042664 474.165466 -1302.203735
393.963043 396.100433 -1364.526367
463.232697 581.854248 -862.546204
218.016663 873.515625 -757.290588
226.525589 480.712280 -916.562012
328.274597 507.118622 -870.784790
130.880722 537.308228 -944.287292
284.716522 726.727234 -1422.483154
214.095032 647.913513 -961.031921
539.719971 431.314148 -1296.127930
209.895370 541.724304 -926.835144
440.349396 579.621033 -1214.527222
237.478455 870.698608 -750.642822
486.662964 493.441040 -859.097412
304.983032 423.874054 -1381.305176
264.934601 469.594482 -904.702087
185.613571 784.296936 -938.173645
307.861053 857.210083 -731.136047
359.095886 663.742981 -902.915100
331.462006 782.946289 -923.484070
579.867371 383.800476 -1290.839355
705.015991 584.616211 -1268.506958
282.670807 451.598724 -1391.350586
233.923965 552.722168 -903.985840
367.092499 531.168762 -1390.584351
544.192078 402.205017 -1306.183228
462.835632 581.152832 -855.385132
748.140503 577.267517 -1250.520264
346.444946 553.462830 -1362.237061
224.826233 553.613647 -1377.814331
610.190125 738.745911 -1320.779785
266.051971 635.437256 -918.585693
405.105286 551.602783 -1376.615723
480.681824 679.160645 -1263.755615
405.059601 637.048950 -1256.044434
166.797470 894.426880 -702.176025
187.792053 867.007813 -806.390625
711.645630 539.935791 -1270.215088
371.038635 774.694824 -899.957947
359.964294 769.668762 -902.375671
434.925049 720.902710 -868.243103
291.072723 746.995911 -922.352417
364.560852 616.145447 -1379.140259
240.599167 900.287720 -616.193359
279.924744 413.884430 -949.104919
146.629120 925.684021 -610.670593
425.212219 390.256470 -1340.384155
608.474548 866.060669 -1313.685059
550.601685 826.223877 -1321.327759
319.584473 538.687378 -888.862488
779.614868 622.463501 -1258.312256
291.856689 879.889648 -662.411560
671.394104 580.856323 -1271.075684
437.076691 290.461243 -1313.449097
308.901337 596.423828 -883.934937
468.021881 475.802155 -847.946472
326.404236 699.368042 -925.065735
237.205307 921.950989 -577.501038
296.726105 612.605469 -1370.280029
613.789551 451.286621 -1302.537964
378.253693 525.922729 -864.946838
503.497772 557.663147 -1326.937866
146.965820 569.657104 -938.474792
482.293976 553.074341 -856.620667
677.055847 450.309479 -1276.370605
179.198807 723.945557 -952.681519
173.541580 569.531311 -940.990967
380.472748 491.311096 -1368.728394
340.888641 518.675598 -1393.962891
439.668457 528.198242 -847.264404
329.038788 895.468628 -602.214111
357.172089 441.393585 -892.820862
680.524719 645.458740 -1276.686401
415.899780 833.549438 -891.589661
256.810974 882.364319 -705.269165
231.577530 646.281433 -927.695862
339.374542 864.057556 -683.560852
286.658844 728.711609 -905.689270
368.360962 708.580322 -1301.238281
335.787262 715.964539 -912.626587
293.434479 676.368103 -915.395508
205.083847 739.282715 -966.576660
692.397156 614.411682 -1271.427002
708.962280 601.250671 -1251.970337
176.887589 874.209961 -787.054321
414.389862 509.616852 -855.520691
313.466888 548.370422 -1399.591919
367.326935 426.765015 -916.343933
571.179932 470.313446 -1303.243408
273.278290 908.061584 -584.006470
162.759460 863.439636 -809.156250
427.684082 641.288757 -858.501221
322.977661 479.777802 -882.876587
376.129120 861.057129 -738.633850
236.649078 916.314819 -619.878906
388.661987 593.067078 -889.825562
267.881256 581.380737 -1407.266235
586.747681 659.355103 -1302.579590
692.512695 658.047363 -1208.362305
130.759018 591.166321 -946.935303
225.936386 662.605713 -928.545166
558.705505 987.784790 -1348.243042
344.887970 607.453064 -1371.533447
311.464905 811.428467 -1425.512939
440.417603 844.580261 -669.091187
311.131622 569.355469 -890.375488
298.063843 886.740479 -641.800110
293.530121 876.753601 -791.258301
750.875854 678.595581 -1264.316895
284.023529 880.530945 -693.522766
320.466736 685.330139 -890.678711
365.267761 882.673218 -648.808838
350.950714 429.015076 -1381.568970
230.104401 555.517517 -942.011047
400.055542 767.219849 -883.693481
535.605835 472.342316 -1299.737305
214.791992 552.557434 -1392.541260
521.332581 345.989136 -1306.711060
614.919983 475.668976 -1288.390259
160.709076 505.813141 -938.072144
402.595398 664.968933 -1257.202637
293.439667 657.592041 -912.878906
202.728287 554.196045 -1344.547241
219.804962 907.092285 -592.398865
483.073486 702.542175 -837.446533
460.817810 450.764465 -883.680725
437.651215 319.135315 -1342.772095
508.281403 308.429321 -1310.082520
416.426544 870.448425 -693.192261
235.830032 898.714172 -602.411560
300.887451 595.924805 -1380.697510
255.053467 437.208984 -943.619019
606.205322 825.969543 -1330.676514
232.889282 438.134857 -929.917725
224.088669 884.765198 -664.180664
223.869797 445.647461 -948.322754
182.304794 659.832581 -930.875854
592.493896 470.456299 -1307.734253
350.538177 816.135254 -919.285828
149.480988 613.479004 -951.398438
195.836441 511.570465 -1411.698364
313.257446 394.949646 -1361.292847
386.695038 378.207916 -1365.252197
183.583511 645.512268 -960.765076
403.691284 531.356323 -1365.107544
599.209229 658.035706 -1236.158081
237.689438 444.037628 -924.801514
439.775482 651.363892 -855.335022
355.090210 489.936707 -1371.611206
272.716431 441.139069 -1395.399414
211.229492 953.802795 -572.268250
392.072357 569.752441 -1365.478516
446.318756 327.214783 -1349.264404
238.755524 865.414429 -783.615234
188.579193 865.119446 -749.007019
450.392822 446.071777 -1313.691406
152.177429 886.252197 -761.538330
216.482117 893.645996 -662.511963
435.157043 391.265137 -1341.441772
502.502380 598.306641 -639.971313
438.748474 344.062866 -1336.611206
295.742188 576.367859 -1393.668579
553.339661 363.010712 -1286.596802
256.154999 489.655396 -919.724243
454.503143 462.643219 -882.344482
253.538162 925.490295 -565.101624
179.110962 525.625671 -1431.331909
475.987457 293.873627 -1301.331421
773.597168 594.482788 -1243.750122
526.567993 679.057800 -1317.569946
259.039398 575.996948 -922.424072
586.658203 683.088013 -1266.129150
186.686523 530.741455 -914.695190
401.492676 864.537048 -755.324097
264.540710 531.056824 -1382.324341
413.209167 756.046814 -883.633118
670.971130 643.044922 -1239.544312
234.254974 635.704407 -909.971375
269.299652 447.637146 -913.794006
399.552795 881.117920 -826.925598
575.838257 1035.775391 -1319.473511
428.536346 859.864990 -695.865417
238.287323 846.583618 -806.170471
331.168701 866.575684 -786.104675
366.134460 901.542480 -562.593140
240.025818 802.182678 -945.786011
711.553528 569.474731 -1262.658691
223.937668 570.409607 -1400.523071
186.848801 916.852417 -580.591431
615.404236 785.955383 -1311.251343
571.128723 630.565186 -1277.713257
715.902100 519.712036 -1268.498047
723.778809 621.442383 -1255.084839
586.219116 431.688110 -1294.960449
750.063965 680.132690 -1219.762939
421.996552 442.784851 -1360.402954
288.996674 868.370056 -736.807312
328.259888 504.987946 -882.991882
354.274536 722.797974 -898.828918
267.631622 860.476746 -786.896545
285.745270 883.788635 -625.519653
314.249298 902.315857 -569.969910
457.290192 458.015533 -878.382080
290.277740 497.213196 -894.824036
322.787628 891.477722 -612.376465
197.887711 937.536560 -592.424316
521.070190 538.876282 -1322.448608
261.844635 628.625183 -920.155823
729.320557 530.446167 -1265.816040
198.943100 906.685669 -607.563232
389.317017 631.135376 -1371.940796
371.484100 801.128601 -909.516724
131.919327 722.676331 -948.799133
261.231812 760.699768 -948.853088
613.332947 885.339355 -1303.071411
231.639099 469.994598 -1390.953247
548.097473 434.684662 -1291.536133
296.206665 499.063568 -894.826538
454.877380 604.577759 -1310.895386
439.881653 674.532104 -848.134155
296.776672 526.903442 -1397.601563
316.149750 878.176514 -665.057312
343.526672 912.386902 -566.065857
584.078613 915.852844 -1301.378906
115.277779 861.011841 -810.736572
115.679008 545.258301 -950.123474
445.595764 537.088989 -1287.799438
300.250336 589.393982 -894.965088
325.684692 449.872253 -879.898254
337.800049 878.412720 -641.242676
629.156433 398.833923 -1275.380127
224.027557 530.664063 -1335.051392
493.340912 553.210327 -841.029236
554.655579 777.552612 -1339.577881
227.603424 865.269470 -792.842590
321.852386 578.175598 -1388.406372
189.775208 927.821411 -595.956238
355.366089 618.801086 -1353.002808
453.433502 547.293274 -858.794495
330.895386 873.623230 -713.749390
416.432831 582.193115 -855.625854
510.556488 324.779663 -1303.980347
441.292908 401.968994 -1353.589966
702.037354 523.773438 -1276.489990
359.423767 782.586426 -1376.167236
433.741150 673.214478 -853.282227
363.738739 446.024353 -1350.521851
556.967834 544.173035 -1328.381958
218.260788 903.125916 -597.967651
385.046478 897.821289 -615.882935
497.398438 789.354553 -1334.276489
343.482697 640.280212 -894.067688
596.775574 759.075500 -1308.998779
180.694122 602.780823 -1367.743408
417.139160 451.085785 -857.029053
605.573059 634.612488 -1293.411255
398.357758 581.210449 -855.284729
404.875763 582.084351 -1349.147217
449.426086 318.336670 -1328.235840
463.898376 512.394897 -845.246704
280.713104 643.510559 -909.563721
497.361420 625.816040 -683.136597
519.456482 299.703644 -1304.204346
222.658096 686.146973 -932.362122
497.976288 579.544983 -821.082092
306.093506 849.586975 -775.286194
603.674622 453.216003 -1276.232666
435.998871 480.614838 -856.170288
741.231873 640.199219 -1223.079102
225.403381 413.517242 -954.621094
100.829559 857.333191 -792.298279
293.155426 440.211334 -909.376038
266.771515 746.645081 -924.344055
419.748169 873.644409 -792.852966
601.546509 589.154785 -1301.443604
258.139313 642.146912 -921.758179
412.976624 326.901550 -1328.295044
690.888367 620.467773 -1227.157715
313.418060 503.102509 -898.752625
548.820862 585.379883 -1319.684814
78.710373 903.601624 -695.548340
624.483826 591.921143 -1302.082520
195.649460 443.038147 -949.412354
445.379028 383.319855 -1312.356079
240.446838 691.228149 -941.193665
189.878845 912.086243 -601.285950
377.946228 442.744354 -1384.438354
679.523865 653.368835 -1211.753540
636.689331 1026.575073 -1299.156494
491.905029 393.301880 -1317.314575
512.655273 416.265686 -1314.645264
456.938904 501.179840 -1218.095215
309.457062 888.101379 -625.910522
348.540741 861.693665 -741.111816
146.271149 853.762573 -817.949951
227.751846 499.454926 -900.453674
235.688416 647.053162 -940.860596
549.511353 494.255554 -1314.894897
264.576782 578.443542 -1384.522461
503.807404 627.465332 -796.515747
608.644531 1024.224976 -1320.335693
155.370117 943.309326 -609.602539
334.645233 501.833221 -869.134827
392.777588 785.860596 -900.498230
442.130402 732.610474 -877.256592
297.215179 901.313049 -569.677429
685.978149 550.139526 -1271.109009
580.206360 538.595886 -1320.828003
509.934387 638.920715 -1242.969849
371.051178 526.380432 -889.496704
355.573242 365.072998 -1350.340698
375.933472 881.637146 -662.825195
255.350449 916.734131 -570.581543
623.257446 400.567841 -1294.067993
368.626617 541.478760 -1385.799805
683.960449 611.992615 -1221.137329
596.625671 469.839691 -1280.455444
654.874390 654.007813 -1268.472656
75.921043 899.738953 -701.342773
639.623169 514.956482 -1283.906250
565.815125 518.427124 -1310.330688
408.542847 864.503479 -688.373352
253.504364 553.864563 -1389.603638
230.727356 592.794067 -946.844055
401.311279 538.815796 -1364.935547
423.843842 313.023712 -1320.019897
447.695892 524.227722 -865.393005
265.071533 874.242004 -722.282410
266.163788 864.995361 -826.409424
511.578217 699.520874 -1289.727783
507.750214 631.934998 -1331.546143
348.665497 420.384552 -1372.888672
433.406097 443.997131 -871.841614
262.997284 555.070313 -1381.211182
698.363037 670.479187 -1236.371094
456.369720 636.205566 -863.284790
201.291550 894.103210 -688.550476
682.820801 495.982819 -1277.546021
698.976929 658.289429 -1265.977905
259.266235 795.499512 -934.495056
440.768951 420.975830 -880.990234
573.538269 625.092407 -1312.003784
669.556335 536.650696 -1275.478516
470.294220 827.286133 -739.454773
434.836609 463.680145 -1287.270874
82.462372 871.420044 -778.831848
365.308289 877.377380 -686.902344
106.478828 870.929321 -760.145447
450.556610 484.843262 -856.291138
446.097351 330.230286 -1327.193604
308.135773 657.536438 -904.204346
219.216370 916.639038 -566.115967
422.106873 436.627747 -906.153320
145.018295 852.125061 -803.280518
294.744598 888.738403 -862.309937
327.395721 891.617004 -569.108521
243.299744 563.891418 -1394.825684
438.633270 443.483276 -1220.607056
374.664734 563.765381 -1370.679443
553.776306 519.917236 -1314.087524
355.678894 437.223297 -894.524414
405.804962 639.809631 -1352.140137
754.091248 630.873901 -1242.274170
380.522095 635.405029 -1254.267334
588.501465 448.919067 -1295.180542
181.924911 712.557800 -967.118469
380.649078 658.312134 -876.039734
314.969788 550.571350 -891.236816
273.131714 565.516602 -1349.514648
462.609436 554.474915 -861.463806
572.360474 525.809875 -1314.331665
413.563965 656.431946 -888.405151
282.370117 504.262390 -902.383057
198.268341 781.875916 -952.340393
275.570038 787.475098 -954.241882
332.826385 671.522461 -919.226440
375.072784 873.137695 -667.872925
215.634766 683.130249 -1433.468262
151.014603 518.006165 -933.224060
531.496338 763.715149 -1363.888428
311.720001 618.411865 -893.783020
448.805206 377.255310 -1297.960449
493.151428 604.322449 -691.370605
492.850403 717.767578 -1299.312378
109.403175 865.781677 -792.169678
306.517426 797.252808 -1439.095337
340.967773 547.584229 -1364.252319
403.687378 647.304504 -867.223572
337.915558 877.954590 -651.362976
382.146698 865.505371 -696.466187
694.912354 564.302917 -1278.398560
483.134521 305.127350 -1317.711792
204.871933 787.903992 -934.889771
499.127777 509.135498 -846.988892
490.777832 796.583496 -1326.105835
477.909790 802.209595 -1349.814087
449.839417 496.803711 -850.812317
130.528214 696.815369 -970.312317
430.847290 378.560577 -1355.228271
604.426514 486.898529 -1301.237183
110.943840 891.118774 -710.157227
615.124268 762.916626 -1274.763672
233.343414 459.155731 -1394.467407
248.589478 753.231934 -938.045715
264.573151 890.346802 -654.793823
487.261322 342.002228 -1325.919678
301.379364 536.112305 -891.369446
311.900360 901.219116 -578.757629
113.010994 583.709412 -961.335449
223.354904 721.840698 -945.056152
381.265076 682.718262 -866.462036
134.338257 852.253845 -838.094604
242.976898 869.262695 -780.115845
788.215271 630.276672 -1241.337769
391.600861 464.610352 -1359.299805
365.708008 893.272461 -601.097168
707.042358 570.324646 -1246.742310
282.379761 547.881653 -1394.754639
431.133392 364.055145 -1334.296265
513.435425 494.185944 -1289.501343
295.076935 852.648560 -800.999329
377.716278 543.854675 -855.042053
262.942230 648.432434 -923.543396
346.778717 499.921600 -864.144165
88.631264 891.338074 -683.598145
347.618835 464.047241 -1370.443115
286.037476 527.763916 -895.463379
597.181580 1051.432617 -1329.483032
617.383789 714.078125 -1320.351929
358.446808 432.004517 -889.832764
466.685242 466.517120 -874.588745
353.823761 867.893616 -733.816589
585.147278 594.466431 -1302.229614
309.616486 808.686340 -931.666199
233.056458 874.361511 -747.233337
642.723022 632.039246 -1282.422119
294.678986 562.824707 -886.606079
298.559052 918.598755 -561.228516
337.413788 454.936493 -1397.770752
250.950470 525.436523 -1361.995972
90.353096 860.636780 -784.809998
128.051910 913.342834 -629.264404
760.524048 671.724304 -1254.962769
334.267120 558.315735 -894.519714
335.671326 707.995483 -915.267090
346.057220 479.361359 -1392.976196
234.626694 432.114899 -940.795898
627.187744 741.609680 -1273.447388
680.294678 513.654236 -1281.738647
196.366348 569.388000 -944.651733
717.730591 582.659973 -1242.281372
461.678131 465.982697 -1312.108154
277.647339 431.472443 -920.442749
315.728821 517.152039 -1389.602539
342.974731 887.044678 -623.463196
489.293182 398.999054 -1272.257446
336.667969 887.157104 -611.735535
427.030884 448.538452 -1342.607056
701.860046 557.234497 -1263.113770
357.258453 411.796448 -1363.137329
157.852692 451.931763 -958.976440
538.947510 620.072510 -1320.791016
636.392334 471.580078 -1263.772949
136.941574 905.516541 -657.742554
368.366760 671.418152 -880.384827
159.044312 884.841858 -671.619934
646.284241 453.258026 -1287.243652
477.156342 741.023010 -845.563599
565.977600 847.903625 -1326.846069
178.191132 512.304260 -1418.467285
372.363647 500.972015 -857.021301
258.642548 561.211304 -905.235840
197.173111 429.410889 -931.201599
229.857391 439.172485 -928.542297
561.799011 1057.495239 -1324.745117
171.548294 908.624695 -596.453125
454.438934 573.955017 -850.127319
336.392670 786.714417 -903.156738
493.457214 379.201996 -1303.580200
739.431824 569.131531 -1251.207031
533.389954 391.506805 -1309.503418
509.159271 1002.631287 -1317.277710
309.116302 519.011230 -887.364502
504.118652 692.588562 -1271.590820
426.046326 867.058899 -735.806763
435.037170 686.100525 -864.983643
178.825089 897.767944 -620.446045
257.291870 625.937683 -1352.952637
298.959229 570.396301 -1398.194458
331.546783 676.960938 -882.373474
315.902802 873.705872 -689.484009
374.144592 552.062805 -869.967773
504.917511 402.150238 -1305.609497
287.959747 598.131775 -1390.711426
211.677063 858.134521 -816.960632
512.888123 825.459961 -1324.981201
224.644531 876.599487 -688.620728
294.394196 450.794830 -899.762634
617.752319 464.668060 -1287.504272
708.990234 713.287048 -1251.824463
452.773895 562.748657 -844.052551
326.215424 448.406860 -895.507690
431.677368 849.052368 -778.266052
260.166565 898.715271 -591.716675
148.286423 862.308105 -809.374695
536.393860 447.842041 -1296.721436
375.482117 900.441711 -589.999451
386.091034 675.753235 -894.027100
444.718872 408.939545 -1311.406006
606.681702 464.555664 -1291.838379
315.183716 602.571716 -1390.673950
440.757416 433.360199 -1300.309570
283.715820 425.929901 -908.465393
347.924622 611.898193 -1348.113525
692.851563 489.224152 -1276.868286
199.513870 577.843506 -914.546021
395.895752 500.443054 -872.065491
501.068268 464.085510 -1310.640869
206.356354 687.184021 -1422.390015
357.341980 655.361206 -870.878906
397.749176 556.728699 -867.414001
271.918701 895.813110 -620.877991
294.195099 413.983612 -927.352966
510.940460 996.916199 -1325.844482
156.412186 481.650452 -933.369812
345.378387 456.913483 -873.156616
458.508789 595.692322 -1220.232544
413.875183 629.996704 -854.795532
523.398499 561.619202 -1323.690796
356.215179 875.644775 -668.870728
480.495148 491.569366 -843.291382
393.370911 871.945068 -697.346069
454.694824 850.771912 -765.211670
83.075966 925.414368 -613.779053
237.941345 913.041870 -563.686157
571.164124 399.005859 -1299.022339
588.140991 692.251770 -1266.737915
424.316040 496.630829 -854.233337
376.785889 867.950867 -717.909485
467.541626 463.381348 -876.266846
705.830017 563.632996 -1274.322144
595.578430 851.390076 -1326.419434
368.640625 852.237427 -732.183899
233.125015 731.727600 -956.065613
335.516785 799.003723 -921.934509
302.907562 561.724792 -1387.779419
447.163208 351.987762 -1317.271484
295.408997 629.012939 -900.766113
335.767822 888.276794 -630.807739
317.542236 909.298340 -554.557373
537.937866 640.490967 -1299.355713
569.727966 515.463928 -1293.585815
410.343475 859.507568 -717.074097
327.764679 454.048187 -907.182495
553.797607 686.722290 -1274.390137
238.590149 546.724854 -1305.037842
516.893372 528.921692 -846.389038
381.062653 609.247620 -859.755493
246.471375 857.578918 -845.067993
207.271637 910.724060 -601.307983
562.237488 635.054138 -1323.140259
621.511658 884.263428 -1295.936523
274.759613 694.772400 -918.511292
206.580826 911.066833 -655.763794
339.837433 843.891479 -790.363647
102.514412 885.321350 -675.577576
499.973358 731.877869 -802.075073
376.660889 554.827209 -1357.249512
571.027893 814.243408 -1315.630737
290.031128 418.446411 -924.042297
418.501068 307.868347 -1321.397583
370.194794 637.507874 -1346.527100
454.894348 487.964783 -1339.043823
534.612183 848.602722 -1322.741943
186.223587 430.823761 -951.186157
302.264893 483.273590 -1371.919800
647.844604 459.208954 -1286.078003
675.003479 583.438721 -1281.339966
78.464005 891.633423 -689.352356
770.681030 653.704712 -1249.728882
395.965912 885.834351 -665.520142
609.948608 395.382294 -1284.833374
126.752411 915.976013 -643.246033
740.961853 659.189758 -1259.615112
364.629425 765.305420 -917.381226
393.780182 382.824463 -1368.252441
140.108459 571.877075 -1390.697876
384.632385 656.256531 -1314.520264
9.995723 639.911987 -736.083740
369.073456 731.128296 -897.744202
113.775475 864.993408 -785.409973
303.565643 458.843781 -892.325317
476.242523 443.616455 -1289.853394
568.610840 768.409180 -1312.585815
223.228943 722.507019 -968.739441
484.414215 699.767090 -1276.886841
253.523224 514.267029 -1408.253296
544.759644 584.897278 -1320.505859
755.235168 700.047424 -1223.657227
507.798523 297.545563 -1304.416138
565.751770 709.388428 -1280.454834
633.962952 523.672485 -1294.496704
218.132339 875.389709 -763.941528
363.329346 796.675659 -895.380371
186.192291 452.565125 -931.091187
98.615036 889.973328 -687.315735
213.680511 405.187836 -932.766052
433.158966 602.866638 -841.871216
274.652618 448.538361 -911.965820
296.847626 868.734009 -759.124939
224.333130 437.801361 -934.854248
415.125092 596.881775 -871.489868
390.989746 675.821289 -885.404053
508.001343 313.531311 -1292.735352
204.229034 871.551514 -753.809875
597.769958 507.077209 -1280.613770
283.686920 879.935242 -740.981812
618.750305 582.974426 -1292.042847
378.810242 809.769531 -900.025330
181.901352 862.006897 -824.754395
233.007309 636.765503 -927.074219
646.687744 450.455505 -1290.057129
374.145508 680.112122 -899.009766
466.557526 423.326172 -1259.479858
615.968750 873.894104 -1297.811035
286.077972 910.632141 -547.660461
325.756104 883.699890 -647.175476
154.541504 869.498352 -730.533325
592.063782 514.157410 -1283.422607
263.744171 905.278076 -574.651428
83.846970 863.728760 -778.487305
340.171204 449.987061 -892.546753
427.896515 728.497986 -865.956665
349.441437 665.350098 -1340.358887
320.724426 522.901978 -885.453369
222.325867 876.772766 -778.599182
379.732666 696.008484 -886.768555
448.255005 444.404144 -1344.522339
248.802200 807.607666 -922.577393
391.668030 854.102051 -691.919861
99.008736 917.092163 -669.754639
171.933823 858.771423 -772.345459
135.843307 712.480164 -970.499634
110.848236 895.957764 -649.865295
365.614899 463.182037 -875.197754
600.103943 775.169250 -1298.000122
153.952026 874.179688 -747.043518
386.454681 626.346741 -889.080627
363.757751 865.401855 -747.244202
338.186127 858.676941 -768.791565
233.721466 927.251099 -567.849182
491.469696 870.067200 -1319.376465
293.114502 774.070435 -903.774841
373.647156 603.852844 -1157.093628
424.494751 399.429138 -1339.348022
498.041809 714.714600 -801.871033
561.455383 588.419739 -1328.305542
734.182983 563.215515 -1248.887939
449.467896 562.343933 -1339.144531
430.089233 443.680695 -865.661011
290.310730 709.335022 -1405.640503
325.819641 882.538940 -629.486389
605.164185 762.662964 -1297.583984
310.585022 493.422638 -886.235229
279.176392 860.696594 -732.769836
485.124664 573.023254 -838.901611
603.275330 603.083496 -1305.070313
329.498779 526.841003 -1368.473633
144.279602 861.939331 -814.196594
404.752594 611.342468 -870.723145
339.543549 408.841431 -1370.527588
618.183594 459.672211 -1292.676758
521.118164 717.512146 -1318.151733
265.822540 691.763855 -921.981079
213.550461 897.721252 -641.935425
414.984314 437.657104 -1324.981323
671.162903 635.412720 -1246.835938
673.470947 646.097168 -1244.591064
418.440247 863.335999 -752.973511
583.621887 878.265747 -1289.019043
330.238129 926.713989 -549.536072
381.921906 513.946106 -1367.885986
354.471527 782.784241 -889.018127
283.368896 875.321289 -700.543518
207.399094 535.796387 -925.585693
579.444519 475.603271 -1287.020142
239.324371 912.593384 -556.816162
546.055908 330.325592 -1294.395386
65.654160 915.688049 -678.698120
382.113678 426.000092 -875.673279
675.094849 482.307495 -1277.012695
398.321259 889.601501 -609.592712
137.124039 860.346313 -819.979248
232.659271 871.480225 -756.418457
178.321609 616.964355 -927.811218
584.790894 600.381348 -1316.283203
262.839996 515.130310 -1389.995361
145.459824 884.500671 -733.109558
769.730042 615.695618 -1247.478760
510.932709 374.006744 -1297.100098
391.708740 688.306213 -875.987854
466.785858 559.399841 -860.321960
268.277618 538.789917 -1368.868286
250.747330 768.574707 -935.717651
447.075958 493.522247 -864.244446
179.596634 894.323853 -688.625977
293.277740 647.328186 -902.201965
156.703491 882.679871 -736.717224
556.967651 475.871826 -1294.926270
597.562073 445.957336 -1308.195557
649.197449 578.999329 -1286.934082
758.273682 702.561646 -1251.583984
288.014557 599.199890 -1319.527832
204.002853 873.190063 -780.830261
100.883324 869.908936 -743.740173
175.742569 476.314240 -940.394409
439.234344 343.173462 -1319.782227
361.625122 865.450562 -665.559265
314.516632 914.220886 -555.515564
416.434784 528.156372 -1145.171265
372.948761 624.607544 -864.239380
251.687073 907.209473 -578.495483
281.246704 537.928040 -1389.329102
245.162949 810.212952 -944.472961
372.919525 536.987976 -1372.919800
95.262283 858.143494 -837.556335
511.632843 665.866699 -1263.973877
307.768555 617.245056 -1360.092896
335.350800 768.838318 -890.768921
634.976135 620.355469 -1266.044067
358.294617 877.463806 -653.804504
567.304016 450.061981 -1300.757446
463.047668 557.325684 -1305.284546
210.666702 438.757355 -938.728455
618.927734 790.927246 -1285.496948
270.782196 870.052551 -709.737671
580.168823 643.105347 -1220.549316
588.257629 531.133972 -1306.220093
250.604538 889.412415 -637.963074
432.159515 723.376953 -860.805298
429.688843 763.026550 -884.721680
347.436188 876.032532 -708.539917
425.571350 524.649536 -857.454651
282.334045 511.985260 -1382.617920
350.157227 903.774292 -575.751221
442.522644 696.022400 -857.596985
201.850464 583.451965 -1416.670532
318.986938 901.488342 -585.720642
299.563660 432.009979 -921.414856
94.343941 887.370483 -680.192810
251.057983 501.856018 -911.986206
397.383209 878.996948 -649.809387
556.836853 463.314056 -1304.560303
760.216309 588.669922 -1255.158081
299.122742 861.348999 -769.697937
160.883789 615.419861 -969.251709
579.086182 876.916748 -1294.832153
557.270996 739.789246 -1307.453979
483.521545 363.945801 -1314.418823
246.795700 563.737732 -1331.117432
331.916718 896.304810 -570.098755
482.565704 372.707428 -1303.916748
390.488983 893.742615 -596.240601
238.400131 894.516296 -648.399353
187.106415 448.293365 -944.903198
462.232880 463.959137 -859.493530
597.439331 384.459015 -1302.871948
395.732544 867.160461 -737.034973
83.821548 919.487610 -609.844421
328.488159 458.033966 -1379.108643
711.421875 649.469116 -1244.663696
444.840210 400.818512 -1326.500366
362.309509 530.378601 -1377.158447
226.745285 866.108093 -779.043579
361.135071 614.568542 -878.582458
265.930298 689.411499 -917.761841
372.102753 561.524231 -860.909058
445.026855 479.377197 -850.486633
232.955261 755.944641 -969.140930
263.563751 857.606934 -798.900024
413.023132 472.027710 -856.416870
228.148331 900.888672 -621.526978
127.613853 900.044495 -647.810303
367.377472 457.088867 -883.085693
532.714478 429.659790 -1314.902710
211.797333 517.132202 -946.168274
354.243530 384.451294 -1366.656494
158.681244 898.787537 -688.304077
615.694580 772.032349 -1300.811768
179.213333 927.677185 -592.597839
211.196548 870.780762 -744.719788
544.036072 513.078369 -1327.638428
371.452362 439.523987 -890.728088
194.939835 716.172791 -932.657471
215.320190 455.060760 -929.349731
482.235870 653.881287 -1313.077881
330.804199 858.948975 -787.192200
601.556702 760.808655 -1334.836060
516.955139 546.489441 -1325.036621
451.373383 451.174255 -858.221069
638.861450 562.993591 -1301.703247
254.819901 902.560059 -585.171509
197.122223 904.391235 -621.949463
535.376526 411.921112 -1304.038208
340.437714 621.437805 -1358.826172
135.779221 549.816101 -952.429688
363.138855 488.481964 -882.264893
149.835983 606.196838 -951.496765
395.330139 586.255981 -886.943481
207.744507 714.216125 -928.362854
268.713593 460.648682 -1384.471191
440.097595 443.324341 -868.989868
335.768921 856.536987 -724.278870
680.800171 600.184753 -1274.399170
423.801483 580.903564 -851.719727
381.037354 670.460815 -895.506409
357.547638 476.089417 -1358.992554
404.178192 550.624817 -862.394409
159.571030 909.812073 -609.241577
352.927856 497.778534 -872.968506
478.177582 405.910065 -1332.397827
447.998169 511.856934 -847.458130
554.808044 437.113617 -1314.039673
308.793488 429.179626 -906.336426
367.503998 415.503601 -895.399658
691.118835 621.984558 -1208.266479
516.919556 332.753418 -1305.893311
332.107239 473.301849 -1389.892456
165.786606 657.966064 -955.859497
434.319702 473.066956 -1345.179077
357.460327 766.197876 -1370.696533
221.868896 707.602600 -1434.309448
301.194916 841.807922 -826.442627
441.941620 717.225647 -862.312256
329.926910 908.060364 -927.660034
466.992554 430.411469 -1310.240967
347.600403 451.399902 -902.076843
580.825745 1037.506470 -1325.308716
221.672684 901.742981 -627.846619
247.867264 889.085266 -648.822205
353.090515 867.907898 -778.575989
416.444061 434.548035 -913.473694
428.100250 552.080505 -851.752380
262.171478 590.993286 -1404.234131
162.462021 890.253784 -710.420105
359.143860 705.696350 -893.574829
171.068253 880.664490 -705.385925
290.894928 465.884491 -884.542847
357.097351 438.417145 -1365.558960
341.261322 484.649170 -889.049194
639.289001 441.417603 -1287.198608
366.819397 865.874878 -735.021851
524.571289 348.352966 -1316.351563
431.117737 773.993042 -886.950134
729.961792 733.758484 -1256.554932
466.126587 563.402466 -1329.410767
413.313446 469.100830 -1348.515015
318.877380 885.322632 -651.077332
452.091034 564.172485 -850.616150
329.774200 820.912231 -916.517944
396.578003 874.439331 -703.120544
456.719818 475.264801 -1325.492798
409.714722 617.967285 -874.420898
259.829254 561.637573 -1402.439819
133.555283 873.321899 -774.018250
304.652161 896.090942 -650.625671
567.332397 577.067505 -1326.058838
213.549011 887.031799 -695.821228
547.981384 351.178864 -1296.822144
194.277130 879.188904 -762.396240
286.797333 459.814728 -896.570435
564.306030 572.031128 -1311.580444
461.094238 625.032288 -1280.427856
320.319214 918.277771 -561.156860
543.079956 416.266174 -1313.281250
332.060455 508.276642 -1380.213379
443.200897 559.463989 -860.387512
616.851135 426.993896 -1284.730957
190.421722 617.712830 -1430.635498
591.639404 499.356689 -1305.187622
610.407959 470.737122 -1298.106323
499.573364 493.253235 -1294.211182
478.439667 459.030548 -1310.731079
433.243958 449.544159 -1280.014648
173.164185 609.536682 -1367.751953
392.470581 466.475952 -1376.693726
208.923477 880.570251 -710.134827
497.082428 469.773529 -868.934753
548.383240 631.675110 -1332.677490
200.882675 929.573547 -579.860168
616.604736 784.890686 -1313.946533
701.493286 501.653656 -1247.393311
336.828888 864.565918 -681.087585
204.449280 846.139648 -820.685120
366.892700 666.235596 -869.072266
77.987411 887.121704 -701.482910
337.215881 383.458588 -1368.788452
545.768005 341.436920 -1295.370483
227.317810 905.190186 -627.015076
624.637146 442.850586 -1282.010132
129.659515 726.894958 -985.318420
381.511749 503.271393 -864.216553
408.289185 425.251984 -877.089172
265.566925 881.895630 -696.386047
538.724365 647.842102 -1288.174561
199.317841 546.724365 -1395.560791
267.756134 876.432129 -709.610168
372.275452 709.209412 -883.937988
320.817993 836.457886 -1387.304199
99.659576 863.305603 -800.602600
334.012939 876.747375 -705.222351
384.105530 852.346985 -754.618713
263.318787 888.568359 -650.216492
171.453629 910.002319 -645.088562
510.721588 911.835632 -1288.000000
395.416901 484.189880 -1358.509766
291.023712 778.214966 -1400.400879
486.606049 297.340851 -1312.111450
425.642120 472.715790 -859.855530
620.307678 734.384521 -1288.701660
128.582779 664.809814 -969.782593
213.842606 883.965881 -718.586243
276.536499 578.306702 -1348.699219
437.200897 426.717957 -1334.754883
349.538025 755.081482 -896.278748
427.338196 435.872864 -872.030640
179.892273 860.368958 -830.511902
331.358978 525.287598 -1379.852417
416.471741 333.932495 -1348.576050
95.923347 879.621765 -707.620361
515.508240 1012.191040 -1364.282837
709.026306 672.784912 -1269.163086
650.746582 469.399567 -1261.767944
334.236389 829.926208 -1389.864990
101.286133 894.733643 -668.038208
138.156723 882.401917 -721.093811
658.795166 622.640503 -1282.037964
306.947998 469.218231 -892.904053
670.883972 640.628906 -1275.932617
341.141327 677.086670 -1366.895996
207.656601 449.519409 -923.368835
138.145081 913.455322 -640.523254
374.175568 503.870209 -1368.067383
465.239166 411.741180 -1299.878052
577.901184 587.171936 -1315.961182
628.883362 416.864624 -1279.567871
589.384705 418.620575 -1300.054688
307.717865 901.553650 -620.580505
324.202637 885.345032 -685.438965
245.242905 884.813782 -702.044739
531.065491 597.623535 -837.760071
396.294983 548.606079 -864.511963
417.380157 718.111084 -878.172974
0.141596 618.338135 -802.619141
383.141235 606.993958 -1368.934204
389.320831 850.699890 -792.248291
306.977936 548.002319 -895.976868
758.218689 695.467163 -1241.916260
466.232788 374.398804 -1318.571167
592.046204 674.710083 -1238.525757
510.007324 536.530273 -1328.385864
514.660400 643.623779 -623.577881
285.234467 872.638611 -724.877808
351.720215 426.733398 -1365.870239
303.602661 493.996674 -889.968689
101.808868 878.533691 -696.706909
167.859009 877.198425 -734.697205
545.462158 767.460754 -1341.425171
622.454346 896.823364 -1297.746704
249.098633 535.546997 -894.489319
589.163696 379.414337 -1276.299683
269.693024 511.544556 -902.992126
202.828598 561.983704 -1380.808105
603.774231 765.540039 -1308.169434
443.445038 473.232849 -1300.352051
76.252518 860.345703 -814.907043
303.924255 891.645447 -620.247742
157.642395 632.281128 -954.097839
427.409485 369.944580 -1342.423950
138.124893 856.987793 -786.560120
320.436188 538.702698 -874.141602
388.267517 754.581360 -898.568970
451.253784 847.096375 -753.579285
693.979675 515.671204 -1265.636597
282.053589 562.350098 -1396.802124
171.560364 616.525452 -942.092468
322.615753 883.136353 -652.530029
293.216400 742.135376 -1408.160400
351.408691 428.696472 -1354.734253
170.611298 915.753845 -592.747925
746.614502 605.879944 -1255.947144
351.238831 405.128143 -1367.218994
327.634247 509.113983 -1383.626709
483.959503 349.433411 -1312.292358
494.089050 798.289001 -1330.473389
587.572815 484.744995 -1304.728882
425.674591 423.545166 -1340.771729
331.705688 616.042297 -907.509399
238.478577 731.195923 -1432.487183
196.397568 528.178955 -931.947388
285.661804 721.909912 -923.259888
293.356903 637.258667 -1359.101074
200.598450 840.474365 -848.203796
540.452759 742.617493 -1339.536377
369.458649 502.425171 -879.828369
354.034058 461.211060 -872.394165
576.221375 632.266235 -1319.242188
222.400330 600.486389 -951.012268
179.371063 895.663940 -651.108704
150.719208 866.308716 -797.718750
157.726624 896.177734 -672.307556
714.130249 606.970764 -1261.071655
613.072754 588.527039 -1286.229980
492.996246 571.753784 -1334.617310
213.886978 780.171021 -959.240906
336.965515 461.005859 -1360.004761
375.202972 855.899902 -743.817383
373.108154 388.961792 -1346.730225
426.441467 456.107147 -867.757751
502.868073 918.556396 -1268.177124
270.519867 908.424988 -626.210266
336.141541 893.421387 -603.733398
310.925690 667.168091 -1371.763916
208.729752 931.179749 -565.625305
551.639954 652.380371 -1315.828491
124.864754 485.833588 -936.517517
613.376282 411.116486 -1284.828247
514.810669 432.155518 -1314.767090
289.262146 614.881592 -927.956116
273.199615 604.523132 -907.373230
715.424377 513.017456 -1257.689575
335.049011 429.772156 -917.217896
257.612366 899.640625 -634.625000
191.236694 877.960266 -762.913818
532.869080 383.672882 -1291.115967
348.243439 724.687500 -1283.869873
304.608368 873.278625 -725.083435
206.278732 868.424866 -787.909973
518.846863 399.334991 -1299.917847
694.021240 585.767090 -1273.514282
278.015228 491.690552 -1414.807495
417.044586 465.895538 -1365.060181
430.263855 382.268311 -1340.617188
190.173950 894.843140 -631.086731
387.082764 899.343933 -578.536926
333.309113 912.023743 -547.975525
215.814240 531.509277 -1346.288452
238.474106 542.460449 -1333.203735
259.559509 496.990326 -1413.399658
439.103516 339.667603 -1316.962524
245.415451 900.242615 -646.882935
332.599213 776.091248 -920.636230
410.543579 850.033936 -704.381531
261.082550 693.817261 -910.078369
187.566010 912.635376 -657.593445
403.149323 521.047241 -1132.126343
240.029022 864.595642 -730.285400
591.965576 537.320251 -1301.525757
502.063599 455.588837 -1281.554321
428.309723 456.184021 -1350.127686
246.613144 747.402405 -918.756042
243.112213 685.022827 -929.718079
171.488663 855.599915 -831.943665
587.777710 571.738098 -1303.104858
274.242340 886.148071 -682.879822
514.104553 655.110107 -621.016602
269.050140 897.819885 -605.982178
274.673462 901.595093 -651.137024
346.419250 618.414368 -897.481506
500.700500 436.669373 -1292.456543
305.058258 656.599426 -909.262329
313.832123 780.114319 -1427.264160
315.077209 430.864716 -902.137146
692.177673 640.911194 -1203.500732
365.086487 426.445923 -916.443787
263.718262 530.545166 -1394.291260
296.752777 477.838806 -903.970093
585.468933 787.582520 -1308.140625
469.908966 877.801697 -1287.725708
725.832214 587.835388 -1245.984131
99.016403 885.680481 -669.814758
413.221100 486.269104 -850.670715
245.757294 766.025818 -933.968079
369.540283 886.026184 -583.344360
364.045471 480.555328 -1367.299316
286.911072 869.580627 -803.668396
313.130463 903.098999 -565.804993
676.200745 521.518555 -1281.466797
327.257965 875.026611 -675.567993
681.552734 486.268738 -1263.418213
121.543777 878.156555 -725.201965
163.056595 943.435059 -605.233154
511.046753 332.167847 -1301.216064
170.629898 731.097229 -940.835999
500.522644 598.135559 -848.038269
244.292694 742.129211 -1424.836060
624.630432 949.391357 -1311.852783
549.452637 893.008179 -1292.817017
391.498718 408.083252 -1371.157959
447.041290 638.466125 -1290.845459
547.411194 739.448242 -1310.773926
742.264526 694.727478 -1250.427246
449.599579 343.815979 -1349.637207
396.493500 881.849670 -685.132996
254.212173 501.567719 -926.406616
308.877838 422.199677 -1367.125732
547.665100 564.124695 -1322.903320
221.474045 514.231567 -1369.526978
461.836121 560.128113 -844.599731
492.427765 645.836914 -852.888794
470.981842 653.963135 -839.341675
219.613922 713.643738 -1436.373535
314.494263 429.452271 -922.544861
441.828064 477.538940 -861.120239
660.374634 642.888123 -1252.960083
263.980835 584.189514 -906.839233
459.857300 477.565735 -1313.980225
356.021088 891.386719 -605.768982
299.165009 871.480896 -751.633423
352.548279 881.008362 -641.246216
623.217773 634.116089 -1293.279663
599.028687 737.158386 -1269.597168
266.114532 877.269592 -711.205627
496.769653 500.341125 -871.248901
286.196991 768.540894 -1442.525269
341.547455 522.868408 -880.886963
392.923676 623.797852 -1372.989868
609.030212 468.905579 -1272.787231
705.047607 511.099548 -1257.796997
214.275436 907.015015 -583.085449
501.551910 534.958740 -820.951660
444.225830 870.257385 -754.314636
322.252136 900.384399 -611.106934
505.224823 522.833801 -853.757202
367.205933 856.497375 -800.752625
417.406647 536.784607 -1353.817505
287.037354 505.134247 -1395.766724
254.666855 904.559937 -584.284607
399.837036 655.832703 -1339.615723
382.721191 509.384857 -864.222961
310.178192 593.441467 -1371.686401
630.997437 994.149292 -1331.909546
222.296890 589.041565 -1358.476685
337.733459 596.054810 -1384.729370
480.878632 518.603455 -849.499268
328.402893 560.180786 -883.694092
668.169678 548.574646 -1289.069336
485.401642 530.994263 -1334.678101
356.808075 621.943481 -869.817383
546.276123 630.763794 -1312.945923
422.264679 496.317993 -864.591614
406.916260 596.314636 -858.664429
544.868469 825.868286 -1321.092041
283.912933 875.300049 -783.173706
515.899109 414.737030 -1314.994751
447.842346 441.107269 -886.125000
66.105301 892.190247 -705.921387
723.518066 531.212891 -1256.589355
234.437378 741.771667 -1427.827759
166.193924 533.543518 -944.004883
320.958221 572.546936 -1379.255005
456.670135 448.577332 -872.629822
691.624573 512.605957 -1270.971558
414.425018 845.116394 -733.810974
697.962341 577.602478 -1246.144043
493.855255 761.043152 -1346.679565
193.698013 682.133667 -929.483459
402.538971 849.132751 -718.262207
357.329712 556.880981 -1377.264160
256.755737 892.937744 -645.598328
597.640259 532.240234 -1283.221680
323.276276 919.286377 -542.818054
399.375153 675.948181 -882.393555
588.997742 647.899536 -1257.911743
382.280701 452.426849 -1363.762573
247.684494 438.171295 -942.688599
642.059570 669.777100 -1267.279907
590.776855 793.314026 -1301.663330
473.139099 531.155640 -841.227600
208.661835 683.078857 -940.510071
181.055573 907.905396 -611.726257
303.260284 873.035461 -780.476440
307.413879 858.713074 -823.775696
236.776352 528.816772 -1404.261353
573.966248 924.282593 -1280.732666
297.482086 496.183289 -913.433350
318.262482 828.577515 -912.445007
565.405945 531.524536 -1312.094116
225.900848 520.488647 -1383.203003
305.228638 925.069275 -542.954956
483.884216 470.149841 -1319.694702
254.509201 912.831848 -585.925354
27.511093 563.521606 -859.924072
276.791565 601.215881 -1375.113159
456.242401 643.349426 -860.845825
280.783569 855.656433 -762.323608
489.643799 665.294678 -838.048584
228.994904 878.303101 -753.451660
640.789734 655.149658 -1217.837280
609.168030 593.515198 -1281.677979
317.658966 893.068481 -592.934448
640.904785 458.560059 -1264.052246
503.247101 633.614624 -1336.712646
139.054169 903.315369 -640.388245
183.246338 649.685730 -958.833923
272.736786 465.610046 -906.015930
280.864960 614.250671 -920.249634
568.542053 724.744202 -1270.921997
264.099213 692.739319 -1411.707031
256.010468 852.076050 -812.120728
396.280243 580.570984 -1381.690674
170.862579 778.197937 -942.313904
510.855865 586.024902 -848.507996
443.197754 355.859406 -1326.695679
118.040359 878.293701 -727.900024
451.378937 474.303864 -1213.384521
420.651520 384.748383 -1327.324707
395.474640 422.896362 -1366.747192
516.611755 641.138550 -825.023193
278.911377 614.132141 -904.871460
538.519287 579.413086 -1306.740234
618.438843 416.322327 -1271.166992
494.877655 470.934845 -1313.364746
343.923615 902.973206 -581.407593
204.233536 528.533264 -929.330505
434.630310 644.895142 -856.304565
442.010559 432.434570 -876.815674
363.577087 628.763184 -874.846191
344.381378 874.156555 -666.620239
341.464081 638.258423 -886.489685
370.366394 431.499512 -890.462524
711.944336 559.871277 -1260.462402
365.998199 873.186829 -704.603149
548.926086 677.838623 -1321.246826
388.750458 533.426270 -1127.622559
463.098999 393.547607 -1290.581177
235.521759 429.760590 -929.389709
383.445313 567.282532 -1368.682983
282.492859 867.460876 -714.041260
437.905396 614.063477 -843.241699
452.018036 589.056335 -1219.682739
547.919006 324.045013 -1299.643799
528.776855 809.756836 -1303.042847
259.807190 883.149963 -670.366699
219.377396 869.994263 -758.862183
245.146591 888.176086 -726.222839
538.596741 756.196777 -1361.833008
191.110504 546.978394 -933.367004
160.240707 873.177856 -793.661499
452.740479 870.458801 -769.483215
427.296112 490.348999 -848.701050
421.323700 616.420471 -871.020630
275.993225 800.264587 -930.049622
380.781372 454.833191 -1379.506836
228.215591 850.297180 -787.331360
528.219543 627.725464 -817.777954
578.987549 491.180695 -1301.018555
288.031952 882.558777 -626.807556
611.362488 752.226624 -1300.163330
732.133362 660.396851 -1262.034912
464.853638 852.581482 -1284.459106
452.510681 454.037140 -1256.633057
520.301147 518.936035 -1318.517700
158.578598 876.487671 -738.960022
317.472565 673.405945 -899.280945
726.754700 665.167664 -1254.660400
216.997009 793.676331 -946.504944
247.154205 885.245605 -705.753967
556.492493 599.980103 -1311.976196
372.547272 480.955902 -1351.194824
363.993958 616.602966 -891.004761
194.814850 491.963837 -1400.991577
742.913879 682.088684 -1237.735352
299.954681 485.930206 -1401.666504
64.944138 873.998230 -724.219971
346.785248 488.786346 -887.357178
344.457794 412.981689 -1366.919189
285.532379 439.678467 -911.734558
151.548691 864.529602 -819.948059
143.490128 870.742920 -763.568542
181.058838 542.045715 -1431.377197
131.382935 914.415588 -588.527222
406.585052 449.072235 -873.484253
246.471817 896.127625 -664.447876
401.251129 403.718353 -1350.036865
447.757751 340.119568 -1321.167236
136.931381 901.680237 -643.922241
619.799866 962.735107 -1313.766846
502.005280 1029.193604 -1366.389526
452.979004 422.266174 -1343.886353
201.123138 840.720947 -816.839294
454.854095 524.220093 -850.137634
607.332581 605.142090 -1292.589966
350.642944 871.565125 -680.463379
250.967819 500.771179 -1410.220581
458.289124 408.712708 -1325.591309
532.221985 329.858215 -1306.100342
640.540833 489.214233 -1289.864624
299.120575 568.552246 -893.951233
545.303467 754.976990 -1316.060059
538.245850 388.955444 -1289.967896
260.165405 796.214539 -947.308899
287.895508 871.546875 -836.557251
500.872284 479.919403 -1306.391357
238.568405 878.677429 -674.108887
250.840790 872.415039 -708.985901
286.697540 433.202881 -920.145325
438.952911 495.874603 -854.683655
169.075043 876.513367 -773.089478
134.396164 901.509399 -642.032166
142.521500 866.118408 -755.254089
524.005432 668.049011 -1270.640381
596.708679 880.897766 -1265.642700
329.458527 880.539551 -615.215210
593.275879 781.871338 -1305.771484
560.588562 375.800629 -1281.489380
508.110596 562.628967 -846.933960
368.711334 875.995911 -652.388367
170.498108 897.856445 -623.560974
188.249481 542.469971 -935.524292
348.307404 673.222351 -1358.896851
479.567841 490.121765 -856.155029
375.191376 863.888977 -786.694031
344.997131 509.432709 -875.735107
570.933899 408.874390 -1280.972046
482.042725 520.804077 -845.269409
265.308563 785.363464 -935.094788
325.821381 754.085388 -931.427612
408.509827 500.794342 -1206.647339
526.327271 1058.006958 -1358.157959
66.042725 902.475708 -655.237732
375.661896 875.819641 -658.283813
307.841278 870.222168 -735.936584
252.364319 534.347473 -1385.376343
509.426270 924.385315 -1265.450073
575.709290 440.947479 -1312.091431
613.728577 490.196259 -1289.136597
473.837311 345.336060 -1321.640991
170.608109 550.611084 -1417.303711
