ply
format ascii 1.0
element vertex 1362
property float x
property float y
property float z
end_header
18.248030 699.600891 -907.701294
-133.492065 762.451538 -1349.428955
-83.043983 967.358459 -678.603760
-277.764862 623.118652 -1315.211670
-412.972321 707.401733 -1281.776489
-95.283363 896.295105 -856.588501
-165.884750 898.960205 -862.942200
-130.222076 993.513428 -1316.101807
-13.041288 749.324890 -1367.214355
-424.550385 605.439270 -1293.200562
-224.224777 950.979126 -565.963501
-218.219376 766.312439 -846.696350
-222.732925 859.660461 -829.518372
-61.636753 825.274658 -1280.724976
-171.876038 676.592346 -838.995483
-149.341232 791.838623 -856.644287
-327.739838 778.614563 -833.253845
-412.226013 731.853577 -1296.986328
-283.166595 800.204651 -837.083984
-125.815491 698.924072 -849.056702
-345.888611 782.263855 -1289.655151
-61.587849 964.581482 -699.459229
50.149300 787.134216 -1353.540405
-173.738708 703.809509 -1339.541992
-121.197311 1024.301758 -1319.337158
-355.158356 724.874268 -805.070740
-252.219330 948.377563 -676.395081
-492.540802 966.420166 -1264.488647
-230.525803 834.797668 -827.615784
-256.792053 640.518799 -825.835083
-387.672668 587.434875 -1299.000610
-189.281860 567.112732 -1306.044067
-18.169758 632.307251 -910.595581
-362.928925 906.591309 -1214.951904
-139.336151 656.514099 -1347.520264
-53.430267 958.065063 -650.310913
-85.218491 726.897339 -865.638184
-24.066170 655.625061 -1361.424194
-10.611402 746.649109 -1357.006836
-66.919769 970.567566 -565.103760
-189.507065 648.910950 -1323.660767
-326.029755 937.796631 -652.813965
-239.138702 527.908691 -899.114136
-35.484577 867.246521 -1334.612427
-192.435684 772.899414 -1318.202148
-405.539581 692.763184 -1277.265381
-310.198822 762.621216 -815.809509
-152.818192 959.747620 -649.112183
-138.262177 747.153992 -874.070313
-120.073746 974.985168 -500.036957
-207.038757 944.765564 -643.129150
-272.512146 545.652039 -1322.298340
-163.794144 819.935303 -838.852478
-282.343292 483.978851 -1328.954956
-165.385498 575.456360 -1328.386475
-386.809967 617.394897 -1302.978638
-186.038330 496.091400 -1340.109131
-44.933704 614.201294 -1375.365845
-81.286942 636.894409 -860.771057
-112.374222 736.729553 -1347.125488
-177.210464 591.077332 -1331.644775
-131.381378 965.752747 -641.786682
-152.567047 688.088440 -1357.169067
-399.679932 801.032837 -1247.396362
-161.961182 936.691650 -717.565063
-136.621857 636.984070 -1348.475464
-173.733780 961.396667 -703.855469
48.808540 815.531677 -1379.537354
-79.871338 962.928284 -713.619324
-125.780472 687.577271 -1333.473633
56.873039 769.513428 -1357.123657
-209.631973 484.561371 -1326.166016
-150.854004 705.815613 -1354.353149
-249.542206 738.051575 -836.816711
-54.128654 965.819336 -689.559387
-58.393078 963.979431 -647.028687
-16.738770 771.390015 -1355.266846
-283.271301 955.616699 -576.410095
-9.310030 680.491638 -890.600403
-284.700012 566.580261 -848.596619
-196.059647 831.673340 -862.627014
-323.779694 725.883179 -1310.868042
-166.983963 706.270386 -1346.485718
-177.132568 1087.531250 -1240.539429
-420.676605 600.911987 -1296.659668
-164.819595 588.786682 -1318.365967
-151.719162 972.827820 -541.966064
-107.607910 998.658447 -488.733398
-158.531845 918.866943 -864.190918
-159.928619 528.359436 -891.291809
-335.808868 623.134460 -833.252258
-225.051407 752.357849 -832.085266
-113.316879 984.501282 -557.698486
-42.501236 961.962219 -795.005127
-86.991722 964.057678 -632.048157
-243.192581 727.325439 -1307.595093
-358.525208 550.893677 -1320.482910
-190.744629 589.782410 -844.610291
-325.964752 688.049194 -1312.338623
-175.725525 639.333191 -854.919861
-138.462692 984.945557 -461.993500
-197.940018 974.087219 -481.122314
-162.244019 1117.531250 -1295.643555
-246.403580 609.314575 -1321.515015
-183.631836 849.916077 -1290.059204
-32.677364 988.527405 -514.843445
-101.019547 686.414978 -1358.418457
-85.546432 893.950745 -867.335876
-54.819611 551.669983 -934.264221
-277.158508 479.061707 -1323.151611
-29.762217 701.166992 -1374.746826
-105.613243 1198.007690 -1302.083862
-154.194595 595.901489 -1332.351807
-373.417786 564.816650 -1289.665894
-208.810654 972.587891 -540.025208
-370.668182 559.101746 -1307.923340
-508.852295 653.447876 -1268.720703
-484.972015 982.756958 -1262.631836
-350.869476 574.828613 -829.614624
-55.688309 954.654541 -726.834229
-402.153748 869.275818 -1273.871582
-24.663361 976.124023 -559.084290
-263.220032 1170.993042 -1264.977173
-15.533367 702.340942 -1374.020264
-163.003433 821.091431 -1296.343994
-79.453156 956.405762 -748.366150
-2.662549 642.630493 -897.274475
-148.785919 952.084045 -613.584961
-4.323558 796.910400 -878.953430
-149.320419 649.689148 -870.294739
-300.156921 770.243347 -1230.782471
-332.102020 583.077637 -1297.346802
-155.383209 977.070190 -476.174042
-30.727573 957.459839 -716.989014
-166.625687 702.389221 -1354.129883
-40.588173 972.314270 -632.824219
-42.702335 679.018494 -1366.705688
-2.853191 961.286011 -683.674133
-215.524216 969.225159 -490.377930
-150.439880 874.844788 -859.377319
-318.825348 658.704651 -824.096619
-387.852417 596.988281 -1313.754028
-148.023666 1040.909302 -1313.985229
-235.637817 713.581665 -845.980530
-276.252075 769.895874 -832.338745
-178.487167 1032.204834 -1305.544678
-136.107483 968.717224 -563.273376
-46.800629 963.097717 -630.780212
-54.122841 703.623413 -883.799622
-167.983429 986.656128 -1340.757446
-140.527603 563.538330 -1332.808594
-424.041779 667.151428 -1290.262329
-523.056152 735.744141 -1246.092041
-218.884109 891.359802 -1194.027100
-203.590210 537.080872 -1301.822021
-236.783173 558.533630 -846.743713
-156.954163 861.198059 -842.706909
-75.911011 767.225647 -1356.743774
-244.360748 548.977234 -871.813599
-119.162903 868.148010 -880.382996
-162.958939 963.708984 -705.988037
-78.690071 776.414063 -1343.620972
-183.085297 959.477234 -640.513306
69.157074 805.869629 -1372.409302
-68.191994 820.233215 -1295.817627
-185.824402 680.791382 -851.244690
-422.500366 771.088074 -1243.375122
-75.370316 954.509521 -755.550171
-125.890549 958.526733 -684.844482
-120.575905 1035.331665 -1323.020996
-127.456047 1083.710083 -1273.267090
-445.923279 746.026184 -1247.121216
-258.544586 487.242004 -1332.849243
-156.902054 963.016846 -594.890381
-468.627869 643.747498 -1282.478760
-85.546005 954.820496 -715.609497
-241.279572 584.659180 -848.861084
-82.127785 1000.838013 -487.530487
-411.527252 751.048889 -1272.562256
14.980673 781.868652 -1340.408203
-335.695923 725.276855 -1310.760620
-80.996208 665.456848 -881.394104
-72.088951 830.366699 -1302.236694
-157.400452 536.608826 -885.192444
-274.817963 526.430542 -1321.320923
-172.668427 565.127625 -1314.321777
-294.545898 684.895142 -835.729248
-13.175403 965.891174 -663.587646
-357.008423 719.425354 -1282.726074
-106.561447 967.115173 -599.717896
-291.277283 675.160095 -1328.925659
-247.889603 522.143677 -1339.072144
-114.922401 990.680664 -526.157349
-181.317688 956.031555 -652.613892
-476.688171 691.640869 -1218.718384
-220.788437 573.536682 -1293.873535
-493.298645 667.511047 -1244.486206
-141.392593 961.816284 -731.526733
-260.082367 471.657593 -1333.648193
-198.183929 554.039917 -858.514404
-279.740845 944.296387 -629.985352
-267.148529 957.132446 -575.950867
-63.193878 564.436035 -916.973206
-234.759628 947.421875 -717.401428
-95.035156 953.630371 -632.532043
-324.527405 675.866821 -1314.067993
-250.864288 792.232117 -1270.351074
-522.722778 872.300110 -1251.278442
-72.712387 777.618530 -1356.611938
-125.057266 572.562256 -869.287415
-281.499725 947.391052 -556.294922
-212.566772 791.485168 -848.667542
-164.909546 670.159119 -1346.531372
-230.391861 990.709900 -1303.194702
-21.062281 600.867371 -905.704224
-442.167358 614.830017 -1292.855957
-106.410240 991.222534 -525.799194
-198.844803 822.553589 -1329.972900
-323.671265 932.945374 -685.140015
-157.139465 945.076233 -718.302368
-525.735962 753.060181 -1252.727539
-159.481247 958.892029 -612.612610
-109.060760 561.376160 -888.765259
-333.973969 645.309021 -1310.594360
-1.624211 754.707642 -1370.566650
-170.638184 1003.829712 -1250.952148
-178.984573 668.063232 -840.796753
-170.701523 828.266663 -1272.447876
-230.979034 637.005798 -857.216919
-111.998940 744.470154 -1360.961304
-165.463669 809.543823 -868.074036
-197.154434 925.532288 -833.645874
-208.141068 596.358765 -871.427856
-143.995621 541.330200 -1349.833862
14.777990 866.993225 -1350.789551
-428.429016 711.783997 -1282.102295
-203.231155 573.150879 -1269.746948
-379.607178 670.516968 -1318.346313
-288.320831 941.138550 -578.402832
5.461207 688.824463 -1354.662598
-36.117538 639.272217 -1368.289795
-243.403366 958.353760 -654.922424
-233.945526 949.248169 -574.306152
-231.705276 960.141479 -1308.394653
-310.542450 775.974731 -845.604187
-184.043213 966.569458 -629.120422
-250.332550 594.616882 -1319.925415
-144.933548 968.627869 -564.814819
-274.934998 947.300781 -679.601563
-472.461914 734.207275 -1272.219604
-332.800690 667.673401 -850.151489
-202.076370 703.080933 -869.950745
-121.642548 739.271667 -871.567688
-356.314209 742.658142 -1217.737305
-125.766876 639.380981 -1364.476807
-102.750160 749.583130 -1351.244873
-231.110245 468.711853 -1330.296753
-350.896759 683.785522 -1308.930542
-17.836218 816.420288 -1326.796753
-218.516083 957.213562 -590.157837
-159.519363 726.068298 -1344.762817
-343.166443 875.157898 -821.713928
-315.076965 554.401184 -845.390259
-387.878876 718.240845 -1295.352295
-140.013535 657.997253 -1330.246948
-206.410919 514.208557 -1305.238525
13.325345 959.182007 -634.603882
-113.811653 959.467346 -673.266602
-367.272125 767.229797 -1272.271240
-183.907394 610.473938 -1299.369751
-192.888504 861.463867 -832.567566
1.209863 821.275635 -1337.169800
-145.210007 1106.970825 -1299.915405
-358.185211 708.530762 -1288.298828
-144.857407 955.142761 -693.343140
-219.192566 933.453003 -1305.971680
-110.850151 802.419739 -1338.820190
-395.257996 727.766174 -1307.376709
2.589427 776.943542 -1358.232788
-289.588318 862.525452 -846.843506
-174.457672 966.963623 -626.178284
-189.448898 955.194519 -578.449829
-299.778046 783.576416 -848.358032
-97.891357 599.436829 -1358.470703
-145.310257 972.102051 -534.374268
-176.832535 736.946045 -1350.865356
-101.402275 972.474365 -547.850342
-148.975082 569.331482 -889.772095
-51.463463 568.684143 -912.354797
-115.443436 559.349426 -1351.134277
-255.002396 569.320435 -859.191956
-283.942200 981.688721 -481.768066
-88.819176 788.646484 -1347.058472
-49.554546 627.739624 -885.244934
-313.023682 649.784058 -845.083679
-322.402344 772.382751 -1305.152832
-227.118011 670.500916 -1186.811890
-228.460495 579.519104 -1311.785645
-75.452057 900.073547 -875.809021
-113.726601 779.129578 -1345.911743
-278.702606 977.562622 -495.647247
-64.527550 963.566284 -671.996033
-202.670441 634.589417 -1318.828735
-340.468384 545.679016 -1312.293335
-179.897369 962.547302 -542.960144
31.741753 679.687744 -896.608276
-90.454941 572.307922 -884.402405
-228.373276 967.980469 -546.379639
-278.069397 719.452515 -834.890198
1.069218 669.762573 -897.720703
7.787257 833.056580 -1354.269775
-166.572525 514.100037 -1344.541260
-213.175507 923.803101 -843.466614
-141.169113 965.767700 -636.694885
-339.773132 769.999939 -822.957153
-258.027710 533.194397 -1336.224609
-235.954788 950.378479 -744.252014
-60.388378 628.497437 -1356.988647
-83.909309 748.915955 -871.721985
82.851364 770.382996 -724.720581
-311.987244 521.731079 -858.682617
3.427446 697.675110 -887.170776
-273.407043 945.526489 -683.619751
-234.665268 585.288696 -1317.515137
-327.122711 704.133301 -1308.386108
-156.807800 995.306763 -436.594757
-270.794312 944.101318 -599.476685
-464.267792 663.622986 -1248.998291
-37.999805 573.888733 -903.178345
-192.205109 844.640381 -870.814697
-360.386353 595.518127 -1291.271973
-48.926998 986.744690 -523.175354
-56.218361 943.681519 -746.866333
-253.233322 532.302124 -873.293884
-106.151894 607.784973 -1352.213989
-275.954498 548.074097 -1324.950317
-271.796936 952.693726 -615.324585
-22.365637 816.101318 -1333.272095
-433.474060 639.637085 -1291.090576
-376.244263 595.733765 -1307.305664
-40.009762 946.553589 -710.592773
-190.798401 829.625122 -1289.661133
-13.682275 821.470337 -888.244873
-134.732132 713.753296 -857.008484
-195.443344 987.324036 -1301.951904
-26.300360 735.263306 -1358.773193
-356.375732 928.658386 -662.002747
-278.192932 540.507202 -1320.900391
-251.606567 620.502380 -1303.230957
-211.411041 632.455444 -1330.396973
-173.468491 845.811523 -1302.976929
-179.516052 473.701447 -1340.465820
-352.464172 792.965271 -1286.426880
-140.371872 855.428772 -1260.574585
-376.170105 589.901794 -1320.826050
-265.272858 704.448608 -822.812561
-147.127716 519.286682 -1356.130493
-528.724976 669.056396 -1259.681152
-155.270248 959.793762 -629.151611
-145.173569 956.213135 -738.809204
-131.102264 956.038452 -778.534241
-313.083862 598.158936 -1318.325562
-194.303329 957.576416 -693.918518
-247.689774 490.157898 -1331.382080
-286.772827 541.148926 -885.179077
-208.876328 655.729553 -846.437134
-37.169632 809.287292 -1329.426880
-300.004089 551.592224 -843.893982
-184.150513 634.765015 -1343.052979
-145.506195 914.020508 -1311.902588
-280.815979 737.988770 -835.141968
-365.337799 685.254333 -1287.127930
-30.670500 631.712463 -1376.677490
-311.119232 947.316711 -736.093872
-227.209366 495.144104 -1332.103149
-171.240509 554.350769 -871.621521
-298.910187 826.220459 -859.253296
-405.685486 759.184387 -1264.000366
-104.842316 849.452759 -857.399170
23.783089 801.672302 -1352.112427
-307.929810 658.102295 -834.063721
-426.245911 696.811768 -1271.068604
-116.520515 796.490845 -1267.213013
-78.426704 967.465210 -604.363831
-404.086853 669.377380 -1309.270874
-67.070236 786.059509 -1269.105225
-140.605576 698.522217 -878.831055
-88.210754 598.013550 -1355.033813
-180.127869 639.226318 -856.020569
-216.399902 745.834595 -833.761230
-246.487991 667.523315 -1271.761475
-362.881866 630.016235 -815.554565
-42.785915 947.631531 -755.280945
-234.955841 565.258301 -849.215881
-146.720200 574.780579 -867.163147
-109.411926 596.985352 -1336.316772
-93.353172 792.402893 -1346.353638
-107.406387 562.032166 -880.106873
-141.037445 663.307861 -861.326782
-110.702171 707.155579 -878.634827
-150.025803 607.188416 -1356.699463
-144.954865 936.452942 -737.946533
-186.810440 591.191345 -860.165833
-411.595978 571.560547 -1297.125366
-347.787842 572.716187 -1307.432495
-99.081367 611.450928 -868.659363
-124.524712 978.683228 -540.397888
-152.560608 830.342957 -1298.119141
8.151284 943.662415 -699.399719
99.529457 782.705078 -703.845459
-127.536728 778.895203 -874.564392
-202.914429 480.362762 -1327.801514
-199.233612 927.335022 -732.328918
-157.303024 795.848511 -1335.281250
-162.065201 549.191589 -1341.040894
-118.107971 912.328430 -1301.579468
-157.479568 989.644714 -1310.875610
-131.918365 967.559509 -786.724731
-420.611877 761.056091 -1272.906006
-172.144699 534.831787 -889.453491
-21.704008 800.155334 -1320.882568
-29.484251 963.105225 -655.419312
-73.073586 610.532654 -867.569763
-221.483154 1096.709595 -1222.566895
-250.705856 749.387329 -853.101563
-170.745789 975.557190 -488.210236
-102.644432 833.550293 -858.393433
-222.088745 665.874573 -830.713074
-183.220367 995.160278 -1306.828857
-191.672638 957.988464 -577.848816
-230.300873 960.434021 -530.542297
-222.629227 768.930786 -1303.522461
-122.712082 543.339661 -891.304993
-93.787209 561.929077 -1355.219849
-239.015320 941.180481 -638.018250
-1.406491 877.047180 -1357.776245
-290.865356 941.764587 -684.854675
-147.820663 584.013855 -864.471008
-311.265747 952.092712 -535.210022
-237.878174 920.979431 -823.631348
-153.105911 540.677307 -1346.646362
-101.301720 794.163635 -1287.274780
-36.723587 810.738770 -1293.505005
-82.850227 611.459045 -877.857727
-121.601807 1215.313110 -1297.906250
1.039867 936.371216 -750.109314
-112.899025 685.557678 -861.211365
-150.301483 569.643372 -860.929016
-207.760468 506.418945 -1338.468994
-165.202682 937.537537 -850.703308
-167.324905 960.551575 -539.130737
-211.354858 949.380676 -640.737671
-264.150055 670.911682 -826.732605
-425.722992 715.109253 -1279.214722
-316.995361 838.039612 -846.142761
-51.554203 962.102844 -636.635193
-183.523254 566.971252 -857.639099
93.390144 760.666443 -749.111938
-100.021446 693.717834 -876.648621
-441.418365 885.873535 -1287.590088
-176.345078 971.863342 -491.466583
-231.275208 868.219666 -842.002625
-449.074585 887.243103 -1282.400635
-116.935928 714.040710 -867.242554
-194.142380 972.743469 -573.341187
-328.187897 717.659729 -1307.476563
-174.768860 1195.259277 -1291.270752
-153.629074 959.440735 -687.729004
-264.223572 967.201172 -484.403900
-397.602112 725.720032 -1270.821899
-99.361679 963.169373 -610.354858
8.379272 797.433899 -892.241943
-340.616272 580.980469 -1323.481323
-445.897888 910.179565 -1280.021362
-42.513203 866.428528 -1303.444824
-110.610985 953.758240 -717.952209
-382.350128 616.647766 -1314.309448
-404.127045 587.969971 -1287.174316
-224.633942 841.800720 -1318.723022
-212.656006 667.527771 -868.681946
-40.538868 777.961182 -1330.491211
30.133797 708.985352 -900.507263
-34.763756 991.376770 -522.224976
-40.887325 977.643372 -524.363220
-210.010162 708.222656 -1242.138550
-87.887962 789.682190 -879.744263
-222.979477 969.592285 -522.583557
-268.636597 531.300232 -879.103149
-364.010834 766.790771 -826.297180
-173.432007 797.986084 -1255.105591
-15.210219 782.585388 -1356.299194
-296.378815 903.400879 -827.358826
-40.264771 666.758789 -1361.228638
-124.923439 946.047913 -702.915039
-146.249908 830.316406 -866.610107
-129.254715 967.630981 -719.455200
-198.373703 674.488464 -1320.212769
-161.757492 657.588135 -1330.805298
-214.990280 761.869141 -1116.958008
-138.172440 759.638367 -878.846680
-137.662766 967.243469 -702.139160
-196.794998 701.401428 -1330.542847
-115.503807 854.723389 -881.768616
-147.071793 622.155090 -872.399292
-204.232971 956.284790 -657.849365
-361.644714 781.182495 -1273.156982
-171.864334 623.046082 -1326.361572
-256.439941 866.800232 -851.421692
-350.006592 869.064148 -1203.646851
-235.584976 952.772766 -657.542480
-134.736298 955.729065 -734.673706
-67.274818 1011.861694 -487.067078
-381.869965 633.849426 -1286.137329
-263.099579 991.665344 -451.440369
-352.449860 716.993103 -827.649841
-467.193817 699.504517 -1244.971191
-365.376038 779.044617 -1294.251221
-89.841896 554.311218 -1346.852173
-54.537769 644.017761 -876.821167
-174.343826 943.240601 -707.092712
-228.547714 897.713745 -841.534058
-5.796463 968.745239 -646.369629
-248.575806 938.095703 -747.855469
-106.252815 664.069641 -1364.022827
-56.333973 962.362244 -655.882568
-128.159714 533.435181 -897.597839
-280.045624 871.534302 -1212.829956
-98.112488 590.291382 -1353.640991
-282.293610 486.777893 -1313.445801
-134.051208 964.271301 -577.312744
-120.929039 676.915527 -877.860107
-217.071747 823.585022 -1208.338501
-38.667133 988.757507 -515.193054
-170.460297 963.373718 -745.836304
-279.589569 476.736877 -1314.578857
91.146408 828.540283 -1360.671509
-308.346039 938.721069 -677.382996
-234.136261 689.289612 -855.799194
-511.127075 648.758972 -1271.018433
-112.242004 903.766785 -1308.012085
-164.718781 673.653625 -844.300537
-380.861145 811.629211 -1111.222168
-130.202652 559.109314 -1349.025757
-12.088751 632.431702 -895.422363
-416.798706 680.592163 -1294.227417
-132.441742 955.582581 -1302.862183
-196.351547 465.890503 -1336.560303
-4.502275 966.252075 -704.894897
-8.035706 997.201050 -538.261963
-244.967133 843.774170 -1237.901123
-231.250549 524.081238 -873.562134
-166.042404 544.189941 -889.150208
-359.699585 630.208252 -825.818176
-150.545929 1203.963013 -1326.210815
-372.471008 637.860291 -1305.648560
-119.974342 820.625305 -1327.426025
-260.021851 758.636841 -841.257446
-223.680161 495.754425 -1319.302612
-138.768692 699.825867 -854.820740
-150.040482 591.933228 -1342.850708
-356.636566 769.780823 -1263.564209
-122.609177 800.090759 -1272.623291
-123.316826 953.316772 -733.794922
-99.494965 970.908020 -567.249451
-103.962425 781.728638 -1342.862427
-324.022369 727.116943 -812.031311
-170.187775 637.016479 -873.119507
-21.606045 973.122803 -544.375854
-129.131256 669.504517 -1331.245483
-257.211121 824.687683 -843.510071
18.329885 717.962463 -854.003357
-244.775879 1117.866089 -1286.985107
-69.301735 733.616333 -1337.377686
-53.022915 559.422424 -907.453796
-439.743530 743.482544 -1270.389771
-116.652351 844.175537 -1282.532837
-162.266251 647.202087 -856.518677
-218.962158 899.542908 -840.747253
-83.230469 663.991028 -1355.322388
-279.819092 735.749634 -860.489136
-129.872833 1004.328613 -1332.878418
-221.673462 817.739929 -1323.613770
-76.568886 579.630371 -1369.087158
-222.889969 777.091858 -832.328979
8.110726 708.769958 -882.656738
-161.828690 698.495422 -871.508240
-205.099091 669.111694 -1318.705444
-175.539688 696.313660 -1324.174805
-43.777294 703.673828 -865.790588
61.635838 815.534607 -1365.357544
-412.183167 633.302124 -646.123840
-169.334518 783.200562 -848.659668
-309.740509 769.156128 -833.409058
-126.473396 882.337280 -855.004761
-305.856079 557.350586 -868.602783
-479.383331 890.013306 -1275.943115
-100.792946 779.074646 -868.901245
-366.141479 773.720520 -1290.385620
-251.021622 555.047180 -858.455322
49.165077 708.127563 -819.148865
-218.000031 610.558044 -853.175049
-533.252930 706.324829 -1239.872925
-481.296204 966.207153 -1264.159302
-30.451464 961.285034 -666.279358
-114.875633 724.575317 -1348.336914
-233.373459 976.085754 -471.576080
-155.299484 965.237061 -654.241455
-188.852890 972.111511 -491.246033
-156.847229 777.600403 -1318.178345
-143.838593 973.980835 -533.005920
-337.472656 612.718933 -1309.712891
-171.948059 1025.853882 -471.648712
-118.956177 944.244690 -752.109863
-71.731445 796.224792 -1335.880737
-110.026398 956.640564 -603.007874
-226.539307 956.404053 -575.276428
-132.864655 786.582336 -863.913025
-41.967213 671.376343 -888.246948
-81.811890 964.684692 -582.255188
-362.649780 659.552246 -823.296387
-137.318954 550.985901 -886.016724
-374.247467 734.981445 -1297.540039
-265.227814 1200.205200 -1268.785278
-247.642715 464.546143 -1327.320435
-125.974106 710.426453 -1360.258545
-56.099186 632.557007 -870.026367
-192.058243 1009.416321 -476.892609
-362.466125 592.849426 -1305.763794
-372.084259 701.017944 -567.039490
-193.909119 945.879700 -720.323669
-376.060638 741.380981 -1210.817383
-119.854645 728.150208 -855.741394
-126.139061 790.906250 -845.199219
-134.649994 599.339722 -1349.782837
-48.742168 714.785278 -1368.379395
-164.476776 966.000366 -695.517517
-152.505081 733.649048 -864.688599
-125.079536 960.497070 -705.360168
-541.303040 695.338928 -1248.420654
-310.233582 574.606995 -846.183167
-164.212555 517.900574 -1345.100098
27.175579 812.570435 -878.624512
-167.692764 622.085632 -1342.405518
-11.597354 970.354736 -597.100952
-22.089983 971.113098 -631.337585
-496.123413 806.638794 -1263.584839
-175.413208 645.718689 -865.220886
-49.676517 995.950439 -481.185455
-448.147919 684.914246 -1282.505249
-233.768616 571.182312 -1318.872803
-510.335388 639.625610 -1254.326904
-2.608062 635.950073 -919.367737
-141.499802 681.012512 -1356.406982
-24.006014 780.009766 -874.727295
-363.037292 658.188171 -825.072144
-299.471710 639.829651 -817.993591
-413.106201 762.545532 -1244.952637
18.428919 790.057007 -1305.745239
-74.875038 767.121033 -865.990967
-173.419235 972.153259 -627.241577
-213.395386 769.583801 -1322.960449
-93.594254 955.416138 -696.011414
-229.967987 941.625244 -680.785522
-45.981323 555.020142 -911.851013
-475.858704 699.709045 -1259.457642
-2.623441 698.717712 -894.355774
-115.650528 960.537537 -695.550720
-20.042492 672.403076 -1377.406494
-228.108917 925.227783 -742.032593
-215.169800 517.961975 -1319.820313
-100.019852 823.768555 -1271.757813
-3.685569 640.242615 -902.947632
-149.620682 545.072632 -883.672424
-369.048492 757.483887 -1232.678101
-45.931057 678.184204 -887.496643
-177.080826 709.267334 -849.903870
-209.438889 1014.399719 -857.537415
-428.494812 928.280884 -1262.466675
-52.995720 948.765991 -764.805847
-251.784851 928.806396 -839.415344
-4.442758 584.920471 -917.513611
-61.866081 760.815369 -1348.539917
-139.478119 692.919250 -858.085205
-204.525085 977.316589 -502.760895
-161.970688 1004.845154 -1282.595581
-125.389259 743.991028 -875.807373
-1.065373 966.391907 -662.212280
-204.918716 704.075928 -851.590027
-94.417252 671.463501 -1352.956299
-190.068436 869.957947 -1259.755127
-276.431793 478.590515 -1328.511108
-38.302822 979.359680 -534.420898
-160.373550 963.154236 -578.868042
-289.224060 748.123352 -847.283447
-61.039852 733.057617 -1353.787720
-70.437973 824.732056 -1289.102539
-239.593048 673.896240 -1158.167480
-111.585007 752.020996 -1342.490845
-239.637665 965.267273 -578.337280
-149.173035 946.430603 -1312.618408
-493.883179 834.445435 -1277.021362
-135.650970 877.513367 -842.900574
-166.145187 737.172974 -874.866150
-0.334803 811.476685 -1342.733765
-183.688095 736.292419 -1333.657471
-225.777328 717.478394 -1320.546875
-221.971817 959.749023 -565.985352
-203.926483 958.008240 -589.279663
-320.670624 844.409241 -835.849854
-209.457687 644.770630 -861.383179
-37.456139 581.366272 -909.980530
-135.975586 957.783997 -762.737854
-197.231033 958.161987 -640.798218
-75.885727 575.834595 -1346.206787
-100.034058 953.243530 -713.485168
-165.701447 959.503357 -625.232422
108.167633 790.881714 -677.710815
-75.981697 574.289917 -1366.409302
-140.453110 532.866760 -1353.737305
-64.741783 992.354431 -504.189331
-145.609756 557.917603 -1332.108398
-265.549957 736.121765 -1193.829834
-101.843620 634.196533 -1360.325806
-223.656326 881.697754 -842.675598
-153.730408 581.170166 -864.830933
-334.446533 746.786499 -835.196411
-264.933411 947.000000 -691.813965
-219.500870 852.673279 -844.614807
-152.247086 938.725586 -708.839478
-363.713593 749.424316 -1309.423096
-43.932529 980.907288 -498.875519
-13.329255 587.077881 -926.050598
-356.472626 762.451782 -1214.479126
-81.478722 774.641968 -1355.961548
-90.333725 567.311584 -890.742981
-517.540955 668.294556 -1285.682129
-322.506287 800.405090 -1253.867432
-194.000488 610.482056 -1244.035400
-171.890274 799.143616 -847.771729
-386.449280 612.718079 -1303.376709
-458.583282 737.955444 -1205.481201
-325.465973 619.404114 -1296.177734
-30.903143 768.702881 -872.865173
-264.444153 647.790222 -1271.416260
-20.473389 712.171631 -890.645447
2.241714 646.012512 -912.923035
-202.007309 753.162720 -843.180237
-325.542938 643.110962 -830.181702
-186.578247 514.200562 -1354.570679
-130.121811 732.564941 -858.393372
-400.880585 719.187927 -1293.498291
-224.004868 673.438232 -842.770508
-87.955490 955.450623 -721.407776
-301.115051 568.997681 -829.566040
-233.277939 486.322266 -1334.214355
-352.020355 775.574402 -1309.234497
-302.778168 546.043579 -844.837708
-201.111298 584.121582 -876.045776
-200.300568 951.281433 -588.634583
33.395866 818.486206 -1349.119873
-388.787201 735.816833 -1306.726929
-53.476509 624.137878 -873.330566
-22.248053 765.057129 -1338.782471
-286.696411 662.653320 -1329.287720
23.492786 768.196350 -1369.260864
-134.164688 599.789001 -1346.594360
-74.494980 761.435181 -868.489319
-426.853455 658.185486 -1309.582153
-132.879623 912.409851 -866.786743
-244.969955 966.367371 -622.658813
-231.519775 974.641968 -492.988556
-248.298050 965.870972 -553.824829
-205.450760 956.345520 -627.490295
-90.561279 795.392090 -1291.061401
-403.524384 774.366638 -1288.853149
2.134359 723.462891 -842.127319
-138.125092 609.820740 -1363.872925
-127.575363 795.191956 -1338.493774
-275.058502 709.981262 -832.625977
12.528527 755.947205 -880.704956
-123.354515 963.734009 -634.236877
8.987763 643.769714 -905.538757
-342.906586 832.649902 -826.776367
-508.586578 660.920776 -1243.701782
-153.965683 526.717407 -1347.244385
-197.082047 998.837158 -491.159363
-343.935516 628.015747 -1326.049072
-449.261047 609.717346 -1291.788818
-78.845924 962.120605 -730.076660
-111.483017 958.992004 -650.647949
-109.682877 1000.883972 -503.801056
-147.665085 1115.026978 -1293.533569
-54.547554 977.638062 -530.726257
-244.114899 867.714478 -824.723328
33.288971 726.584839 -891.997070
89.652519 681.678955 -827.430115
-488.268097 676.002319 -1236.381348
-170.488083 960.678711 -587.541138
-126.192200 964.681885 -715.702942
-432.495667 735.158752 -1279.288208
-155.913300 667.485962 -844.897156
-213.625000 821.479919 -850.340515
-95.488686 821.265259 -855.692139
-51.540989 962.408997 -564.585938
-374.625305 627.116211 -1301.915283
-486.067993 733.065369 -1228.385132
-123.472359 627.764038 -1365.035889
9.441422 881.431335 -1351.306152
-58.640087 619.674500 -1367.034058
-20.032816 703.843628 -889.552368
20.503139 740.231445 -896.920288
-69.785530 559.125427 -899.950684
-341.940430 811.468872 -1261.578857
31.203655 715.741394 -879.169189
-312.392395 846.202881 -811.960205
-21.943481 966.070374 -629.206848
-297.784119 948.650818 -733.617004
-176.087662 773.359497 -1316.596069
8.077731 727.490845 -1366.850342
-114.871429 554.176636 -893.265930
-255.446655 739.914734 -1226.518799
-124.909470 962.808777 -593.565430
-225.295959 813.562988 -1305.394653
-287.174530 621.921753 -837.223206
-63.268093 625.400818 -1368.537842
-151.213165 1139.151733 -1298.300537
-105.834740 879.913147 -1300.185791
-318.671936 629.494019 -1311.936768
-130.207932 721.496765 -1335.052002
-183.655197 497.273834 -1337.930054
-315.770935 663.956909 -1312.711792
-183.614975 980.494568 -569.892822
-47.444031 665.480652 -1373.596069
-331.971924 714.512878 -810.105652
-104.801544 551.476013 -1352.743774
-132.772720 597.753845 -1332.732788
-177.920029 974.018250 -546.494690
-36.365517 792.401184 -873.464355
-187.579926 939.458557 -754.655823
-189.619568 998.319092 -1313.144897
-213.324966 906.180237 -856.531433
-48.499687 665.334839 -1359.082886
-142.429352 851.169678 -1276.586548
-300.539948 727.480408 -1307.495850
-305.533264 899.272217 -808.461731
-252.141083 957.955872 -552.142090
-146.367722 908.202881 -866.990601
117.420036 678.599915 -773.614746
-164.838226 628.703491 -1344.398071
-352.696472 656.162415 -812.489441
-118.983620 969.176086 -577.959534
-239.014969 484.990692 -1330.830322
-271.887054 655.880859 -1282.850342
-303.323273 954.705017 -526.373230
-193.640488 657.211426 -1338.224976
10.033692 671.630676 -895.778809
-49.165268 974.285400 -557.498108
-10.217937 789.666077 -1357.481079
-401.783966 819.704773 -1249.151489
-87.787666 638.709473 -872.329468
-86.544296 840.195068 -1325.447388
-14.793817 723.654846 -1348.681030
-320.135132 825.624878 -844.566956
-190.104614 644.786987 -1328.810303
-185.202805 750.477295 -1345.489624
-173.305664 1006.964783 -483.735779
-132.786667 958.706909 -628.024048
-151.989517 973.364868 -563.597229
-293.945740 921.906372 -1222.602417
-166.496048 754.765137 -1348.126587
-371.644775 873.945557 -828.915955
-466.077148 717.058105 -1270.985962
-182.847733 947.728333 -1312.872925
-103.461021 668.919983 -1341.621216
-41.573544 703.558289 -894.221802
-30.464338 973.636047 -567.199707
-120.534843 982.226257 -518.888855
-161.969788 622.136719 -856.471741
-270.273804 941.367676 -635.054626
-264.532288 944.776428 -616.680298
-308.324463 572.661194 -832.671875
-144.984970 727.603516 -1349.335571
-56.280376 656.323547 -874.675598
-189.595367 609.469910 -840.569397
-214.117859 968.966492 -489.070526
-6.804626 622.822510 -923.107666
-215.926224 591.243103 -1304.728271
-182.435516 579.197510 -1340.050903
-282.315308 739.443909 -848.725037
-260.874451 591.809143 -859.954468
-181.820770 795.922424 -1320.680542
-143.579132 960.823425 -708.028198
-295.463684 566.024170 -851.392273
-189.566727 972.350830 -484.600494
-5.561442 721.755005 -845.513184
-92.400185 729.367981 -880.613708
-71.408188 546.012512 -912.200989
-305.307983 569.562317 -846.709900
-16.861582 612.628540 -890.775085
-262.041016 495.720337 -1336.279297
-18.343065 978.887207 -554.416443
-58.457863 860.278748 -871.328552
-297.360535 778.361511 -837.462341
-212.154648 976.887756 -1299.067261
-194.668655 671.732910 -1321.869141
-404.593689 742.971741 -1229.168579
-38.158520 801.745178 -1335.895996
-359.999084 860.259033 -825.392212
-183.741150 541.306335 -883.884277
-93.102325 973.013489 -546.004578
-417.441193 748.598511 -1252.140015
-250.795563 599.525696 -856.555298
-254.848770 638.556091 -1263.388062
-139.075424 989.784607 -497.311493
-242.326447 955.664063 -648.440979
-238.723618 953.848755 -1307.648193
-337.852020 714.353027 -1321.233032
-175.367371 638.689270 -1326.930542
-75.556252 706.330566 -889.436035
-50.944939 559.124451 -912.208557
-107.642014 965.746521 -557.978638
-15.967801 974.558533 -589.518921
-101.839867 583.655823 -867.771240
-200.230667 968.929749 -528.311401
-65.611908 794.209656 -876.539429
-322.262177 589.568481 -1318.160400
-182.123245 796.403137 -836.365906
-427.650177 705.717529 -1225.498291
-182.295685 597.812927 -1282.499268
-271.275574 589.789185 -848.437683
-360.857422 649.024475 -823.757446
-395.401825 614.512634 -1300.959106
-453.598175 633.577576 -1290.783325
-319.399475 690.533203 -827.720093
-259.964325 538.831604 -1320.445801
-221.924850 717.581055 -861.884766
-356.246246 717.684753 -1293.593628
-183.602112 1010.694763 -476.827057
-176.816971 723.387695 -1338.623047
-149.491989 574.157349 -868.258179
-45.715153 942.811584 -741.981079
-55.927517 970.115173 -610.790833
-176.078690 723.882202 -1113.839478
-100.638130 675.938110 -1361.340088
-169.869186 755.420410 -1344.069580
-435.688019 698.552856 -1276.836304
-142.658844 717.362244 -1350.729614
-76.882988 712.549072 -863.442017
-340.120789 789.700317 -837.741577
-86.323524 800.064514 -1341.604614
-254.316666 978.647339 -486.815552
-114.297684 633.617615 -864.487366
39.725368 775.897156 -1360.290039
-98.176888 743.701172 -885.119324
-355.250793 738.336548 -1281.675415
-135.972412 581.395752 -1348.386597
-392.766602 640.220520 -1302.115356
-257.858551 522.599304 -893.118713
-299.348572 992.167358 -477.167603
-407.168121 662.754578 -651.901550
-106.169701 955.826904 -715.864441
-49.209595 783.100830 -1346.234619
-227.886292 904.069214 -1232.588867
-355.758331 570.419434 -830.628235
-259.231964 560.684326 -864.016052
-197.561066 641.429138 -1336.336914
7.284549 763.879028 -892.874573
-160.998398 983.987732 -483.581512
-244.850616 887.572266 -823.518982
-102.872009 671.665039 -867.185364
-34.448212 757.592773 -1365.048340
-197.459274 470.306274 -1338.270630
-50.789898 842.868347 -1289.437500
-324.848785 894.271118 -807.200928
68.774368 843.450073 -702.572510
-10.953062 979.220520 -535.131897
-491.178864 841.839233 -1269.129517
-300.986572 857.156189 -835.971863
-101.832863 908.617737 -1322.459106
-155.868546 570.757385 -868.110352
-300.780548 951.908203 -584.366272
-203.435547 1183.342285 -1306.176880
-201.696869 681.484253 -1333.724731
-69.528641 972.893127 -572.822266
26.775583 866.469116 -1351.884155
-258.648254 532.348328 -1322.879761
-238.499878 950.631042 -607.445435
-264.375488 609.238159 -1317.937134
-149.446289 943.917847 -737.859619
-97.495857 702.166809 -1363.942627
-287.746307 939.616699 -642.686035
-271.698700 643.176331 -1273.697876
-250.483398 510.172302 -1315.469360
-132.528625 974.330322 -511.309021
-248.704041 534.631287 -1343.687012
-140.199005 994.501526 -471.163086
-390.814575 701.109436 -1285.817383
-286.294189 902.793579 -836.257996
-62.989201 703.531921 -1363.830933
-199.958847 547.329529 -1281.947510
-341.851135 533.869446 -1311.168213
-164.804520 551.010254 -1350.285034
-114.274895 832.576233 -1261.035400
-76.536102 964.208252 -587.682861
109.064117 804.676758 -695.178467
-220.770737 665.913574 -843.541321
-147.587402 1013.072876 -1307.214722
-195.571136 539.688538 -1337.388794
-163.983215 786.540466 -851.473755
-1.328683 969.023315 -605.342712
-130.058533 948.036743 -720.495056
-188.717392 774.194519 -1314.145630
-90.257759 771.701416 -1355.344116
-159.935806 1021.612976 -1314.238159
-202.013107 687.000671 -846.126648
-282.624664 875.835571 -832.547424
-164.157501 947.643555 -689.690491
-18.960867 865.664307 -1343.108032
8.016637 870.394470 -1360.357300
-245.217819 949.044373 -610.010742
8.451811 830.881775 -875.882813
-174.388596 529.972107 -1331.284424
-197.043488 691.553589 -1140.251831
-246.620636 658.443420 -835.144592
-285.539612 782.812622 -819.294373
-199.414047 798.811951 -860.699585
-252.141968 974.939636 -460.314178
-109.766197 986.556702 -450.552795
-39.532623 604.593445 -895.829895
-53.376980 962.726196 -622.822510
-284.697327 948.936768 -589.414917
-451.121216 736.264709 -1255.989624
-220.120377 968.557312 -579.872253
-164.633499 793.363342 -1264.717773
-96.522339 637.430298 -880.335388
-65.729942 794.442871 -1293.660278
-111.883934 817.257813 -875.637512
-23.400194 983.798706 -521.947876
-199.440918 590.753113 -853.692688
-31.729265 632.154236 -1374.656128
-203.745361 979.606750 -504.513275
4.530652 810.197998 -869.187500
2.074337 608.998352 -912.688538
-208.736542 678.659363 -1286.048218
-268.773926 618.445740 -1323.740723
-203.892670 968.972046 -498.275574
-270.411774 674.444153 -850.935852
-194.214050 968.640564 -581.426697
-533.739929 725.051147 -1260.447632
-20.504484 975.343994 -698.166443
-267.401245 964.611084 -549.973267
-200.273834 773.472656 -1333.289795
-258.680023 862.265564 -863.601074
-460.161713 988.133911 -1245.347290
-170.023117 968.884033 -589.218933
-268.126862 891.954346 -846.282043
-375.895752 709.474365 -1169.781860
-93.789101 672.400635 -864.642090
-276.384766 557.768555 -838.508484
-91.067612 957.877441 -596.140503
-149.396820 958.804199 -716.978271
-115.841698 950.045105 -645.232849
-33.481911 1012.033203 -507.657532
-132.107819 985.715027 -1310.522095
-289.424530 550.372070 -840.782837
-148.706329 959.802124 -679.210205
-239.019211 718.185730 -1286.806885
-65.215714 802.506165 -1346.851929
-129.488358 609.392517 -853.695374
-176.227310 809.223755 -1263.438232
3.354203 731.644287 -1366.184082
-302.226257 550.794189 -847.906921
-146.584824 643.593567 -845.498169
-379.033875 634.590759 -1304.821045
13.486769 764.447571 -1346.599731
-376.045563 721.165588 -1299.852173
-53.491039 692.997314 -878.447449
-313.417267 717.419495 -1312.157471
-281.927704 953.250427 -535.109253
-31.197170 963.832092 -688.977844
-291.484039 673.999084 -837.943665
-7.236226 728.839478 -892.505493
-169.306396 866.988586 -851.940918
-469.438843 731.386597 -1234.238281
-304.632904 537.303284 -1319.241455
-286.265442 941.682617 -719.095642
-170.359192 803.702881 -867.660645
-281.056244 943.176636 -704.069214
-38.074558 961.673767 -697.932861
-180.313309 798.844482 -1327.018555
-82.296669 644.647217 -1341.552979
-351.452606 545.168335 -1309.210327
-35.397419 609.646057 -896.450806
-68.019394 967.411072 -639.680420
-5.573166 769.395142 -864.369751
-494.912292 908.971375 -1300.521484
-127.488350 583.792725 -1362.044922
-355.309753 745.820984 -821.855835
-229.376099 961.085449 -570.598877
-73.090591 622.817749 -872.982056
-343.184509 609.405396 -832.440796
-256.301178 682.556091 -862.593933
26.210274 778.910950 -1369.767822
-310.079285 549.932739 -1315.629639
15.295370 780.878723 -1365.825928
-109.452187 700.246948 -863.429688
-267.456451 970.813049 -519.031494
21.813780 748.797485 -1378.268188
-223.209564 980.177551 -474.438507
-158.841278 717.780151 -1328.953003
-146.085800 975.833496 -519.234741
-219.100952 953.766846 -1322.244507
-79.088257 842.964172 -876.703918
-324.382019 516.466553 -1315.808472
-129.744446 622.274414 -1348.152710
-99.039154 732.935364 -1349.841797
-328.136841 689.558411 -813.862671
-99.439613 625.973877 -859.628357
-215.460876 729.891602 -835.759216
-143.355347 811.346497 -877.496399
-329.769989 567.310547 -839.100281
-326.998932 887.750122 -821.016357
-400.008331 602.959229 -1285.435181
-203.126923 956.908875 -686.171082
-231.911301 543.995056 -858.665771
-74.481323 686.906067 -857.852661
-227.508911 657.711426 -847.001465
-91.943260 825.423279 -1325.942017
-134.342773 598.205200 -867.936157
-19.840033 976.394348 -642.824036
-334.198975 719.000671 -810.632751
-101.003441 709.831177 -1352.396973
-119.103088 1201.368042 -1296.481934
-30.737206 967.714844 -682.052429
-160.179443 581.104980 -1328.995850
-122.664986 571.167725 -876.038513
-222.210236 739.209717 -1329.047241
-356.248962 874.289307 -1257.603882
-40.422607 744.901794 -881.902100
-190.726379 529.528625 -888.361267
-317.551331 748.187866 -832.355408
-547.084717 667.896057 -1257.651489
-161.415451 968.421082 -597.859436
-100.427155 736.375244 -1363.536621
-162.320129 651.624329 -1343.123657
-215.762589 741.812439 -1326.276001
-172.057693 633.528015 -1342.864868
-215.534515 517.360535 -1307.414795
-226.635300 561.423401 -857.308777
-129.730026 824.386597 -1317.881104
-121.019585 784.873596 -860.689209
-55.736912 975.367493 -536.855530
-345.477905 684.501099 -1310.449097
-160.682907 974.320374 -555.182434
-237.305237 567.221680 -1337.784668
-328.598663 806.462646 -1255.484375
-87.153381 966.109924 -744.170349
-151.598175 608.329651 -1344.016724
-132.941391 1235.524414 -1309.722778
-52.787331 800.129700 -879.818359
-294.406769 702.659058 -835.078186
-151.632736 1194.385742 -1328.670532
-180.924866 627.635925 -859.690491
-366.131897 686.383301 -1301.575806
-319.536987 766.190002 -828.886292
-125.000000 960.923340 -669.488342
-22.340900 631.023987 -894.023621
-163.181213 641.809387 -854.313538
-387.988068 718.803894 -1309.547485
-152.901459 819.794250 -862.127380
-60.880867 906.459778 -878.658203
-78.388046 950.276733 -762.791321
-49.666492 648.951721 -1370.012451
-95.721268 574.933411 -1354.099487
-511.513763 839.648743 -1265.036499
-85.462273 985.792969 -472.586456
-18.362009 661.046021 -1363.731934
-274.225525 750.227539 -839.088867
-181.077301 543.055847 -870.785339
-209.067444 990.946228 -440.852966
-297.070923 959.383301 -607.138855
-201.465424 942.641968 -672.231445
-398.814606 887.423218 -1294.193848
-137.275833 720.744385 -843.994263
-336.451355 501.949158 -1302.672852
-76.808311 593.973511 -885.326111
-144.322296 695.457703 -1328.390503
-185.784546 504.499847 -879.117615
-320.709564 777.487915 -1224.790894
-211.999069 652.948425 -851.187927
-414.552917 791.004395 -1265.327393
-253.865707 626.200745 -1324.058105
-42.038284 820.906555 -1349.551270
-246.928452 955.404114 -603.474609
-14.940294 963.371094 -645.763977
-79.088432 958.412720 -668.299805
-176.534973 917.276001 -838.758911
10.782258 804.645203 -1355.623169
-14.645420 747.932251 -886.021851
-363.030579 546.702332 -1292.250244
-96.919525 702.186523 -1350.850708
-392.150940 736.863770 -1286.823975
-343.802002 675.988525 -1307.500610
-491.319550 669.631714 -1266.943115
-158.698517 954.386536 -655.680054
-171.756210 1205.274170 -1309.358643
-280.669312 964.080566 -535.832092
-208.044617 813.870911 -1282.206299
-232.774429 625.693420 -833.685974
-437.698944 687.377136 -1278.528076
52.780754 854.627991 -1367.765991
-545.916504 684.679565 -1268.316040
-166.813736 942.629272 -726.816223
-225.233856 677.227539 -1245.852295
-64.462219 642.511230 -1357.758179
-481.154144 750.820190 -1251.451050
-268.345123 679.749512 -834.456970
13.123863 991.362854 -775.230286
-114.798073 613.242615 -869.690186
-206.677734 779.433594 -1312.038452
-155.844849 615.151855 -1355.330322
-29.568176 967.521606 -755.329590
-18.205730 730.874817 -890.167297
-56.020187 708.093140 -1341.183105
-112.575035 618.138550 -867.627319
-37.194778 684.883423 -873.160339
-192.220993 816.204285 -863.830566
-299.427185 586.103394 -860.864258
-50.763271 992.171875 -504.473633
-71.719925 963.387329 -689.880554
-404.581207 722.289001 -1271.577759
-122.954765 970.323853 -608.876892
-240.938843 1216.869263 -1275.018311
-111.863731 835.250183 -1279.069214
-356.852570 776.662964 -1293.752686
-143.613770 746.117981 -1353.922241
-86.236687 626.388977 -1363.297974
-147.876373 593.073486 -1350.804321
-299.391510 933.010193 -713.534241
-249.259460 617.887634 -865.981812
-270.554871 951.978638 -630.801819
-194.881500 730.454041 -1330.405029
-282.236328 621.187073 -1288.554443
-147.902893 950.178101 -1328.386597
-164.234329 963.124878 -564.338928
-171.209152 817.067322 -1287.497559
-90.800720 572.994812 -880.783203
37.024799 824.038513 -1356.333496
-55.669479 986.372009 -494.753479
-373.900909 606.489075 -1304.427002
-227.340454 952.986511 -601.773315
-226.559280 798.926514 -829.125732
-260.215149 1208.850098 -1270.190430
-327.257080 551.294556 -848.234802
-233.671463 822.916687 -1320.147095
-244.809082 945.319458 -1287.118042
-168.874115 802.023376 -1309.245850
-213.676422 685.624023 -868.396667
-136.656464 635.418213 -881.443726
-5.717558 744.359741 -1356.794556
-152.416168 878.887085 -874.392456
-126.641228 700.395081 -846.669067
-100.218987 741.493408 -1360.356079
-96.427078 537.921509 -911.597595
-317.159546 691.438721 -1310.244873
71.955528 798.250061 -1379.032227
-3.326910 592.565735 -957.249695
-395.693970 631.844299 -1297.992676
-197.749283 552.836670 -873.273315
-245.063599 694.731934 -1265.993286
-366.511597 747.948914 -1293.287476
-122.635513 592.314331 -863.615051
-139.098434 552.146973 -1333.283936
-351.159241 577.690430 -1330.438599
-75.494675 854.621155 -872.078491
-201.566727 959.377014 -525.674683
-176.932007 958.590637 -618.810669
-223.352722 605.155701 -1212.062622
-130.602982 951.682312 -646.464355
-47.908096 966.029358 -718.591248
-4.725956 605.212463 -911.227051
-200.511673 527.007996 -898.680054
-317.871124 802.438110 -1253.191162
-208.263336 824.875732 -1256.216675
-126.812431 927.921814 -861.246765
-274.713989 952.013672 -630.573914
-318.712463 597.617920 -1299.952026
-172.039444 746.279114 -1337.822998
-66.688866 802.074585 -1320.027100
-105.310806 976.527771 -489.198029
-313.622925 858.381165 -1210.960205
-238.752899 982.752563 -548.476135
-35.167042 977.022034 -519.517273
-141.843842 1022.992493 -1332.883911
-124.153351 639.390076 -874.127197
-167.716904 986.727661 -453.994476
-104.242233 656.531555 -868.020508
-266.149384 796.209167 -1167.758545
-56.455082 948.951965 -703.916748
-357.962585 728.487549 -1302.058228
-323.462952 678.105957 -815.787598
-199.049652 569.855591 -1332.720947
-210.980698 979.046265 -505.746826
-105.453026 964.416382 -632.042480
-189.561035 488.007233 -1345.890625
-293.016418 942.372681 -605.108643
-58.443066 990.066895 -498.699066
1.576112 744.531616 -1353.631470
-143.834869 853.895508 -1263.834961
-57.803577 794.778564 -1355.762207
-127.095688 585.235718 -871.385254
-232.040909 959.205139 -561.418518
-371.388885 646.644226 -1288.051025
-65.404762 797.228149 -882.043762
-142.428391 586.434265 -1335.918457
-35.794041 855.255920 -864.015747
-55.601505 803.200989 -1358.254272
-55.521263 834.257080 -1292.387451
-238.432861 707.866211 -1228.057251
-237.060181 517.890686 -879.992065
-107.380898 601.377625 -1352.778076
-324.482086 944.466675 -557.083862
-103.226868 979.128296 -589.156738
-277.250610 569.082764 -848.020203
-329.198212 706.549072 -833.255920
-105.236938 715.142090 -868.862244
-303.676178 500.837677 -1305.660522
-181.126556 976.725159 -481.005005
-399.708405 770.693298 -1283.980835
-252.428741 954.848083 -634.833191
-383.375275 618.543274 -1323.525269
-153.511551 968.069641 -566.193420
-100.152313 575.115173 -1353.967285
-92.066910 583.438232 -870.874512
-34.082405 766.252747 -1337.122681
-188.729492 766.755798 -1315.665771
-149.462112 963.340637 -620.605957
-92.374245 971.281921 -508.720184
-208.431519 800.445313 -1301.862061
-28.472593 597.292175 -915.257080
-86.472549 744.117676 -862.368408
-249.824829 538.208252 -879.834778
-118.799660 947.165894 -672.986572
-155.647308 555.259705 -1345.744995
-156.796448 686.520508 -1342.952759
-197.714569 511.293121 -1345.914429
-182.340149 952.298523 -606.157349
-182.495880 547.729431 -1333.025757
-230.267303 1078.083252 -1217.125122
-124.141083 623.591614 -866.521973
-96.338966 627.286865 -1340.084839
-50.838501 954.232910 -647.633545
-92.657051 840.931396 -877.659119
-128.341354 811.823547 -1305.016357
-450.690491 707.118774 -1279.511841
-191.746887 936.451599 -870.217102
-19.831118 689.902954 -890.568970
-244.733444 1208.951416 -1307.486328
-196.968216 887.026672 -1229.031250
-135.794052 966.588623 -753.117126
-66.671013 544.250305 -938.372925
-205.263077 793.674072 -1203.071045
