ply
format ascii 1.0
element vertex 1362
property float x
property float y
property float z
end_header
-1321.519165 -538.252930 585.817932
-885.552917 -321.791473 559.705017
-936.275696 56.815384 766.689697
-688.752380 -102.937431 876.988403
-1517.638916 -84.923897 517.611328
-1319.466309 -466.056732 351.254089
-1423.076782 -308.831299 389.720459
-949.598999 -189.029373 574.579102
-885.940857 -381.910217 501.197723
-894.653809 -32.649319 800.597290
-1389.344971 -359.541718 360.977478
-633.268616 -40.462627 903.228088
-1012.481750 -111.919685 725.827026
-901.006165 -78.905434 820.333252
-1429.133057 -268.534424 690.189270
-959.639587 -187.579941 414.313660
-802.392334 -83.784355 847.218933
-1342.746460 -453.308899 365.738251
-814.307922 -139.887482 846.687927
-928.231262 -226.815399 510.770721
-926.946594 -272.073547 491.165131
-1283.604492 -394.421997 414.652924
-719.282471 46.107662 841.663818
-739.542847 -47.862316 855.997314
-902.465393 -356.638306 436.304321
-807.453491 -41.190727 836.814697
-1258.714478 -626.284424 593.672119
-1402.767944 -386.339386 529.179565
-1330.307129 -526.443909 481.645386
-1437.847168 -279.725708 421.258087
-1324.593018 -437.359497 298.249115
-1302.977417 -524.120972 414.629791
-1012.885559 -92.463760 730.836853
-912.367981 -320.093109 430.460876
-1301.501099 -371.356171 498.361023
-673.855042 -16.024986 908.564636
-864.535767 -368.001129 632.115112
-1022.270142 -49.660763 592.578369
-1410.141113 -323.070465 415.937012
-719.510193 -32.867382 865.307739
-889.864990 -25.811670 799.780212
-934.877991 51.525600 787.893738
-1006.368347 -92.840042 636.061462
-1034.905518 -3.906748 592.108154
-1261.671021 -606.547546 593.090698
-919.835144 -266.139008 581.413086
-865.793701 -219.644455 849.917175
-1422.083008 -315.663635 545.266052
-735.417908 96.380791 838.802979
-834.467102 -76.900078 827.503601
-760.423523 121.250839 822.894775
-1406.580078 -260.586914 829.320862
-803.265442 100.888153 786.146057
-887.099731 32.655289 785.591614
-919.789001 -278.784210 640.226624
-1405.935791 -316.920166 347.416412
-1352.862671 -461.936920 590.221802
-706.514465 -96.675278 875.631287
-865.836609 93.297165 764.893250
-1410.689209 -351.232056 444.291412
-1461.135864 -221.160416 434.285767
-1362.423828 -510.848175 800.727417
-1357.492310 -399.020660 423.220276
-868.201050 -74.212204 822.213501
-887.544983 -328.845856 553.229065
-865.706970 -94.691597 831.688965
-841.723877 49.493587 792.018677
-899.160156 -268.746094 586.371033
-917.681641 -260.154480 446.041260
-998.001892 -110.183357 658.811829
-943.427185 -170.231125 521.347473
-790.149414 -113.126640 863.993958
-740.586182 115.490639 848.556091
-719.799255 -68.685997 878.326721
-991.390503 -145.177612 727.448425
-1343.873291 -330.413208 621.856567
-1351.482544 -454.248535 587.547974
-1390.574585 -292.346008 692.916016
-1347.590210 -415.783905 337.414398
-719.921997 92.233589 845.387939
-708.314697 -33.591480 865.860535
-886.659851 -122.183250 839.268555
-1422.826660 -270.497437 807.441162
-1222.620239 -582.439087 594.333130
-943.567200 -205.696487 503.667084
-1412.985229 -300.371704 341.097778
-1432.562866 -209.381577 583.316650
-687.318665 -103.064194 895.144348
-999.443481 -113.787758 432.308350
-943.022461 -195.594513 438.046967
-1449.857056 -205.865616 420.903625
-1387.492676 -318.515930 587.235840
-1487.539429 -203.776154 930.313538
-937.718689 -248.380280 568.738403
-692.547058 -111.673035 881.464478
-778.561218 -17.184725 836.266541
-1346.828613 -405.538605 319.403809
-883.361267 11.753988 789.333618
-1425.526245 -262.356232 729.532043
-864.034607 -368.706360 573.924316
-1467.590820 -228.693619 481.722534
-1459.588135 -195.373901 496.762482
-1411.355103 -288.903717 377.915039
-659.088623 -0.976473 894.678284
-1294.642700 -527.313477 591.933228
-1423.470093 -321.222321 422.970978
-920.707275 -291.066925 693.461975
-857.007019 -414.175598 604.520935
-1487.526611 -192.646271 598.788330
-1284.426880 -604.908569 550.836853
-1454.074219 -181.586487 563.550781
-916.118652 -265.450043 722.675049
-1436.411377 -171.230240 586.328430
-991.594849 -120.553490 712.672974
-1314.489990 -479.964569 417.018860
-1401.048462 -284.559753 810.744385
-1316.773804 -556.241272 574.505920
-839.944824 73.016579 794.542053
-729.911377 -153.233871 880.833130
-863.709412 -82.543541 805.050537
-822.485107 -90.315201 835.648865
-1399.088745 -389.447540 503.651978
-944.419800 -281.455658 387.494629
-924.657410 17.772499 761.573303
-1315.458618 -497.988800 408.570740
-1336.553955 -456.600769 751.796570
-857.104858 -418.116516 499.850098
-1427.636597 -294.280365 449.315704
-710.324280 91.968994 878.450806
-844.413940 -108.132637 835.768127
-1478.259644 -171.788589 555.984680
-808.872314 56.371819 800.713989
-1271.080444 -588.307373 558.530762
-931.573792 -328.605682 735.657227
-652.129578 -31.910320 885.737488
-797.152161 -6.149336 815.219177
-1293.997070 -557.996399 418.234161
-1383.285156 -348.958862 589.680237
-1462.461792 -234.309448 429.619385
-793.125793 40.152786 809.289673
-1448.876099 -245.422241 710.794678
-1304.962891 -597.588257 755.949951
-972.444458 -152.963394 412.440948
-615.272400 -80.178436 916.767212
-882.368469 -333.157867 452.847351
-1336.487671 -417.868774 430.229584
-866.236694 -407.029999 483.588440
-1298.229126 -584.933411 785.068237
-907.573059 94.876984 589.305664
-654.820557 -115.599670 914.776855
-726.082153 -5.866776 858.464172
-767.737366 -40.432453 849.807922
-950.829834 -175.326141 429.911377
-1293.871582 -569.867004 545.556580
-944.183105 -205.905930 515.058350
-782.718079 -50.379990 844.969727
-1322.688843 -404.963989 410.497162
-1473.386475 -181.973663 814.558350
-744.253723 26.603336 831.272400
-938.578064 -230.638184 638.080750
-938.023865 -190.942032 548.659912
-1475.588135 -214.666855 750.179138
-999.937500 -107.925262 540.191528
-669.731812 -107.053741 901.026184
-1352.670288 -443.301788 467.553375
-832.817993 -18.470123 816.158447
-976.906067 -215.168594 743.476257
-853.628113 61.018990 774.078186
-909.566772 45.831944 762.653931
-1199.040283 -306.794464 529.948120
-886.410889 70.219208 472.237488
-938.373413 -318.220306 745.243469
-942.832092 -218.081802 594.789673
-846.521484 30.052629 801.569580
-989.827698 -129.280914 477.590149
-1013.885376 -148.057343 837.543152
-1396.718262 -340.364014 324.462830
-1484.668335 -253.759903 717.824951
-800.948730 9.299081 813.401794
-1331.219971 -430.319336 415.051239
-1288.196777 -514.369812 326.131409
-1270.331177 -608.019531 492.186737
-778.511169 -79.362816 850.539063
-1377.702515 -382.378510 346.403198
-1305.716553 -465.860596 685.632935
-970.887451 -129.638916 539.600769
-1454.721802 -219.464066 494.539856
-909.365173 -332.140503 798.432251
-1453.064087 -261.975250 778.667603
-906.858215 -291.889038 643.494080
-855.023376 -103.523178 826.784546
-935.448486 -276.732513 687.358337
-1306.897949 -476.875580 344.969360
-707.658447 -101.709862 883.008850
-941.006714 -238.301926 634.385803
-1314.505371 -507.901733 362.356262
-1446.402100 -212.041595 417.545929
-1504.263794 -189.670074 899.988464
-869.304810 -65.560608 819.650818
-1266.874023 -414.689178 484.272400
-934.830322 -243.903885 673.526672
-1459.393433 -236.115875 677.993042
-1444.005127 -271.489777 512.532410
-1289.232910 -413.311737 607.869141
-1233.156006 -547.055298 633.131775
-1350.602295 -460.030945 327.514008
-887.087036 -317.886719 708.437012
-891.969055 -304.263275 492.361816
-1428.895874 -297.718903 757.395020
-1008.593933 -129.854141 392.640015
-793.844604 -69.298973 844.155579
-972.229431 -144.237747 442.103210
-1461.273560 -201.661423 608.103516
-933.125000 -214.978439 475.290680
-1396.612427 -309.028687 395.984985
-914.206787 -308.990723 499.776947
-644.654480 -97.322212 916.265015
-1291.852661 -530.303589 619.183533
-730.396179 44.574818 842.493713
-809.919617 -101.849228 847.605225
-1377.138672 -346.530518 376.648560
-1337.352295 -409.337280 449.129913
-888.895264 -317.921844 589.114685
-1332.637329 -479.529724 314.549713
-977.125793 -141.423065 589.681152
-777.159241 54.272415 817.667664
-962.414429 -163.031174 421.927429
-826.120422 124.864250 780.853882
-785.156006 -72.328285 846.138916
-935.823730 -237.562576 390.071503
-869.565613 -185.060516 836.476501
-1444.092529 -204.747116 539.539612
-1270.564087 -381.104706 422.501709
-941.347595 -277.286194 401.424072
-867.031006 -364.881439 541.055725
-1443.158325 -262.417328 368.876587
-671.714417 -147.625198 883.773071
-731.528320 -107.611389 859.602356
-1295.522217 -433.849030 624.611633
-1423.733765 -254.320831 578.515564
-1244.013672 -624.943970 626.319702
-957.309937 -201.952362 610.626831
-814.091431 -98.794884 842.639954
-1416.333374 -291.440979 344.581757
-1005.769836 -116.268646 683.042603
-901.900391 -61.040863 815.000000
-830.218567 -138.947083 833.332520
-1441.259033 -261.612366 378.900604
-1244.435669 -534.925415 599.272827
-1501.310547 -197.300735 895.754150
-1314.819580 -504.394073 436.061951
-956.660950 -184.029587 743.534119
-1272.953857 -571.793335 497.583130
-1398.140015 -220.421616 555.582520
-765.071228 -64.638779 848.471802
-1312.952393 -578.868713 755.279663
-728.203186 -128.469650 872.845154
-997.933777 -110.788338 425.190460
-1272.513794 -435.615021 612.273376
-900.950378 -257.008850 478.982605
-922.703857 -318.760376 703.890991
-1307.952148 -531.082825 596.417114
-944.265259 -241.688324 433.919128
-1256.172119 -624.860474 490.324219
-1440.764282 -253.048248 535.074280
-1416.509033 -320.490143 358.892059
-1341.655396 -455.038818 314.618591
-898.590210 -287.257050 508.704498
-1016.509521 -132.450989 761.756287
-761.955444 -148.465088 870.302124
-910.627747 -256.195251 458.840546
-983.343750 -180.845810 404.031189
-1289.288696 -585.521973 565.277527
-1421.778320 -333.063385 434.745361
-888.723022 37.294865 782.113770
-878.101990 -26.762379 790.898499
-984.060547 -139.604568 433.679565
-754.033875 -3.084045 835.743103
-1364.718872 -292.241455 625.324463
-975.523071 -155.650848 569.508911
-1346.551147 -527.525696 832.502502
-1027.232544 -41.101761 582.933411
-825.067932 104.954445 786.137207
-920.724915 -241.731201 628.251709
-1353.890381 -407.826965 345.771118
-1405.107178 -371.492249 470.030884
-1320.822144 -365.599213 597.483704
-1466.685303 -199.341949 450.704407
-995.933960 -85.207680 491.240448
-1307.368652 -440.148315 656.949524
-889.691711 -397.236023 444.779877
-738.557800 -120.232208 861.371277
-1286.279541 -581.070679 531.557495
-1313.374756 -523.824585 495.237091
-753.185669 90.358109 815.140869
-1349.158203 -426.333618 308.836395
-716.274048 -85.352211 892.494751
-870.370117 -332.816681 628.659912
-763.513489 48.616131 825.369690
-988.355469 -111.440536 458.828949
-890.442139 -310.953461 529.237793
-767.899780 30.439373 825.132751
-928.853882 -232.899902 663.690063
-909.377014 -284.887024 570.315186
-1250.299683 -561.119080 576.408875
-934.875610 -263.379303 713.680603
-1003.196106 -117.498436 470.492004
-994.992065 -94.365463 513.570679
-1326.949707 -438.811127 345.967499
-922.896729 -242.908081 655.506714
-758.821655 21.225756 832.473328
-1343.988892 -478.913605 544.826843
-935.384949 48.631218 769.851746
-1349.584229 -461.602203 316.828888
-707.292969 -70.192039 877.770813
-1312.539185 -513.257874 369.524567
-992.206787 -120.033127 640.933838
-1285.047119 -406.482697 373.727570
-1461.394531 -244.562988 443.567657
-646.063049 -62.935253 890.229614
-1399.137329 -276.497223 612.122253
-1031.444946 -88.609039 697.438843
-1346.711182 -427.558472 331.882507
-1415.010498 -330.572235 420.538788
-1226.363037 -615.830994 593.273804
-758.529785 -45.475170 837.437012
-1315.978760 -526.223145 542.785767
-939.766541 -197.019379 432.564850
-1019.189819 -113.069725 714.264526
-672.093323 52.107121 878.575317
-1441.532349 -170.107010 525.683105
-701.188354 -17.349632 857.452759
-1427.646118 -286.568207 711.841003
-775.185730 -107.496834 869.685242
-1411.121460 -302.156006 591.994202
-713.894043 -26.170797 857.984741
-1351.681030 -488.953125 591.511169
-1034.660278 -87.293884 740.794312
-703.916199 -64.393250 863.574036
-898.213257 -306.098114 430.925751
-1231.115356 -624.334717 615.648682
-941.643738 -225.987091 486.507721
-1311.499756 -515.005188 393.824127
-849.640930 -361.149414 541.787109
-851.667480 40.962570 782.219788
-858.094604 -400.362946 502.026276
-1451.427002 -244.217834 736.436584
-1425.767700 -278.433655 528.458923
-1455.927979 -202.205627 454.959839
-1303.649658 -353.048828 517.306885
-1271.073608 -596.483582 457.457123
-678.334351 6.578592 868.546143
-1387.815796 -364.258698 368.018341
-1250.938965 -589.796936 623.161560
-976.542847 13.198414 761.140381
-1424.525269 -167.016327 551.648193
-963.101868 -183.342255 416.193420
-855.747192 -12.621477 804.118469
-1022.328491 -70.338699 646.363892
-988.824158 -156.581299 533.253906
-1448.449951 -260.132751 582.592041
-955.161865 -255.899628 810.434143
-1430.494507 -248.616287 759.112061
-937.719116 -231.891418 630.061523
-899.434326 -300.961426 539.249573
-995.306946 -116.433601 470.439331
-889.684448 -304.939056 486.450317
-962.145813 -198.473099 662.151550
-850.212769 -360.382233 554.495300
-1300.994263 -434.661072 516.711182
-1335.078735 -457.419312 696.046143
-1454.437866 -190.694321 509.790985
-990.341492 -82.565788 514.851807
-999.198120 -52.850613 497.984985
-778.376404 -237.957291 868.917786
-1457.397583 -270.373871 706.239441
-1498.510620 -143.238861 524.338562
-889.448669 89.767494 481.472839
-1429.999268 -279.035126 412.720825
-1283.232422 -589.423889 506.034943
-960.467712 -205.449585 709.275330
-1282.247192 -321.533722 650.698242
-1404.179443 -327.384552 561.626404
-1477.394165 -236.587082 774.156189
-734.148071 -37.726715 865.067932
-1233.475342 -608.319275 645.576904
-1292.638794 -570.184692 541.868347
-959.849731 -247.133743 776.369202
-1272.344727 -593.690674 443.103607
-1261.068481 -606.314148 651.739807
-1479.760620 -165.730469 545.479248
-720.687256 89.118507 854.167236
-1378.095703 -234.700287 576.509338
-981.245361 -103.323929 502.833893
-893.535034 29.948952 782.055786
-612.975037 -114.398872 916.965637
-1326.983887 -465.348114 342.973145
-1306.792236 -532.171814 601.459595
-1299.582642 -519.115601 589.859192
-1439.785767 -253.155792 553.232483
-845.505920 3.398894 804.193909
-866.418518 31.999228 796.820374
-735.734131 87.042358 823.757141
-1021.819397 -92.428024 664.919556
-1286.556030 -588.507263 586.251343
-1307.536499 -508.131531 672.217041
-933.921326 -218.964844 437.531830
-1399.789917 -353.676910 468.304199
-1317.550781 -516.734375 530.150574
-804.150024 -174.663498 851.397095
-640.749512 -118.984016 911.019409
-1391.590332 -341.319702 555.000183
-1342.683838 -419.160614 398.999573
-1029.131592 -98.700531 400.705780
-1243.142212 -681.548767 592.516663
-1283.095703 -549.587769 477.219666
-764.425964 -76.879555 849.636719
-797.211792 22.865353 810.769653
-1430.696045 -241.572937 923.401184
-1312.261475 -526.307983 340.381958
-1436.734497 -283.154083 476.300079
-1018.473389 -78.395088 647.512634
-907.175415 -364.689209 444.852448
-794.857971 -49.205776 833.763794
-1328.734497 -426.059875 363.829163
-1447.639038 -299.385193 687.179382
-879.594666 -390.916199 455.077698
-1448.531738 -199.147354 623.229858
-1003.610840 -111.295235 684.980652
-1337.845459 -505.329895 456.124390
-940.623169 -179.314789 445.722534
-1027.206177 -29.833643 529.652649
-1410.821411 -299.433411 506.177979
-876.790527 -63.038155 818.078186
-997.544189 -111.750000 416.533264
-817.134277 28.313225 805.814148
-700.355469 -32.444408 858.591858
-655.042236 -28.577551 886.323242
-830.809692 5.335733 798.866699
-1323.685669 -503.714508 465.210052
-1446.780884 -270.531189 524.001282
-936.808594 -204.635071 483.604401
-887.464539 -306.129120 449.804291
-911.678711 64.915520 771.471313
-1427.361816 -290.356537 577.781311
-1497.593994 -152.438873 523.591248
-964.826782 -193.200317 725.542236
-961.703979 -247.235550 788.148987
-1466.939819 -226.498260 495.671143
-1454.775513 -237.716263 934.412842
-1341.186401 -467.199188 439.769501
-1021.015625 -88.576439 446.046417
-1390.499390 -370.061768 441.822327
-1496.255615 -166.062912 575.463867
-831.390076 -143.678909 846.675903
-1347.863525 -463.353180 628.475952
-920.255249 -288.542206 731.949585
-1411.423218 -311.398193 377.685577
-989.797180 -125.663231 513.631348
-904.747559 -349.238647 435.125427
-1423.586548 -284.508972 489.204346
-994.520569 -146.619629 540.697510
-717.021484 -33.201420 852.113098
-1321.862671 -505.978821 630.140503
-862.845154 -369.962891 516.823425
-1379.474854 -399.959198 486.383087
-1005.282532 -101.811455 388.409546
-708.304810 58.606457 843.367126
-679.170654 -126.214821 886.388550
-892.335083 -324.754272 458.759979
-1416.949585 -267.925018 556.151306
-1317.569092 -472.011902 413.700043
-1317.433960 -545.684814 740.819519
-1400.565918 -291.050812 337.413391
-1276.257446 -594.414368 504.031769
-975.748108 -210.029999 726.054749
-741.072998 72.473381 842.481506
-1350.029785 -427.843536 471.950623
-914.818176 -256.954529 534.294312
-1411.872559 -327.427002 525.735535
-1483.305786 -197.306213 456.658356
-987.094299 -202.482483 705.299316
-1000.991638 -76.594421 430.701355
-954.915283 -203.562134 539.754883
-801.795227 63.953773 808.344482
-867.519897 -23.633623 801.636475
-937.186768 -258.834961 395.186218
-1257.709839 -413.549744 513.958923
-682.092224 42.008240 918.970093
-752.047485 66.479271 825.913147
-997.687012 -126.995056 589.097290
-938.378906 -268.188507 729.877258
-867.714722 -3.029984 801.411133
-1015.559509 -58.515709 457.592896
-1277.151855 -594.601135 516.705078
-979.001526 -119.057411 491.808380
-1438.319336 -233.984558 455.873779
-866.855408 53.966305 784.127380
-1440.968750 -288.583954 708.335327
-880.917358 -61.464985 794.831665
-903.995300 -22.761044 776.022156
-1302.748291 -546.255920 494.996185
-994.539307 -92.090538 516.790771
-1390.471313 -366.768677 647.702759
-910.860352 -281.567322 582.721985
-910.268494 10.003643 777.179138
-991.072937 -142.221008 399.189087
-1311.384155 -438.387115 426.381866
-641.517334 -146.844193 907.582947
-1181.196167 -566.167175 595.636658
-1004.340332 -93.559334 580.596863
-1453.032959 -209.800995 544.988708
-937.158997 -216.541656 511.896851
-1417.021484 -334.378265 433.572174
-819.950317 46.097328 807.072510
-771.954834 -221.271027 866.460388
-872.582336 -364.886871 499.847443
-784.620178 -167.064331 853.967712
-980.252869 -201.980560 646.286621
-873.548584 43.365124 784.853394
-1409.409302 -339.542847 373.831543
-1360.606567 -320.085419 608.075500
-954.395020 -155.534943 566.878174
-732.596863 -82.304939 883.946228
-762.183655 22.282970 829.664856
-936.316650 -280.047424 784.931580
-1293.174072 -540.111755 342.544830
-1460.246094 -200.567917 486.973053
-953.950928 -239.213303 668.112183
-1295.091675 -512.218750 855.056702
-855.522949 -396.159607 522.625305
-1304.148071 -552.510193 549.749268
-1433.622803 -304.194733 512.893433
-1042.935791 -35.662003 647.650757
-658.668701 -138.884232 917.375244
-951.442383 -241.185196 616.649170
-1429.320313 -274.197174 541.444641
-799.383484 -213.813141 858.420532
-1434.202759 -134.794098 502.251801
-1381.297363 -214.982712 566.046143
-915.229004 29.690947 781.114624
-1301.474121 -495.042358 691.155029
-1327.389771 -507.929016 710.296570
-981.757813 -131.171875 446.225006
-1345.821533 -422.462311 292.751434
-677.265625 26.683052 862.584290
-1430.842529 -247.656784 407.806976
-1492.582520 -150.247406 520.762390
-1438.574707 -225.291626 572.187073
-1365.981689 -389.269928 300.090363
-735.767578 33.813972 842.813904
-1413.310181 -297.173615 340.377777
-680.523193 51.108692 873.308167
-856.935181 -22.555723 806.543884
-677.477295 -155.614502 892.167786
-828.570740 47.173359 802.653992
-982.141968 -99.019035 478.883209
-1326.748657 -494.065247 433.680267
-807.376038 -50.116680 820.167297
-1471.255127 -190.813583 434.846039
-1430.171509 -209.193024 553.998352
-770.555847 37.661499 829.161926
-952.046387 -246.170731 392.944000
-868.584595 -369.474976 500.016510
-1267.185913 -345.075897 590.039185
-968.238647 -142.716766 464.373688
-769.900024 -229.392593 866.145813
-1020.306213 -70.129234 671.678223
-938.217529 -194.937592 427.064941
-1357.381714 -550.790283 835.848816
-859.890198 -378.168365 492.335052
-1393.000854 -365.023071 363.037903
-1391.308472 -343.742920 330.932159
-954.003906 -170.490784 603.550598
-1244.116699 -661.896240 545.590759
-1423.720947 -320.085876 376.493591
-1284.601563 -581.404724 624.863953
-1427.784424 -276.873322 386.183167
-1439.266724 -234.394318 426.186249
-889.407410 -277.158936 516.448669
-813.963867 76.293335 794.524414
-890.589172 -36.596634 788.282898
-1321.926636 -501.893524 490.027771
-928.506470 -63.468502 805.044006
-984.768372 -111.903236 648.110107
-851.815918 70.291435 782.079468
-1437.511230 -269.714508 515.987610
-1368.226196 -384.724579 328.113251
-1338.906372 -477.534729 606.191101
-981.933167 -187.011856 401.909668
-845.034912 -127.276321 824.790344
-1259.112305 -579.393860 384.905853
-1478.498169 -238.439545 772.111816
-668.107544 43.474365 867.891907
-854.247559 70.684853 783.465271
-1008.417053 -180.668793 363.728119
-1344.542480 -423.995514 321.247925
-835.440796 77.463150 788.982117
-1435.120850 -261.736267 392.301270
-749.133301 122.308083 828.631470
-998.113342 -84.931587 464.786316
-661.436157 -57.686562 884.933228
-1386.195313 -359.520905 364.925171
-954.584900 -169.230011 498.571106
-1253.649292 -407.713318 446.027893
-1334.914551 -421.342590 326.219177
-1385.369629 -383.288025 533.650940
-907.505615 -269.257782 516.269653
-728.035522 -79.364189 867.195618
-1431.551514 -233.902756 579.494507
-1017.150452 -146.143570 746.279175
-1429.812988 -288.193420 380.381042
-1324.211792 -531.007019 607.053284
-1407.088745 -144.111740 511.881409
-1354.046509 -441.752930 399.942505
-703.169556 22.447226 865.572815
-913.385437 74.284050 555.916504
-1427.736572 -303.558533 582.364990
-881.868042 94.292336 514.638550
-1294.489868 -382.059479 599.769287
-1315.971558 -453.435913 328.942963
-778.179504 -235.923889 880.775635
-1008.907898 -91.504814 513.505127
-1310.074707 -534.903748 524.065063
-1378.273193 -357.581360 389.554352
-1425.234375 -289.537415 769.385681
-1324.629639 -431.724945 449.218597
-948.760376 -248.293427 392.022827
-943.667358 -280.293854 750.823303
-1247.691284 -647.275635 576.579163
-1440.341309 -249.169937 657.733948
-911.060730 -335.348938 423.450745
-1007.929565 9.705428 502.112396
-669.520508 50.999676 866.619202
-693.380920 -27.180931 874.964722
-1319.716797 -492.847198 366.514679
-1263.570435 -614.174805 492.445221
-1386.924683 -399.994568 418.346558
-984.706177 -97.548714 517.208374
-1407.221558 -332.160370 419.673920
-950.993835 -168.396973 597.709778
-652.028809 -17.608330 890.868896
-1327.526733 -459.917694 710.437012
-1287.374146 -532.194702 676.411865
-1388.743408 -161.356323 506.452362
-924.323730 -212.284378 555.739319
-692.598572 -113.377861 893.734070
-819.553894 -178.474777 838.479248
-1379.812256 -384.963165 586.842224
-915.918884 -288.305450 436.938751
-1265.197021 -641.874573 561.637329
-1407.865601 -338.155640 499.093903
-1031.458496 -61.635956 674.326538
-1453.845825 -204.465256 511.154572
-1499.367676 -161.925110 443.155823
-730.980042 76.740257 831.186157
-1024.623901 -66.768936 703.960876
-917.751648 17.001665 782.678101
-941.472412 -205.798248 570.196472
-1440.098999 -172.768463 514.284851
-1334.022583 -452.652466 390.886932
-840.781738 -20.204756 813.830139
-1298.030518 -558.164124 498.653473
-1291.564941 -529.223206 321.035553
-939.458435 -261.666321 429.005554
-1028.520630 -60.262173 505.630035
-1381.010254 -367.457428 549.576416
-931.705200 -298.947693 617.261780
-1422.924438 -298.709717 589.522217
-744.935730 -172.435303 871.661377
-1517.077393 -112.251297 501.068909
-1484.250610 -125.640625 537.890259
-956.192871 -179.664978 449.964050
-1031.987671 -103.391769 765.776123
-1343.545776 -422.385193 436.957733
-1293.385620 -396.582428 369.625305
-1312.807861 -528.286987 598.569824
-1300.683472 -538.927002 450.603180
-1312.093262 -488.738251 325.015045
-705.179626 107.969948 843.396362
-830.628418 -68.378410 828.895447
-1340.815674 -431.392395 320.145447
-1448.120239 -277.971558 446.184052
-1408.913330 -332.264404 449.762451
-787.458923 9.419557 822.548157
-949.197754 -280.726044 409.533905
-698.968811 -81.979218 886.959900
-1358.465698 -367.887268 413.113159
-935.103271 -211.420380 504.985901
-736.632202 -117.668015 877.048706
-791.359131 127.628021 807.577759
-993.338867 -81.830223 473.240723
-918.029663 -252.099609 562.512634
-876.499878 -337.394470 731.883423
-822.696045 116.945183 783.742371
-1295.996826 -502.137177 287.170898
-660.470642 18.599119 874.486206
-1298.789917 -534.078918 402.854126
-1497.329468 -142.876434 597.485657
-672.670166 -17.707594 903.716003
-968.773376 -168.837265 440.512695
-1002.459839 -137.459915 670.788513
-1398.360229 -304.464752 344.319336
-1442.324951 -282.434265 537.553406
-1365.457520 -407.304474 392.288208
-993.036682 -96.089638 453.602600
-848.414917 -174.637207 829.420471
-1435.033569 -210.047867 734.319092
-846.772644 -63.309807 822.960022
-947.079041 -194.927017 502.740509
-768.679565 32.465229 829.460144
-1420.622681 -314.529907 581.005798
-1488.372681 -169.035767 474.637787
-1491.050415 -128.898895 582.533447
-1031.249268 -31.734594 526.692749
-864.853943 -119.134018 813.230225
-1278.790649 -577.510071 448.475464
-1274.569824 -549.916321 390.327057
-954.331604 -206.554626 606.389465
-1365.777344 -401.720581 303.695831
-1344.983398 -433.729889 272.230682
-1396.348022 -373.821716 343.750427
-918.651245 -260.245331 533.065002
-1423.652344 -291.133514 541.113831
-1330.003418 -467.388245 421.897339
-1031.073853 -41.968143 604.875427
-1475.804199 -176.582458 505.240845
-977.470337 26.063622 506.161224
-1340.325806 -415.819611 410.304504
-1292.172607 -591.238403 753.986084
-956.885742 -27.915281 776.464233
-653.695984 -50.912098 884.079163
-945.862915 -270.326019 704.428772
-1406.623779 -349.192688 329.178223
-1296.432007 -502.791870 362.899231
-1036.100586 -50.246754 557.656433
-1031.974243 -30.284107 516.183350
-1387.926270 -383.698425 307.377502
-1512.696167 -121.587357 554.085632
-1446.505005 -241.907166 685.109497
-755.663147 -106.582405 859.898315
-1012.824524 -82.695274 462.107422
-945.768921 -252.287354 564.624268
-924.996338 -212.828690 532.055908
-1395.411011 -314.963104 375.653809
-1324.364990 -489.521820 424.077393
-973.152161 -144.063965 431.906525
-1283.863525 -427.973846 456.011719
-1445.153442 -278.577698 418.284302
-1268.107056 -576.567688 500.653107
-984.489319 -197.733841 758.656006
-1000.871460 -132.788803 698.310486
-1431.666870 -291.746796 561.840088
-819.453247 -111.507301 843.009155
-1455.705811 -245.524368 393.637451
-915.153503 -248.153503 471.988373
-931.948181 42.758675 758.265686
-1298.859375 -564.002502 547.548584
-1024.234009 -72.310684 480.037933
-1291.184937 -434.305756 441.068298
-1014.916687 -81.017990 620.457458
-895.897461 -326.427979 670.507629
-771.741699 4.097178 826.057800
-899.139099 -259.994110 538.813904
-1033.929199 3.518001 623.156677
-1187.118286 -653.330750 635.006836
-1302.601807 -533.602661 609.865173
-1336.452148 -526.155090 798.415710
-649.539368 -25.601824 893.317383
-1401.178833 -225.660080 573.772278
-1439.170288 -280.393158 997.646179
-1485.001099 -178.987656 479.949829
-929.191101 -273.032532 540.732056
-1426.960938 -289.788239 772.836060
-895.495789 -80.425980 810.393372
-1030.581421 -14.009127 527.383057
-768.546936 87.135223 816.674500
-1390.086060 -349.166016 309.504059
-1419.367432 -306.588257 334.668121
-1504.057129 -127.090622 501.014862
-835.941223 -201.234940 850.455566
-1404.513794 -362.022125 558.848816
-1325.533081 -441.273041 341.164825
-1470.751343 -171.778397 472.716919
-943.789612 -220.620682 409.514618
-867.913147 -371.039337 471.929626
-1481.354004 -159.064850 492.981476
-1019.107910 -105.611336 583.599976
-1383.937256 -325.082153 329.674652
-801.234924 75.192253 797.717712
-927.070007 -258.638397 429.047119
-864.072937 -58.911770 802.563538
-1402.267212 -338.268982 320.031403
-951.614014 -195.836029 471.977631
-1339.450073 -439.828827 492.704865
-1483.458374 -207.328110 794.208984
-761.043640 71.384735 812.399048
-903.112854 -298.996674 445.621765
-1364.225220 -401.702179 532.300354
-921.892456 -272.895691 630.964844
-964.868286 -210.346512 785.379333
-1356.593628 -254.315109 883.259949
-1005.842712 -115.684311 569.139160
-963.073181 -220.572830 366.377930
-1439.051392 -282.633148 386.529572
-1355.031128 -388.531860 353.946503
-1427.196777 -306.740265 395.115845
-1336.583862 -353.261078 644.932129
-1440.173462 -268.081116 780.264893
-779.366821 68.530014 809.103882
-852.535950 -152.265564 823.476746
-871.915710 -374.491974 481.915741
-1315.261963 -556.496277 613.047363
-824.851990 84.234413 782.772705
-1017.476257 -94.342041 622.131897
-1214.484009 -565.003174 591.505005
-888.385986 -332.940521 644.525146
-1410.458130 -333.197937 680.577515
-875.689819 -339.953064 599.827026
-765.495422 -48.556156 852.339172
-990.344177 -86.884399 469.988708
-1403.986084 -314.879333 328.023590
-1394.404541 -368.661530 610.750427
-1259.356445 -459.946899 607.388733
-1408.681885 -286.476990 337.151917
-1048.215942 -119.231804 815.451050
-751.312622 -12.702477 843.271118
-758.695801 -166.164108 877.320557
-1429.050049 -322.998871 541.656616
-810.047974 -133.602692 849.476868
-1479.153442 -199.621811 906.418640
-1280.734009 -546.395996 422.197021
-976.549438 -149.831924 419.120178
-879.145630 -373.043854 455.463928
-906.899048 -55.742039 800.826599
-744.167664 98.707268 822.018860
-1411.317627 -298.862732 537.406067
-1518.762817 -157.416901 963.403870
-1339.748901 -414.515961 464.722656
-1260.143311 -649.414490 576.770691
-1457.306519 -253.025879 444.962524
-866.109131 -371.209045 600.071655
-757.114380 -4.252028 838.542480
-1385.306885 -377.165192 385.800415
-986.404053 -145.834442 708.081787
-933.091797 -239.448090 773.472900
-1478.063599 -183.729797 425.867981
-745.690796 -58.335140 863.950562
-949.299011 48.738071 539.976563
-1281.774536 -585.509827 534.194458
-948.847412 -202.129349 429.116882
-1432.252930 -276.219818 563.227905
-702.201721 -392.264099 662.268250
-1429.300049 -327.030609 595.147156
-1445.752197 -253.624725 541.232544
-794.060852 -57.926491 836.946533
-994.648926 -131.274658 779.803772
-1322.345825 -499.988647 307.979187
-726.369995 -117.078262 897.137817
-671.882202 30.034313 882.194946
-748.638916 -43.297527 856.285461
-644.948975 -102.108658 901.972168
-1000.997742 -126.451851 381.585785
-776.346497 13.964984 822.263428
-1508.986084 -144.920288 585.607483
-677.549133 -10.916101 885.303955
-766.204285 42.653843 817.964661
-979.787231 -178.415543 763.946045
-1323.705078 -462.565002 455.044769
-780.537109 -101.853470 840.157288
-923.175659 -254.091583 461.254608
-785.570984 -80.828209 854.886902
-1232.164063 -351.112366 637.307800
-1272.556641 -604.077087 455.923523
-1006.600647 -163.781021 719.135925
-1304.043091 -546.620667 601.166382
-926.643738 -278.816925 755.289551
-778.625122 -107.345589 849.627808
-962.161804 -140.220993 497.900909
-1335.788208 -310.174042 595.396301
-751.381226 -123.864555 867.254211
-997.515625 -112.982986 451.028625
-1298.134155 -450.609039 346.220245
-859.907654 -340.804108 529.720520
-930.813293 -289.389374 418.588898
-1008.177856 -148.207428 671.828674
-1343.302124 -425.625000 790.854858
-1357.560303 -424.920685 383.784973
-974.043823 -147.772797 583.278320
-929.051697 -239.049561 482.737518
-1035.850952 -43.663456 535.557983
-1280.679565 -376.792053 707.600952
-1450.003662 -239.478027 545.263611
-662.689331 -88.062805 907.965149
-767.085815 -77.105209 842.290222
-1497.866333 -137.321457 604.433960
-1262.710938 -663.912659 577.827087
-944.237671 -235.601898 573.704956
-1335.512451 -459.997498 435.219025
-1020.288940 -68.065834 456.490448
-1478.011597 -196.282455 831.819763
-1378.136597 -380.569275 464.486572
-821.324402 -57.932587 817.158752
-1424.840454 -313.973083 442.142365
-885.638733 -334.027222 553.997131
-871.929260 91.061897 495.704926
-986.085449 -153.519867 384.593689
-968.089172 -146.156754 439.470093
-1318.363403 -508.913849 346.625824
-1319.057861 -521.895142 395.555420
-900.735352 -347.635559 587.387207
-991.318970 -170.346100 394.092560
-874.018921 -309.662872 510.711548
-955.924683 -216.077988 697.552612
-965.265137 -213.559952 620.107971
-941.320923 -249.476471 709.347473
-865.535278 -385.978485 624.273315
-956.571838 -173.995773 394.064087
-971.028198 -158.730164 607.047852
-952.272034 -160.393753 543.673096
-1292.838257 -422.871033 366.437256
-918.452698 -301.480713 403.701904
-1310.392334 -409.093018 491.419922
-1417.702148 -268.295074 407.570099
-947.277161 -216.497299 415.992065
-1492.935425 -153.000473 602.207336
-1379.448853 -373.768646 296.879517
-995.324707 -164.879517 385.632935
-1026.817017 -74.580910 703.214355
-897.210449 -362.882019 439.754608
-1309.512817 -474.954590 294.200806
-888.064026 111.735458 565.689148
-1444.483276 -218.140976 433.960846
-873.044556 -52.277901 807.729492
-1257.441406 -488.563751 650.993164
-1409.925537 -311.651398 609.970093
-1308.944702 -475.120331 293.663910
-1365.394287 -373.928406 319.475525
-726.293030 -69.892349 876.026733
-678.891663 -364.818909 654.946411
-1288.927490 -527.437378 381.560638
-953.682312 -194.981232 632.185486
-997.979370 -99.186325 507.815674
-971.587158 -178.506424 599.295593
-1383.062988 -387.460846 356.750458
-1467.466309 -233.783112 470.865173
-903.348022 21.785738 779.368530
-817.491821 -85.234253 841.215271
-1326.297607 -440.165527 349.879456
-1423.835327 -235.587219 554.264038
-1340.609009 -430.093903 334.241760
-1369.498291 -392.085785 548.584351
-763.702026 -234.891449 867.705078
-895.168823 -287.513580 538.749695
-952.210999 -255.054520 411.431396
-1433.545044 -302.128601 525.078674
-934.991394 -222.198380 405.780640
-1303.016846 -491.155121 322.880219
-1285.867920 -529.594788 348.977936
-1347.133179 -460.105499 513.916992
-984.227722 -145.086838 542.666809
-982.726440 -141.337631 725.185486
-1495.754028 -156.216034 486.462830
-737.658630 -91.313965 854.820862
-1295.714355 -574.180420 433.228455
-1490.083984 -175.623398 477.806213
-1015.307678 -73.332016 480.330597
-986.766174 -196.958649 679.632751
-922.338135 -4.415471 777.548706
-960.433289 -185.143875 455.675781
-1011.752991 -110.060867 702.013733
-1311.619507 -520.573242 479.184174
-812.214844 -174.569122 842.377625
-782.095520 -65.238541 842.118225
-705.091858 18.098106 849.538513
-1282.689697 -559.495605 512.372437
-1289.475342 -586.096558 546.059143
-1466.936157 -193.423508 480.380188
-1306.667358 -525.269775 440.759247
-985.017761 -123.827011 698.159668
-1378.037964 -273.641937 559.891602
-873.726013 -370.566132 639.765625
-1247.151855 -644.465881 518.188110
-1309.449097 -514.205078 336.987305
-731.630676 -219.535477 888.112244
-978.762634 -185.765442 623.164124
-922.596558 -257.964783 450.312500
-1399.565186 -352.485504 317.113068
-944.635742 -216.629745 624.703674
-687.047729 47.721100 854.900085
-1219.194580 -365.414886 483.727631
-974.456238 -141.193588 525.070068
-908.997253 -268.300629 648.724670
-857.965637 -344.106842 551.152893
-1297.718262 -562.483826 520.882263
-857.217957 -348.250092 515.246704
-664.575989 -140.301117 911.274170
-680.096008 -27.043631 869.948425
-997.764526 -82.991455 604.676270
-1023.979614 -75.592690 441.141266
-1397.144287 -363.683350 470.122833
-752.299988 -196.105850 869.679871
-1425.458862 -322.840851 721.161743
-1355.082153 -418.694611 435.119354
-1438.086304 -299.354736 511.293243
-931.007874 -214.732681 623.218140
-991.142639 -127.850075 426.109161
-851.830017 -399.567780 543.521912
-1035.940674 -33.337666 549.244324
-1355.247681 -478.162140 787.001831
-877.612244 -348.103058 544.763855
-903.675293 64.739876 766.595459
-1301.697998 -504.476074 458.982208
-1411.668213 -220.735703 546.963806
-1421.871948 -310.660309 564.774170
-987.330688 -124.914841 407.368073
-1515.803223 -107.885544 504.490906
-1364.288452 -307.194305 646.456482
-1254.731689 -591.929565 421.885895
-759.563599 -60.555786 857.266785
-999.498474 -86.722603 512.085144
-1325.709473 -524.838501 373.608490
-855.533936 -425.863068 503.311279
-1458.889526 -244.862732 572.701355
-1240.427856 -672.853088 576.231445
-1317.529175 -484.583649 365.488342
-927.526062 55.430920 545.400085
-983.057861 -124.402275 435.416687
-1295.972290 -532.565063 563.451416
-670.527039 -53.821274 878.849487
-1425.978027 -174.473984 540.316345
-752.595764 -65.611328 864.904358
-1004.961731 -102.007195 533.629578
-883.176331 -362.261780 712.636230
-848.436218 -141.179382 843.461914
-882.614380 -333.583344 566.478943
-1359.908081 -377.595825 299.805634
-1308.828003 -518.965759 451.213623
-803.186279 48.604080 805.275208
-1399.849609 -305.051392 372.066254
-950.985962 -281.228943 401.261505
-853.754395 -140.631302 842.044922
-1319.279785 -401.610413 618.973877
-1327.221191 -428.055939 265.899200
-1006.711426 -145.910095 374.070679
-794.302551 102.942558 810.562195
-989.002747 -135.809906 759.052246
-1248.247070 -404.883850 526.971375
-1020.715820 1.337511 606.506592
-1335.533813 -422.305450 398.455719
-1280.142822 -394.465698 422.200226
-1328.312500 -431.089050 396.555634
-846.373474 -129.341614 841.940857
-1400.355591 -329.102966 612.295898
-1366.835327 -290.379120 689.770996
-1403.089844 -338.246826 551.427063
-642.468811 23.118483 894.152954
-990.420410 -163.420166 387.783142
-826.972046 -132.948868 829.056091
-958.717834 -218.514603 732.237488
-1313.209229 -511.434265 424.486298
-687.305115 -1.725397 865.744202
-1326.886597 -499.998230 528.204773
-797.719482 -211.438690 858.936951
-1228.037354 -630.435669 548.499695
-960.716736 -233.080261 608.005737
-965.358887 -208.409210 758.428894
-1402.809448 -359.183319 430.177612
-766.956360 -172.214096 868.127014
-802.782227 -127.093628 859.418518
-705.867981 33.813610 876.627808
-1441.852417 -227.005966 646.620361
-1309.406128 -506.532135 574.613342
-1488.706909 -146.387024 609.112915
-867.665039 -332.901642 599.684814
-899.291016 -331.898468 677.993958
-1036.061523 -65.324371 727.394409
-762.339050 66.663559 824.399658
-1467.626221 -212.518753 446.065582
-1330.349243 -494.251923 543.273621
-1266.027588 -378.517517 411.124664
-926.249207 -300.240784 777.532227
-738.795593 -64.179764 853.700439
-687.675720 -62.809555 889.884155
-928.918152 -203.498337 515.986755
-1314.351074 -490.266418 474.056396
-1480.363159 -231.000992 722.676758
-909.950378 -311.509583 435.960083
-919.263062 -38.633301 777.069275
-899.671814 -364.030579 432.494019
-1350.773682 -406.270294 323.782562
-1314.930298 -426.977386 382.516968
-888.647522 105.414581 497.997131
-1438.164795 -295.425690 452.923370
-628.260803 -115.789497 909.294678
-733.124512 -31.578812 856.668884
-1000.700439 -144.916046 592.341431
-654.593384 -82.059776 890.215698
-1406.314209 -340.988007 341.420990
-860.659180 -348.914001 485.507843
-1350.673950 -451.264008 297.152161
-1316.043823 -514.984314 623.413391
-777.182190 102.496567 803.268982
-1027.594238 -42.069111 637.822632
-1447.176270 -259.773987 480.829437
-980.716919 -151.183578 585.242859
-1269.528687 -601.488953 471.963684
-786.105408 -130.146408 868.011108
-1395.634033 -341.331818 333.537323
-948.607971 -21.459108 776.273560
-995.067200 -90.022850 476.664459
-1322.280762 -548.431458 462.450439
-983.140564 -171.024323 414.232605
-1336.899780 -532.406982 833.562439
-773.862061 -16.118769 841.162048
-1269.115601 -556.541321 638.445068
-933.379578 -332.645721 424.688049
-1408.149536 -344.395020 429.271484
-655.586060 -1.015170 883.246216
-977.527893 -163.352509 674.943115
-977.216370 -148.899261 767.872925
-678.709534 34.131371 878.485352
-874.604492 -376.756134 457.300018
-882.143738 80.132805 486.693390
-1377.492676 -385.055176 361.659485
-922.005798 -297.838654 415.955078
-749.656616 17.807720 827.987793
-1419.697388 -266.702240 386.257294
-834.456238 -102.863869 821.576599
-1480.563599 -227.232437 946.145935
-1401.473633 -303.420227 382.721558
-846.979431 -88.680473 826.895142
-1330.985718 -457.033356 391.166290
-851.225525 16.481428 798.228577
-1374.205322 -386.031158 331.818359
-1270.618652 -609.920654 554.667419
-926.324585 7.843033 764.298889
-1408.806396 -183.397186 551.035461
-1263.543701 -593.473877 565.155212
-966.758606 -205.341110 761.178833
-1011.241638 -142.871872 675.947998
-633.492859 -82.656998 905.766113
-888.651184 -280.820831 538.531677
-1289.439453 -600.263489 714.908936
-1423.845703 -325.698822 620.149780
-853.354431 -396.222748 556.426636
-1343.772339 -468.571899 638.934509
-1311.736084 -440.666809 424.011536
-1033.922729 -24.882607 488.053375
-769.541870 -57.924816 839.220642
-876.565613 -342.620789 550.459900
-679.903687 -137.477997 888.548279
-917.594971 52.909466 752.544983
-871.223755 -366.719818 556.704651
-1430.679199 -243.148956 742.220825
-1345.910522 -454.576050 526.622009
-910.304016 -323.582489 647.264526
-1497.982422 -164.240158 450.373047
-885.290161 -28.645302 806.482666
-1419.861572 -316.515594 560.194641
-1422.196167 -345.992340 499.643066
-1509.073853 -130.034668 563.702393
-1381.372803 -378.303589 396.425598
-1456.956055 -267.699463 692.986877
-896.091187 38.959515 785.969360
-1442.331787 -223.023407 542.848083
-1239.453613 -590.033508 615.713989
-735.391418 68.540604 827.433960
-905.057678 -371.589172 657.960083
-1478.571533 -174.494919 492.434967
-1497.956909 -189.430679 833.351318
-1337.791016 -429.952240 313.081787
-667.868103 -63.162277 895.921692
-1396.842285 -311.067902 579.922791
-886.856079 -365.562500 719.901001
-1358.820313 -403.177887 296.775513
-810.446411 -29.275921 828.448059
-861.625305 -171.423386 840.511841
-883.393738 -38.850601 792.306580
-831.419250 13.941882 808.065979
-886.571594 -155.791229 843.023926
-945.916077 -229.469086 456.785980
-830.513367 -155.527359 856.526428
-1031.198364 -48.941113 494.874146
-1280.917114 -610.031067 490.185120
-996.066284 -98.908974 434.366577
-840.046265 -388.879974 508.167511
-766.967346 90.241890 825.176086
-1466.192993 -147.295731 519.789063
-879.112854 -330.235626 552.168030
-854.452087 -413.568420 495.292786
-1347.176636 -491.822052 499.042694
-822.199585 107.405952 803.808167
-1429.829468 -323.985504 501.194244
-744.260559 -123.317909 857.068909
-880.113037 71.867905 531.289734
-1323.377075 -444.630127 342.522339
-1291.793579 -545.048035 355.936554
-969.323608 -168.403595 441.234741
-1457.668091 -225.606949 421.864868
-1333.619629 -458.830414 284.402191
-970.238342 -162.468475 410.280396
-1006.701660 -95.431931 507.518433
-945.489075 -5.845168 768.233154
-1334.448730 -437.638275 492.644379
-991.062866 -83.730286 476.783081
-915.069641 13.200142 767.781250
-1025.991089 -102.165985 725.117371
-805.459839 24.465374 811.938232
-1282.794922 -553.139343 609.531677
-1421.738159 -194.819763 596.769470
-1351.335571 -484.222076 527.228333
-890.254639 -123.329201 823.350342
-976.060242 -156.401306 741.189575
-733.307007 117.050438 848.775513
-967.072327 -170.031006 644.204468
-895.473145 -354.047211 631.940125
-974.434082 -181.148209 415.314606
-1232.947998 -554.664246 595.780640
-1334.381470 -437.811493 352.088165
-1002.583008 -81.710907 452.288361
-1335.837891 -526.173706 467.418365
-932.825195 -255.641937 400.966095
-1375.987183 -378.103577 555.322937
-1228.957886 -651.526062 604.116638
-899.944397 28.867599 766.781189
-1333.009277 -428.317444 295.092621
-886.271423 -359.328278 556.500671
-925.649841 -220.543457 604.701660
-707.509155 42.356064 853.062744
-963.308899 53.110241 751.397156
-877.043457 -335.952057 451.720337
-934.896484 -7.611196 784.876587
-1299.426514 -487.399719 640.387329
-1213.513794 -606.337158 610.248840
-990.703735 -99.275742 502.926331
-996.275696 -150.831802 390.557068
-921.955078 2.148031 782.757263
-1392.600830 -373.804504 304.010590
-874.545349 -126.587730 830.722961
-1459.331909 -238.671814 509.698273
-955.456116 -171.728348 550.812805
-814.056091 -159.401108 845.377808
-1317.821045 -549.817322 573.802979
-891.993896 -75.763634 820.174011
-948.327759 -245.351425 675.640076
-1341.305298 -457.666565 582.979919
-933.186768 -226.012543 447.745605
-1341.699951 -414.667755 577.697754
-922.635498 -294.240448 417.348877
-1402.889404 -375.493317 483.364594
-1390.242188 -290.192108 636.835632
-1461.582275 -287.938660 791.144653
-1295.968018 -539.568054 377.904572
-702.335938 -4.895325 870.451477
-952.134521 9.994666 779.483887
-1401.639526 -382.841034 475.204620
-847.600952 -372.571228 504.911255
-717.198303 -72.946304 865.284973
-1273.526489 -575.676392 563.625916
-1343.777954 -435.748657 564.078247
-919.377808 -286.819275 676.118774
-1195.854370 -480.609680 590.032959
-1270.601440 -346.253571 542.754395
-1359.059814 -397.319946 327.766632
-688.381165 71.440109 857.030884
-1439.533447 -266.866058 499.660950
-848.898682 -110.615562 818.368469
-749.038330 -184.697784 871.673340
-1025.192383 -92.846214 439.342163
-1304.841309 -487.139282 412.359406
-944.207153 -18.801178 779.539185
-1507.201416 -102.560684 487.420715
-1504.563965 -112.061714 521.258057
-1408.193237 -303.678436 483.162354
-993.375366 -104.155945 437.665955
-1305.142456 -582.376831 756.612976
-1321.005859 -448.656769 272.754303
-1327.130859 -404.132080 627.639160
-1468.921997 -200.390228 410.853729
-1330.699829 -313.918549 608.583679
-1424.396729 -322.905060 527.330322
-1307.637939 -467.810516 614.422607
-963.330505 -164.382584 412.147003
-760.663025 45.667530 825.664490
-1310.519287 -520.784607 466.856689
-817.613403 -232.079742 854.692383
-1307.036987 -501.931793 575.350403
-984.397766 -135.098694 444.123138
-964.713745 -151.430084 606.608704
-1256.987183 -595.665100 489.293732
-1270.693848 -562.137573 427.517303
-1403.812012 -337.808197 378.217194
-1416.820435 -296.805756 362.205353
-1315.524536 -552.938904 560.550598
-1009.915161 -87.067177 417.713409
-852.923767 -378.576660 591.057678
-850.638672 -6.042930 806.725647
-975.628174 -147.788620 600.280518
-1475.901367 -163.651123 521.176514
-946.954773 -203.496811 414.323212
-1318.740479 -450.982574 314.475128
-1346.776367 -465.601105 576.762390
-1356.126221 -267.315704 596.550781
-890.503540 -389.481628 440.658600
-662.149719 -148.968674 898.146301
-1369.494507 -404.423767 472.550507
-886.165833 -357.899719 479.110992
-1016.075623 -92.429237 487.166077
-1269.067749 -569.363098 418.443115
-1275.371094 -421.346741 470.077972
-1393.600586 -320.108856 585.951111
-1292.228760 -524.720398 449.182709
-1409.773804 -310.745056 470.231567
-942.636841 -32.196159 776.916260
-783.074951 -138.519089 850.914490
-898.365845 -362.678802 417.800079
-1203.838135 -490.757477 575.621704
-971.456604 -142.773743 417.330200
-803.068054 76.055313 800.721741
-1357.545898 -420.717712 394.320526
-919.549866 100.654404 627.161194
-1338.245483 -474.221191 522.913208
-1367.606689 -378.642822 415.920898
-1274.184204 -590.962585 567.572449
-1242.744995 -676.491089 606.699890
-968.742920 -132.126923 446.311096
-871.109009 -121.269028 834.177429
-822.982422 -77.926926 821.199341
-1309.590820 -414.894318 555.409790
-782.101685 4.016964 831.652344
-1406.477051 -338.532837 457.047852
-1391.478760 -355.106415 391.067749
-1440.144531 -181.443604 601.937927
-660.809692 -12.058558 874.327820
-863.069214 -347.015961 573.369873
-1013.821838 -54.139565 594.897095
-1379.641602 -286.823822 589.120361
-1427.082031 -296.969635 459.150726
-905.153748 -54.904678 800.137695
-1285.787964 -551.197937 546.968018
-752.136719 -77.202766 864.294250
-894.650024 -106.313240 817.992615
-964.405151 -131.461823 523.205933
-912.758911 46.700470 501.086304
-750.419739 64.656807 822.998718
-1044.593750 -54.321720 692.240173
-985.908386 -110.770287 473.037720
-1301.529785 -534.369934 375.742584
-1233.890747 -616.727234 593.712280
-1014.323303 -94.066185 741.937195
-653.231628 -78.941063 893.052551
-751.115356 50.650784 829.390686
-921.776184 -269.235016 495.251709
-706.929810 -16.907816 852.677856
-1004.807007 -148.299911 718.826721
-1308.957153 -504.954529 319.537842
-1158.826294 -341.310455 491.451477
-726.670349 -61.047138 874.503906
-1375.484375 -339.655029 312.735504
-921.759155 -245.678757 458.538269
-1349.550415 -428.173065 286.046844
