ply
format ascii 1.0
element vertex 1379
property float x
property float y
property float z
end_header
-1481.228882 138.933990 414.859436
-1004.663086 -239.658707 494.098358
-703.507874 -112.755142 834.133728
-1440.010986 -313.617371 282.700134
-1405.137207 -328.091675 397.471375
-1458.676880 -135.613190 450.800446
-1011.559326 21.721695 334.380310
-1447.312256 -363.540192 368.767944
-1082.149902 -65.879120 660.845703
-818.991577 106.498466 773.714966
-1520.616821 226.359024 402.915222
-863.546387 109.093857 764.540405
-1005.446716 -133.592499 377.999817
-998.051758 -24.305786 345.941467
-1524.254272 216.033035 406.876099
-1436.174805 -167.890503 501.823242
-1435.095093 -31.781216 147.632614
-1461.845825 2.603442 200.770828
-1488.875610 -209.755783 394.849548
-1025.689941 69.268623 333.460175
-794.627502 52.683041 793.579468
-1487.297363 -335.614014 504.587799
-991.628540 -194.609497 350.984131
-753.634155 47.328556 822.750183
-1462.020996 -122.996140 450.777557
-1008.181885 46.082966 349.689667
-765.515198 -9.498505 799.500305
-918.791321 62.333012 740.016418
-870.527893 -63.545044 764.070801
-940.934631 18.983173 744.878174
-1513.107544 -267.095337 579.323364
-1041.476196 63.575104 516.365479
-1005.777588 8.798810 287.444977
-756.003174 -103.308350 810.420471
-1005.748169 -55.390938 270.023438
-1481.512329 98.169708 440.270416
-1383.548462 -35.664337 470.886658
-1007.879700 -47.658466 459.531311
-1026.238892 -49.246449 499.357239
-1460.171143 -104.759308 177.902557
-1433.764038 -323.505890 384.046082
-1028.057129 36.027981 456.039124
-1063.498657 -151.085968 666.909790
-1507.855713 132.730316 336.152191
-979.872070 112.727325 705.704346
-1008.170776 -55.879032 461.466797
-1471.016479 -261.938232 354.016754
-1503.901367 120.957397 355.070953
-1024.846558 93.481255 402.627594
-1004.233459 -181.645401 314.909393
-1454.609497 -312.538727 360.594238
-806.691040 -116.837433 784.379700
-813.588318 7.889424 786.447815
-908.997253 -202.595413 740.759644
-1023.576172 76.298683 407.432159
-1494.889648 19.713125 459.509918
-789.933472 86.626511 786.184021
-1054.583618 23.496365 588.805115
-1457.986450 -10.796853 165.591202
-1504.980835 -14.142111 429.505646
-803.784912 -178.403046 787.699036
-1566.888184 36.166973 732.457458
-1023.846375 -22.131790 472.565247
-1491.118774 -192.889771 400.637329
-1460.065918 -38.116779 246.911911
-1451.271851 -27.552420 437.327393
-1514.189209 131.647156 358.900330
-1024.674683 -45.061283 298.405212
-1488.119629 -187.054382 435.834198
-795.950867 96.781914 782.868591
-1488.092651 -19.212944 264.515839
-1427.516602 -80.541451 180.125870
-1452.763916 -202.400360 373.925781
-1468.779785 -191.664352 441.795990
-1026.759521 104.963371 402.951172
-1504.900757 94.421349 502.224091
-988.668945 -238.319153 387.645203
-790.581909 -26.447409 805.610229
-927.888733 -160.661926 741.225403
-1431.140259 -39.595074 169.970795
-981.991821 -100.712585 739.943848
-888.234802 -17.437195 763.965027
-1506.548950 131.960709 325.451691
-879.696045 -17.719070 760.251587
-1419.146606 -333.038574 345.984283
-765.450623 -7.176001 805.241394
-960.958130 26.334452 728.839966
-1454.666016 -202.758286 283.770630
-1470.351929 -171.150436 289.096985
-863.946533 -98.741676 769.865845
-996.988586 -36.260517 339.016510
-804.930176 17.414930 795.086182
-1460.057373 -249.335022 392.267822
-758.876770 51.360825 828.400208
-994.122498 -85.934525 399.369202
-1037.562988 83.394814 489.826508
-1490.239746 95.402740 240.121964
-1012.932678 -155.593719 458.524139
-995.767273 -236.466858 396.846863
-1037.327637 -157.736221 470.761932
-1437.168701 51.553230 442.943939
-829.762085 -155.444443 786.888977
-1440.649658 -306.759399 299.331757
-1507.343872 197.518158 398.134186
-1053.613281 -200.299469 618.774597
-1429.530396 -40.580326 153.764633
-821.911255 33.313881 780.086365
-821.137756 -169.016693 770.438171
-1544.077026 -303.851807 606.628784
-1449.027222 26.256542 202.834381
-919.075989 61.915886 740.543640
-1502.881226 211.265839 388.434631
-809.063538 -168.325745 792.435608
-1345.584473 -64.104820 276.434296
-816.058411 -121.619820 786.201721
-1439.074585 -175.554581 188.136719
-935.400940 113.842896 746.559387
-1539.781372 -7.598134 772.368469
-1040.590454 -16.610096 542.827759
-1448.568726 -84.082504 208.466629
-835.401855 -138.643982 776.445618
-1505.674194 96.909157 334.225861
-901.412109 -185.748489 749.948730
-1471.922974 -212.276550 287.120392
-1001.572937 -145.206680 361.362610
-1426.140381 -169.518616 214.208908
-1504.755249 -309.375244 581.585205
-995.629944 -222.336029 395.128510
-1461.787231 -94.336212 285.671082
-1045.194336 124.432365 359.173309
-1597.822998 27.048918 780.405823
-1504.494751 2.694570 343.365143
-1037.701904 32.892731 508.829071
-1366.220947 -87.866951 259.353729
-1492.440063 95.048187 284.381592
-1507.810791 70.639992 325.761658
-1563.183472 87.346268 739.938354
-814.966797 -209.241806 779.247559
-987.104309 -212.640732 356.222656
-1468.772583 22.623146 510.350250
-972.317566 -25.728985 742.462036
-1427.915283 -9.975700 139.577805
-737.794373 -17.011473 812.781494
-1515.380737 120.219917 361.118439
-1500.920410 147.386887 352.958527
-1475.996582 -221.542038 308.781952
-1519.757935 -303.663574 566.309570
-899.474304 61.148434 747.741882
-1504.334473 26.717005 437.908234
-1021.948730 101.817940 329.962006
-1053.716553 -172.872360 531.745422
-946.729797 37.883045 737.379395
-1390.639771 -394.295013 387.269104
-1021.982605 -61.743950 422.745270
-872.073853 -35.716488 763.082703
-1055.944092 -129.965912 646.189087
-980.684448 -236.854736 323.259369
-1067.014526 -19.931181 616.165161
-1072.406250 -17.822672 635.798828
-797.274231 60.443634 782.438904
-976.154541 -138.892807 710.884460
-1479.173584 -30.290329 266.745636
-1541.221313 21.271223 532.004395
-891.827881 119.034264 747.674377
-1436.908081 -357.560822 438.923798
-1477.182251 -133.396515 404.201660
-1500.892822 104.477776 349.920837
-941.616577 -76.619026 732.500427
-938.126953 96.823624 740.172974
-708.043457 -145.675766 838.515198
-1510.951538 176.232468 401.554962
-1501.219482 80.066231 367.547760
-1443.719360 -97.207870 154.416946
-1014.871643 63.509914 380.216919
-784.985229 117.608093 806.493103
-1428.405762 -92.371643 203.542587
-785.255981 -114.176125 801.874329
-1482.528442 19.046738 294.057434
-840.884216 -108.702988 782.210571
-1428.278198 -110.649773 191.394012
-1339.004150 -88.963943 456.346161
-1426.070557 -166.733536 519.152832
-1011.386902 -31.740162 743.127502
-1382.613159 -97.033318 444.718445
-1442.794067 -231.289795 460.430145
-1500.189941 71.131004 358.144135
-1454.820190 -229.412231 307.395477
-1492.714722 97.390800 390.750519
-1501.630981 110.237328 358.282562
-1433.690918 -226.350433 258.719940
-1007.578064 15.149081 385.364319
-1466.276123 8.470641 296.458282
-1070.297485 -196.767273 676.512512
-1488.945923 182.877121 326.375305
-1043.442017 140.988525 463.835541
-1045.186768 99.547180 461.858765
-1509.750610 1.158098 372.412201
-1442.607300 -37.522511 121.639732
-1458.741211 -221.685364 309.758087
-845.496033 -161.860153 775.941833
-1073.231812 -209.190643 627.368042
-735.427429 -75.204979 820.363098
-720.260925 -131.098267 840.468628
-1041.472046 162.903564 456.581696
-1002.557617 -101.043167 308.216278
-1438.280273 -323.644531 350.746887
-1406.256104 -184.890274 441.638489
-1519.234619 108.138840 510.410828
-1438.548584 -257.521790 239.927795
-927.088562 -86.329559 750.591736
-1479.523315 141.660843 292.482544
-772.189819 72.577553 794.328003
-1466.488403 -66.273781 322.404175
-787.781128 -37.312557 808.161743
-1432.832397 -122.711105 159.082123
-1466.912720 -233.935165 350.809875
-1455.462036 -24.301477 206.472717
-1004.651428 -0.567258 337.243134
-1378.572876 -38.809700 463.958038
-965.387451 -174.791000 729.156006
-1451.187256 -55.195740 280.825104
-1032.876709 -37.408432 512.315002
-1350.475708 -255.236084 379.180542
-1019.130737 -164.168900 445.050385
-752.658997 57.389381 804.396545
-904.783325 44.692715 745.810059
-946.650940 -100.857704 715.139893
-839.708191 82.440941 765.956238
-997.855286 -10.093921 325.132507
-751.689392 80.503357 806.503235
-977.635681 -218.823257 380.664734
-1054.949341 -51.850243 581.873047
-1018.185791 -200.338974 416.639008
-1451.407959 -36.024906 446.829681
-814.402161 7.458488 778.406921
-1043.641357 139.990402 488.333710
-1425.553345 -94.605453 114.639221
-1489.678955 88.784485 297.712769
-1479.533936 -45.808075 456.671387
-1057.131714 -173.848038 668.837463
-1489.045044 -312.005585 511.377411
-1008.890259 -48.958561 385.056396
-1406.695190 -108.121567 258.798065
-1475.850586 -154.446884 372.671539
-864.959595 -97.435623 774.202820
-1039.875732 161.267288 495.233276
-1031.756714 131.686600 377.883392
-1513.250977 108.573318 355.013428
-1027.797241 59.675407 337.399750
-907.082520 60.142487 739.776611
-1014.770813 -228.522308 497.789703
-821.790527 -98.125145 774.080017
-1479.598633 97.523560 220.897903
-1532.457031 -271.119934 625.596985
-781.794922 69.190300 790.089783
-1046.375977 -146.897858 597.426697
-1014.543945 -125.151154 486.572632
-1022.286072 50.610802 446.969086
-1451.164429 -175.012115 257.966553
-1490.912964 57.126465 318.075653
-1445.761230 -315.012146 320.447205
-1473.960815 44.052998 215.219955
-964.454224 -115.119545 738.651978
-1492.424805 163.287903 406.976501
-1070.988159 -26.798704 641.949951
-1025.231323 28.562670 452.026581
-983.960266 -121.674088 400.492218
-1020.897461 2.809960 462.707336
-1495.533447 52.192726 491.394073
-1046.168579 -139.450912 586.173889
-1444.794922 -83.636551 326.926971
-999.036194 9.142530 382.830383
-1534.551147 229.278214 408.034546
-716.776794 -60.553600 831.554077
-1481.092651 -36.936066 437.421967
-1448.399536 -97.380943 300.389221
-730.927734 35.469997 821.505737
-797.077881 88.323959 783.837769
-1431.096313 -336.196411 327.618500
-908.922363 -128.080032 755.467773
-941.696106 107.252716 726.172485
-925.101074 -85.089333 736.183594
-1026.893311 -145.892838 583.242981
-891.607361 49.717075 756.079651
-798.389160 38.922306 779.346069
-1384.104370 -64.473274 246.882080
-952.551208 14.645152 725.880615
-1002.655762 -160.396606 415.128296
-1010.015503 -18.853636 310.761566
-1465.319214 -241.977066 450.569244
-1068.785156 -59.318157 653.810364
-1028.421143 68.491821 454.166016
-1467.085693 -163.755981 304.520935
-1473.954224 -38.596909 252.662323
-1415.837891 -310.356812 235.077988
-1494.098511 -32.794563 365.284485
-1016.109680 -53.845623 316.867981
-986.505493 -199.776184 450.605957
-1437.065308 -272.343048 229.887894
-1480.610107 153.059555 293.555634
-1007.198730 -78.282455 297.669952
-752.489197 -3.427119 812.985779
-1450.511841 -42.291061 242.331024
-782.843506 -25.702330 793.604248
-986.503479 28.575340 719.487915
-1537.913574 -26.234196 648.488586
-1425.549316 -31.368492 123.497452
-1461.982056 -17.951612 279.776917
-838.625000 65.720490 771.100403
-1519.737305 182.839325 477.828064
-846.963928 -79.411354 790.759827
-1016.517212 -33.305504 457.341187
-1021.078247 -85.566864 536.268250
-1519.468628 195.778595 442.519073
-757.078613 37.439888 815.342834
-1438.451416 -52.809437 205.395569
-1452.403809 -213.065582 286.163574
-1512.041504 -317.229340 623.371094
-1505.880127 -30.739372 372.103180
-1407.035400 -116.819084 313.193634
-1462.773560 27.370344 205.215805
-1024.163696 -96.278923 272.052734
-1040.694946 -49.520149 456.369751
-880.998962 -112.654541 774.269287
-1455.180420 -238.415436 314.969879
-1449.059082 -279.030029 302.227356
-1451.365112 -289.842468 461.328918
-880.896790 -149.028198 757.347229
-839.783264 3.385211 779.714172
-1019.914124 16.121756 412.556946
-781.673523 -18.089725 795.626282
-1478.646362 25.859644 227.562256
-962.324158 115.821449 718.452148
-735.787048 4.842268 816.319275
-1022.659668 43.679153 322.061462
-1012.480103 -141.798096 516.154968
-1425.031250 -122.868889 201.757843
-1476.767456 -29.788477 446.271179
-852.017334 86.957932 767.289368
-1019.620056 -50.111225 506.174896
-1502.067017 112.382004 370.454742
-742.538818 -97.542114 815.143799
-1070.355591 -51.268940 687.093872
-1046.350464 108.688660 450.875763
-992.808594 -200.647690 371.676208
-1545.453979 51.470947 565.756470
-1450.130859 -13.471821 571.227478
-1022.025940 98.116295 339.564178
-978.238708 59.234066 716.686768
-1505.117798 112.704742 325.983795
-1076.073364 128.610260 612.887939
-1039.720581 87.017014 355.836090
-1011.304688 32.358711 377.682037
-1022.595154 115.978043 394.481415
-1018.775452 -63.339943 380.097198
-1016.954773 124.350838 445.987366
-996.434814 -178.627243 309.977966
-1021.270996 70.704468 426.477051
-744.917175 -151.043365 818.240906
-1430.843018 -330.807434 391.895477
-775.376587 47.833958 795.356812
-1451.203125 -12.756214 484.063477
-1432.376343 -153.098526 148.015671
-997.286011 -33.617691 313.488281
-988.454773 -193.175049 314.063385
-1443.976563 -190.892700 239.512039
-1035.850586 42.904434 547.960876
-1432.745605 -46.193726 124.519394
-832.794495 -201.551453 779.013489
-849.135376 27.647943 763.998718
-801.723389 -71.263039 801.821472
-1583.352295 40.545876 748.837158
-1548.010010 6.994324 567.158997
-1501.520996 6.433767 470.025269
-1461.516602 -189.793365 493.514435
-1028.452515 -105.442429 424.970215
-1470.653320 32.526325 477.707550
-1023.593933 -102.914330 289.639526
-1007.504761 -4.465361 437.004364
-1039.843140 66.612099 407.928040
-1438.768311 -39.230217 138.440765
-1463.325439 -168.825729 545.916199
-1468.838135 182.399719 410.388763
-1401.467773 -229.521774 445.284790
-1013.632263 27.614834 320.845032
-1471.849121 -21.233385 514.626404
-1039.590820 -156.745651 645.732239
-1031.027710 92.791786 481.312225
-1016.704590 65.161079 432.458069
-1417.643066 -172.712799 160.622467
-1447.699829 -289.415314 374.008850
-1540.609497 31.083956 648.013306
-1438.763184 -273.683746 251.506577
-878.987549 -57.240162 769.797424
-1316.962402 -15.906553 438.326660
-807.603943 65.259720 773.433533
-1053.995605 34.613449 503.656616
-758.524841 16.859325 803.619690
-1450.088379 131.566467 430.929993
-1066.941406 54.538811 567.774292
-1353.628174 -163.812592 414.997894
-870.941711 -62.895973 773.990723
-1407.245239 -48.823204 172.174530
-1477.484253 94.370308 252.571960
-927.906982 -59.697205 751.750122
-871.568359 -154.210205 752.419312
-1432.265381 -74.422722 134.964798
-773.480530 -179.250427 801.999512
-796.097839 52.520355 789.989197
-1461.106201 -194.776505 409.366211
-948.316895 180.709106 463.076904
-1004.152771 -128.087234 292.969543
-1428.236450 -12.485836 472.301270
-1447.502930 -339.734924 338.624725
-859.525452 34.394722 766.447876
-1440.040405 -67.092087 224.147949
-1469.291016 -223.566803 264.853027
-1432.506226 -301.061829 305.366669
-1000.371582 -208.233505 314.497986
-1508.229736 159.350494 397.226227
-1582.378418 82.331406 769.395691
-1444.738770 -42.136929 183.869827
-1353.800659 -296.962555 378.657288
-1447.917480 -18.929163 189.604706
-790.425842 -46.983860 806.794312
-1539.943481 -31.083508 580.184692
-1014.341125 -44.990192 273.210083
-1469.298950 41.424809 430.554016
-1010.452820 20.588238 440.177094
-1038.043579 78.305489 423.045868
-1383.565063 -101.768936 533.494446
-989.882690 -167.509064 432.823730
-937.131531 -185.860123 738.701050
-792.325195 -107.558022 796.718018
-1530.231323 52.212517 564.544922
-1449.344849 -27.007860 144.090683
-1461.525879 -200.695755 300.597290
-1472.072266 -11.293568 324.528473
-1452.313721 -67.946831 462.950043
-1513.873169 84.457901 353.616119
-1048.030518 85.220543 573.718933
-1029.766113 -204.013702 640.538757
-1460.476196 131.686188 406.080841
-1486.504517 154.019379 376.832001
-1028.622070 -198.688660 533.958618
-1511.384155 100.959801 337.763580
-1418.494751 -89.093948 267.859894
-1019.436951 53.894695 323.563171
-1027.779907 52.308361 304.597412
-714.318604 -131.963348 833.803894
-1062.182861 -3.545896 633.716919
-1459.309937 -273.041901 379.585175
-1071.481567 8.698108 691.596313
-1492.253540 155.941254 426.452667
-984.571655 -88.124939 303.795288
-753.277893 -158.939697 814.871460
-1011.493835 -215.259155 426.639832
-1430.345581 -58.185879 113.698967
-947.369446 -41.037910 733.377502
-1449.450684 43.754257 197.146652
-1421.850220 -53.166348 132.014526
-1384.075073 -74.604088 346.976685
-1054.297119 -150.470016 648.271729
-946.077454 219.997467 413.839691
-1507.886963 -0.662955 468.447540
-882.932068 96.079445 759.968323
-748.992493 23.588703 826.151672
-1523.800537 224.303940 457.038422
-1006.421387 8.704271 360.993408
-1007.524780 -29.479017 310.163605
-986.663330 -51.797989 345.452209
-1517.859497 159.295792 518.735718
-1554.877075 28.305141 540.788696
-797.297363 -198.402664 790.795959
-1450.069092 37.562164 202.476456
-1446.782349 -299.836670 343.319153
-1055.889526 55.975338 551.321960
-866.698364 -44.978741 768.161926
-803.990723 36.854809 789.818787
-1018.165283 166.125183 466.385071
-1463.331543 -16.405615 225.005493
-1473.840088 -214.081451 412.889038
-847.400696 227.419235 555.644958
-1510.319580 42.501171 388.338013
-768.100891 99.843925 819.898987
-1466.709839 88.342545 247.321503
-1522.650513 204.579742 525.210510
-779.182434 -160.946655 793.936218
-1550.965210 69.786263 700.852234
-1001.030640 -83.154297 397.144287
-1477.011963 67.031349 261.611633
-1501.388184 152.918579 288.176239
-1427.639160 -157.447968 494.243164
-1006.781250 -75.591774 405.244843
-1509.168945 34.222420 354.799133
-920.631348 -74.884056 751.019653
-1507.989136 163.017624 411.986572
-729.564209 -121.580376 818.938904
-1513.897217 139.998215 341.893799
-1444.519775 -49.180519 199.002731
-1048.286499 78.076271 537.669678
-1023.224304 -182.836655 526.916565
-1476.230469 161.772064 406.901276
-1446.032593 -275.855896 295.545441
-1427.688477 -328.811462 377.297241
-1364.772827 -80.238358 306.119171
-1010.733826 -239.850739 575.059021
-1541.279053 77.282227 659.801575
-1520.474121 192.854065 357.141357
-875.191650 34.599174 749.290527
-1050.493530 -35.171501 489.863739
-1381.309082 -107.448212 456.278046
-1434.327881 -130.893326 182.370285
-997.029968 -198.559448 397.306946
-1427.468140 -89.093773 105.209496
-1503.702393 97.037613 328.220917
-733.946228 -135.168640 822.652832
-1484.130005 67.259552 260.727051
-1056.663330 -161.418213 670.323975
-838.072205 -26.612202 767.688477
-1432.417358 -334.435333 363.223572
-833.278931 -129.592270 782.428528
-1429.175903 -306.903259 289.724915
-966.681091 123.525604 719.477356
-1486.467285 -210.609344 394.154968
-998.619873 -34.429031 425.507538
-1032.527832 39.562424 283.543060
-1483.467651 20.460079 228.126648
-979.437317 -18.573742 740.747803
-1053.966064 -186.270950 576.569641
-1520.219238 194.371109 407.665741
-1480.814331 -173.307327 412.923828
-1011.569519 -0.496228 321.881775
-1401.894043 -287.509552 373.997620
-948.189331 -147.405380 717.604675
-1026.992310 58.095074 438.495575
-1526.304688 -7.877502 757.094421
-1468.602661 74.457802 217.257278
-1015.897888 93.653694 427.370667
-1484.201782 90.544365 325.156403
-881.398865 91.026077 754.865540
-1035.774780 142.002930 382.301514
-974.403625 -198.799225 331.218109
-1366.090576 -80.284988 301.194244
-949.669434 106.334290 735.449036
-1492.774292 39.096088 273.471375
-943.158203 -72.795410 737.477905
-1454.194580 -193.772171 288.412506
-1478.302002 172.244431 455.445831
-1007.905334 -60.840069 353.874481
-988.055054 -42.521206 334.566803
-1470.110962 -256.719025 322.890808
-1446.340332 -123.817421 277.783661
-1534.468140 213.992142 421.807037
-1530.353516 164.900467 513.955750
-1442.182861 -184.387390 221.605865
-727.200562 6.086886 822.199585
-1479.037231 9.372183 251.117310
-1003.297913 -6.804526 327.299774
-1023.870667 104.543877 343.004700
-1450.255493 -240.330185 392.297546
-1453.794189 -24.523554 221.903427
-1494.052612 104.923996 313.704834
-1528.335815 -16.032265 578.621460
-1500.257568 74.756004 387.167877
-1526.862793 248.994156 424.678528
-755.100647 -20.704178 802.128784
-1380.792603 -56.794895 397.351715
-1600.642456 -3.133104 819.064270
-771.303345 -139.525772 797.440491
-1029.786133 22.455767 445.926849
-1502.870483 -52.437576 455.515625
-858.299561 -46.566154 778.508728
-999.107788 -37.440651 312.246063
-1435.517090 -39.958389 131.878632
-1428.350952 -279.997894 418.537354
-1429.635620 -325.136963 368.200012
-1534.939697 180.783035 472.458282
-1037.597046 84.065155 415.387756
-1515.520874 1.225375 441.821503
-1527.487061 33.942532 668.240417
-1045.077881 138.437958 488.855194
-1475.802979 -252.691986 309.952911
-967.126648 172.726288 695.227112
-1346.394897 -62.975555 290.282135
-914.444580 -69.792465 755.159119
-1458.251221 62.782417 246.086517
-1003.943604 -8.251912 314.238922
-1482.365845 90.057297 447.429962
-1422.756592 -109.772789 177.807587
-753.055664 -4.312301 806.326172
-783.116577 117.979225 817.060120
-736.569275 18.889601 817.038879
-996.204224 -117.485336 358.663696
-1507.643799 32.810188 345.744324
-1509.895996 58.589756 353.046936
-734.630188 -107.233810 832.035156
-899.921753 -72.316849 760.194763
-815.669128 -138.133179 780.092834
-1398.952637 -68.810692 223.843658
-879.986633 -143.718262 764.454041
-1002.802246 164.248489 479.877869
-1428.668213 -93.393394 162.511063
-1488.428833 152.495636 367.390472
-1458.256714 -257.485168 382.043182
-936.239258 -209.071716 741.574341
-867.372681 112.070488 769.398438
-766.600098 34.563782 808.231873
-857.716431 -17.465696 761.559021
-1466.181030 26.942873 189.939148
-1034.443237 -73.171196 532.865479
-908.604309 -74.721764 762.326782
-1062.578857 92.911621 608.308960
-935.352051 12.640759 742.582764
-1492.903198 33.077091 301.653320
-925.948730 98.422058 745.102173
-1438.075073 -262.349945 402.756775
-1448.821533 -202.400116 251.058929
-787.716553 -23.067764 788.097290
-978.181946 -233.220734 382.891479
-781.543762 99.159508 793.155823
-1584.272827 -47.840096 799.586060
-1362.275146 -72.869865 230.209763
-1006.153503 -168.366959 437.837067
-975.216248 -220.492508 412.369598
-1456.547974 -163.481583 202.449966
-996.223816 -148.069244 342.595123
-872.283569 219.340561 520.502075
-1433.939087 -116.045807 163.330032
-1486.222656 -3.271875 320.397369
-1429.887085 -180.550629 168.641190
-997.812561 -2.776088 358.215271
-1419.932129 -66.634628 134.913742
-861.249817 -99.868584 763.763489
-1102.884644 -37.091412 757.966675
-1429.625244 -291.628967 239.721329
-1436.530396 -132.951965 122.992493
-1046.485962 -204.692093 550.870911
-1487.319336 31.490009 390.840271
-1492.331665 -47.965878 334.372345
-1040.861328 62.516647 508.775543
-1490.115845 43.007698 413.061707
-1489.408325 94.028526 296.477509
-1060.428711 179.693497 467.737915
-1438.799316 -281.763092 424.043762
-820.166138 98.785065 773.159180
-785.406921 32.390919 790.147644
-1004.948120 -69.733948 299.600952
-995.836243 -129.276062 443.935852
-1512.256348 31.844929 443.758850
-1472.806763 36.005890 243.782150
-854.723572 34.296177 756.387024
-1093.833252 0.067550 675.823425
-1458.437256 16.903339 181.255096
-967.526855 -101.145752 710.639648
-740.006226 11.440921 815.813538
-1459.655029 62.437630 237.859985
-932.195251 43.230095 748.314087
-909.268433 -170.359772 748.916260
-1068.670654 -74.985748 568.797302
-1417.655884 -139.848190 506.792328
-1465.604004 38.945347 285.189301
-1442.686523 -211.661743 234.321899
-787.745422 -168.449692 795.324585
-1022.663391 -7.633044 402.889008
-1514.751343 -272.808777 562.047668
-1394.698975 -257.465698 526.773376
-711.593384 10.587490 824.138489
-1009.426086 -154.844849 343.598541
-733.624451 -96.213043 816.013855
-1034.072632 104.628906 469.336273
-1477.407227 -228.961899 342.522125
-996.961365 -220.603073 410.673340
-1023.284607 79.236610 381.849091
-1040.182495 96.586411 342.366241
-859.809937 120.006546 774.338013
-898.741211 73.421944 745.037537
-1050.168701 -150.086853 583.789734
-1457.775269 25.967852 190.178940
-1522.629517 124.785133 493.114594
-812.287537 -78.126564 795.331604
-737.682617 53.332497 814.198914
-1040.572876 -133.737396 572.124451
-1035.297119 -30.842670 495.368256
-998.309875 -45.224957 311.376038
-1443.827759 -295.580750 405.182495
-1485.194824 7.344690 240.106125
-817.251648 -129.941895 784.804871
-825.326965 -43.514633 779.350220
-773.932312 -167.531082 797.877075
-1026.475708 83.309029 429.119904
-998.713684 -63.480930 356.672607
-992.855591 -72.348701 332.493256
-756.166565 -10.024837 821.675537
-1445.149170 -244.285843 333.885742
-1052.123901 -87.676033 582.563354
-1037.999512 -178.778351 521.937622
-1450.328857 -127.736664 183.899002
-1503.202271 -319.730377 581.494080
-1390.876099 -343.646454 360.473267
-1446.538330 -13.867449 171.831848
-1478.339478 90.223167 224.999344
-794.575623 -2.976630 790.190369
-1506.513550 76.154823 530.820984
-1028.403564 -15.156694 520.290955
-879.772644 -95.536987 768.190247
-1504.915527 164.836655 362.706818
-1496.586304 -18.949999 401.535889
-1013.800049 58.855453 336.997589
-1003.834412 -237.629089 456.818146
-1453.999634 -48.877419 298.285187
-845.593750 -126.645157 772.339417
-921.086792 -118.697960 747.030701
-1569.559570 1.991232 647.413025
-1030.726196 121.889534 447.419128
-888.653931 -34.365467 759.922974
-1066.603027 -23.643192 582.881775
-848.567871 -19.848597 766.773071
-1457.479492 -167.911652 290.809143
-1062.282471 -31.612885 682.378174
-1479.262695 -5.309309 521.768433
-1490.747437 99.527725 249.188385
-1015.861389 68.930687 341.616058
-1030.864136 15.492943 537.204529
-1023.301270 -66.133614 496.163788
-936.002563 -168.936325 734.101990
-1540.775269 78.356804 657.577209
-767.517822 -58.872486 797.116150
-844.628052 -30.484192 773.723206
-1418.482178 -370.709473 357.995880
-989.700195 -161.595200 366.921265
-997.641541 -104.866364 440.384308
-1408.561890 -42.382500 467.423065
-1478.442993 -81.927193 396.801727
-1000.867004 -188.097275 493.341858
-1487.647339 -352.621582 509.214600
-925.981812 -98.282761 751.174988
-1483.784546 -349.580872 499.394775
-1436.900513 -349.254791 317.109680
-1366.953979 -73.555901 442.369385
-1570.197388 92.238998 776.998413
-1042.409912 4.278082 493.261108
-720.197815 -14.340614 828.179749
-890.990234 -115.525620 752.071228
-803.068054 -3.319340 791.249878
-1064.081543 87.405014 578.518616
-933.403259 -140.034607 744.187439
-1057.338501 -20.573000 620.032288
-1445.643677 -157.173752 208.022644
-992.969116 -228.690186 492.471710
-1047.512085 -102.581039 654.111633
-1455.231812 3.110624 181.715088
-1035.806763 38.068123 444.942200
-756.519165 -63.541348 811.027832
-1003.698364 -180.678818 427.679901
-1480.715820 -294.617676 628.109009
-1470.630249 -93.102226 376.123474
-1038.153076 23.734653 283.952545
-1568.955200 22.543928 631.178040
-1515.373291 216.308792 426.279999
-1055.285522 -111.393295 574.673584
-1047.544678 -11.497463 575.290710
-1011.336426 21.492046 317.052063
-1482.883789 -84.966095 352.533600
-809.578003 -87.706093 799.748413
-1528.293457 229.751480 401.596619
-913.573486 -59.589714 737.373047
-1457.972168 -273.871765 411.934143
-809.712341 -122.344589 796.523071
-1471.164551 -252.525436 494.863892
-1018.908752 24.929743 433.945709
-1511.434326 185.586670 386.727448
-998.990173 20.319443 330.140930
-965.156372 55.596478 722.292175
-1507.699341 17.818911 375.827942
-1024.903442 -28.068930 300.950623
-1051.914673 122.646317 473.540863
-961.197571 -145.041214 729.646729
-1373.200928 -124.041878 498.172943
-1461.667358 -202.954071 262.040497
-1034.495239 -8.666374 513.755188
-1440.485352 -34.048050 466.982880
-1509.550415 55.709076 384.936340
-1061.465820 16.183912 611.190857
-989.270142 -205.521637 359.224457
-1023.222046 89.320961 337.054260
-805.041870 28.187534 790.649780
-1025.196533 -252.369720 518.051453
-1363.462158 -116.081932 440.376556
-765.730164 43.122238 807.538269
-766.227783 -16.613016 799.882446
-1016.639221 30.647757 395.624908
-1430.500244 -109.220520 125.668770
-1436.304321 -225.028427 411.320984
-1033.323853 53.100300 307.683502
-1521.918213 200.378708 398.419159
-1424.836060 -117.514610 268.635651
-853.928589 16.299881 757.486816
-1020.552856 48.839180 323.498108
-961.050842 58.350357 733.403870
-935.817688 229.950333 425.788391
-1422.077759 -270.181671 387.855835
-1510.095703 149.002365 445.646973
-999.761353 -137.020248 393.282257
-1512.285767 1.375667 453.178436
-1033.802856 -196.249802 476.891724
-779.072876 -150.573593 810.338074
-1430.387085 -84.159630 154.270950
-1470.191650 81.413979 434.481476
-1019.361694 -1.899835 419.661560
-1441.469238 -167.966202 220.936295
-1505.441040 67.423203 352.516083
-864.617188 101.129692 763.810242
-1528.407104 176.889526 505.550110
-1005.427856 -95.775169 424.525574
-968.374634 52.561794 723.277832
-1467.027344 -45.745445 251.067566
-817.344849 17.896395 784.031067
-1580.095459 94.198471 790.602417
-1438.702881 -345.625153 379.257782
-1059.481812 144.112045 541.054016
-805.796143 -157.359604 793.305725
-1010.254700 -25.844847 390.727295
-1452.234985 -351.275146 331.638580
-1038.093994 -117.085724 543.270264
-1045.694214 -176.373123 506.047455
-889.515686 -21.141876 745.715393
-1032.245361 -110.904564 535.005676
-860.183960 -152.390182 764.966125
-1471.878052 66.057060 213.954483
-1043.375854 -200.781174 594.647339
-1038.673096 94.681595 412.465729
-863.637024 -35.980225 766.292480
-1417.794678 -339.046417 347.734467
-1449.202271 -84.534027 417.405426
-1438.261475 -94.245377 243.234619
-1510.739258 7.969809 369.734680
-1429.459473 -24.557596 447.239288
-1486.466553 -22.660206 561.494080
-1041.005737 151.100067 472.607147
-1448.590820 -212.490051 272.272644
-1009.723999 -92.782913 426.382477
-991.764648 -176.296585 375.962189
-1447.201416 -18.451508 152.462738
-1448.880737 -242.988098 419.681152
-1476.242920 -163.201889 408.851624
-1479.715698 -295.247223 500.229797
-915.831482 -95.949936 752.286133
-897.810852 128.207672 742.503113
-704.639526 -73.222633 830.688782
-923.211609 -86.908638 750.852356
-1496.641113 69.409889 339.730194
-1457.035645 -152.908920 275.917114
-1069.333984 -89.084900 672.521851
-1419.090332 -96.844772 134.807632
-1523.004028 235.677719 387.564087
-823.231873 -25.902615 790.730286
-938.715515 52.594475 745.084595
-742.900208 -88.765724 841.989990
-932.999939 124.075623 742.884033
-998.289795 -146.022614 419.280640
-790.341003 -52.598045 789.704956
-717.675903 -77.661407 823.534302
-758.738342 99.665123 843.483276
-767.434082 61.412357 802.231445
-1431.715820 -300.038940 330.612061
-1440.244385 -339.720398 288.246277
-1545.791016 -18.574770 657.801331
-695.180725 2.884008 845.375000
-1465.020386 150.943024 405.517914
-1502.853760 170.923569 324.783081
-1501.788574 21.383900 346.281097
-1036.769775 -32.092712 538.405518
-1083.129761 0.445846 650.475281
-915.156799 -161.319931 740.066101
-1002.794983 29.540588 341.158752
-834.391357 13.681581 782.892822
-793.797729 -73.269073 798.067017
-1003.694519 -77.728111 305.157379
-845.819214 -37.728542 781.525146
-1399.811279 -113.437363 372.730286
-1491.426270 162.072037 395.039368
-994.368408 -166.682663 326.123810
-1003.296387 -95.500725 302.940948
-1012.707520 -152.463303 464.041046
-1489.686768 -2.626197 306.773956
-717.630188 63.174465 841.432922
-1450.569214 -186.005157 265.079956
-1426.088867 -167.323303 140.744095
-1412.590454 -58.743752 208.347244
-1513.756470 65.095360 416.331177
-1446.170410 -250.800705 268.613220
-1027.538330 20.310253 464.663696
-1531.497681 135.825714 503.084869
-1434.805420 -302.812256 259.050476
-1482.060791 -13.224198 437.323669
-1414.230713 -279.742767 221.884521
-994.616821 -96.418137 361.395660
-1540.302734 206.663757 450.683716
-1485.968262 -33.031036 298.202911
-1538.025391 70.384880 676.832642
-1433.736084 -55.871323 179.005753
-1059.378784 -123.483711 640.032349
-926.388611 -9.642879 745.690796
-942.203491 184.737595 469.121246
-1552.781860 56.679756 707.548767
-1444.989136 -124.592392 230.279190
-1034.650391 32.470154 462.034058
-1437.676758 -53.448338 192.223877
-1444.060425 -263.617828 369.184631
-1506.576172 37.250278 394.673065
-862.463684 104.094238 760.520752
-1509.021484 -7.913483 609.461853
-1453.646240 -65.277954 157.210251
-997.320618 -110.714821 320.441711
-802.565369 -16.569645 781.002563
-1422.673462 -253.691650 223.088821
-1450.702271 -78.620865 128.350677
-992.964233 -16.789179 324.945740
-1467.061401 -283.316559 304.605011
-1007.155273 -93.937157 442.959320
-1038.253174 139.928665 482.739777
-1004.868286 31.882380 395.430481
-1000.120483 3.094549 735.797241
-1415.967529 -166.188202 149.731186
-1444.960449 -232.142365 270.700317
-1393.417480 -79.303711 261.508820
-1465.043945 44.793858 180.243164
-1467.365356 34.886322 282.368378
-1400.700195 -62.529129 535.643921
-1443.989868 -180.766754 321.308044
-1068.987549 61.074154 591.720581
-1014.848572 -199.415253 447.701416
-722.207703 -7.887817 834.161682
-1046.339600 82.560074 523.380859
-1403.634399 -237.791763 430.443176
-791.584473 64.671364 785.866150
-1024.380371 157.731003 455.775909
-1414.016357 -348.271484 359.431763
-934.836731 -194.092407 731.026245
-1491.235229 116.659431 472.698792
-1017.487793 16.233961 375.662720
-1454.335327 -165.616898 269.964020
-996.897400 -56.968117 302.099365
-1011.883484 4.041669 314.139984
-897.448547 -58.245865 754.433777
-1442.017090 -3.822753 178.718887
-1414.653564 -324.089691 251.731110
-1509.944946 175.000061 395.663818
-1511.397583 -309.297211 576.821411
-1420.828857 -148.546692 117.722290
-739.921570 22.689886 846.236206
-975.917603 -157.827347 369.317841
-1000.245056 -226.238571 436.803833
-1005.468140 -201.054688 297.162476
-1467.875732 43.583736 263.539703
-1480.369507 -211.975632 538.079346
-1048.429810 59.473740 491.937195
-934.830688 94.221886 720.916382
-789.675903 120.273842 802.800476
-1037.866333 -231.188919 590.003540
-1057.390137 -123.646179 573.600464
-887.630493 136.297318 743.745911
-998.577576 12.771414 299.335724
-963.416382 -33.074825 738.813477
-1466.665039 -73.614944 328.978882
-1009.944824 -7.929543 298.871307
-1423.267578 -73.024864 186.057281
-1533.731689 9.402165 641.748779
-1011.244446 -9.869368 337.792450
-1047.613525 70.889114 527.561768
-1360.590820 -65.871674 405.103424
-1006.864075 28.243092 351.180664
-1496.742798 -6.732138 313.513489
-1452.192139 -237.972382 412.544556
-1446.808228 -263.275818 422.410889
-724.392578 -9.409661 831.454956
-1002.703125 -204.431107 321.070862
-1437.776855 -347.591644 291.777954
-1491.232300 97.031906 512.394531
-1030.855713 96.189529 324.098816
-903.349182 87.851799 734.377502
-1007.138489 1.650540 309.692749
-849.300110 -203.388428 762.290649
-1433.157593 -96.514397 263.500793
-1083.981201 10.097315 686.977173
-1425.883667 -80.672760 181.566742
-1462.830688 -224.608353 383.368134
-1470.914795 98.683701 273.327911
-765.579163 126.493698 822.780945
-1028.953491 -161.937622 600.684082
-857.853027 -17.672230 766.424255
-999.604187 -114.372726 388.572937
-1446.807251 -270.522217 292.987946
-815.496643 -116.869553 781.962280
-1497.533813 -53.235092 547.890259
-1448.722046 -301.838409 460.290894
-1478.235596 -72.497902 396.183197
-1055.058105 -112.516350 525.067444
-1482.117798 -30.442005 396.118225
-1475.866699 -16.141569 275.761993
-1423.355957 -108.977242 232.797592
-1566.019287 42.099709 720.993103
-1007.262207 -167.225067 278.029236
-913.662231 41.641747 753.068298
-1503.793457 145.898544 378.692078
-920.604614 -40.521481 752.558105
-957.283447 -61.938492 738.854797
-1013.089844 -87.444878 495.015503
-736.205688 -84.245743 819.821472
-1034.989990 -173.586090 552.495972
-1448.401123 -222.027725 260.553009
-885.172241 -18.386776 754.866150
-1407.576904 -78.350410 229.098572
-1458.995728 -190.324158 244.179306
-1023.781860 76.869980 312.374023
-1072.657959 27.693552 660.915344
-1424.433716 -169.642105 137.436829
-883.254944 59.727619 753.615784
-1437.138550 -176.702164 154.758255
-1450.281494 -194.215805 274.431641
-1415.736694 -98.251358 114.000862
-1503.183228 87.383156 328.881958
-1006.954773 -241.630066 509.272797
-845.733459 -173.288834 769.312256
-866.150269 -64.133537 762.954529
-1421.196411 -104.018654 163.905655
-1495.348877 101.262772 438.896088
-876.373779 31.656761 760.589600
-1046.786743 -226.988144 602.368774
-1001.324890 -174.897995 495.929932
-1507.832764 44.198406 371.208954
-1505.785278 37.853436 536.720764
-1520.645508 106.416328 507.518311
-1455.939575 -304.657745 395.255066
-993.915649 -70.590080 340.067017
-1446.927002 -83.458038 305.469849
-1007.978027 -192.438446 457.680573
-978.916931 -241.137772 354.078857
-852.732056 71.639946 765.858643
-1436.877319 -82.253174 223.072021
-1476.706299 -173.956100 374.803375
-1477.791260 136.503220 287.371887
-1495.198364 1.256276 293.793396
-1464.099609 -218.568024 240.427917
-1473.489624 -149.010193 293.710785
-800.281433 40.784607 802.312134
-995.402100 -107.462601 343.065430
-1536.583862 -27.313803 618.026062
-1483.897461 80.944725 325.962952
-1546.075806 69.485535 642.864624
-1544.083984 45.485477 559.777039
-1031.355835 -25.853645 288.343994
-1001.653137 -153.460205 436.669861
-787.927795 -42.510792 804.308411
-1503.586060 172.048370 384.265778
-1507.850342 88.069794 409.151520
-1056.832764 110.843910 499.913727
-796.355408 -24.465609 802.634094
-1012.159180 -216.658005 385.130127
-984.555481 -93.704895 292.532318
-1506.843384 42.202374 330.565704
-857.226196 116.755211 765.527588
-1441.258789 -152.233643 161.826340
-1457.358887 66.472595 448.184235
-976.553162 53.361492 723.559753
-1499.289795 131.012711 465.740082
-1045.608887 141.491226 423.164459
-967.095154 153.694336 727.107117
-1424.714111 -219.057983 174.467026
-905.148071 75.004417 742.634644
-1443.203125 -159.515350 206.090820
-962.490417 0.392875 733.256287
-1449.891235 -263.766144 292.106567
-1359.342773 -111.166298 332.396698
-1499.292358 -277.512177 560.593018
-1453.525146 -126.005035 156.588638
-1514.014160 180.750931 413.743835
-1530.348755 23.718340 661.287903
-1426.315186 -107.575035 107.924858
-1496.518433 131.628220 399.824432
-1497.001465 -29.731949 354.348785
-1006.992981 -171.244293 450.013550
-829.099976 -76.220131 786.742615
-1443.850098 -186.532639 186.477783
-1025.016602 -58.200756 488.958527
-830.541992 51.535599 769.754944
-1439.278931 77.343781 428.078857
-1466.851318 44.648373 219.791519
-1474.755127 -206.625580 389.083588
-801.453979 75.884956 795.970093
-898.172241 108.731285 756.201599
-1486.522095 -138.904846 423.052185
-1066.632446 -56.265438 594.693115
-1027.830444 91.030624 378.464844
-1461.585327 -88.656372 266.503693
-852.856079 93.520752 763.902527
-1427.177002 -169.812317 159.566437
-1024.409302 -67.619576 440.850281
-1018.423340 45.463696 281.001099
-1495.011597 121.881424 399.445465
-1023.572754 10.359241 328.460632
-1487.928345 -7.359732 408.574463
-1430.184937 -230.777786 197.339127
-1007.749146 61.761181 368.430878
-915.499939 51.042545 743.586792
-1026.165527 39.284451 284.218903
-824.508972 -74.761429 784.179932
-1003.463318 48.564434 345.821228
-1013.694275 -15.095125 277.428040
-1488.641235 105.615875 290.490845
-1511.685181 49.925674 401.683105
-1472.785400 10.465663 303.294403
-881.348877 1.205906 763.078003
-1410.637817 -29.191292 464.326996
-1419.442139 -148.123138 159.802063
-1014.842102 1.897978 422.008698
-1010.039917 -167.228531 457.408844
-1022.937744 113.307594 404.857941
-1023.012024 -115.710800 548.165466
-1047.898438 -216.934418 532.876709
-1469.247925 -120.890808 308.428467
-1036.752563 -164.285080 652.192688
-1445.326538 -310.815826 424.349823
-1022.334045 55.191467 353.926086
-763.889343 -183.770645 808.827087
-1045.899536 108.698647 363.419250
-1014.976196 45.382339 346.496796
-1015.834290 -252.236984 524.930054
-1438.348022 0.219013 181.701157
-1510.319580 223.958511 461.823425
-996.133606 -110.097275 353.058136
-1517.247559 82.661934 421.436371
-1017.448669 -215.826004 582.984863
-1491.472778 185.822144 441.143585
-1011.659668 -88.149620 390.925934
-939.967346 -209.487885 735.916016
-1398.272583 -209.075333 447.361969
-916.791077 6.066879 738.724426
-1443.307495 -343.320953 409.651642
-1059.321533 131.602386 489.961365
-1496.215088 134.860809 399.672943
-942.399719 39.153084 722.187378
-1447.216797 -85.589996 177.922821
-994.191711 83.553307 730.319214
-1002.860107 -21.332245 350.752258
-1477.924927 30.482718 269.458771
-1009.771118 -105.238350 457.386902
-1513.697510 189.500946 366.552582
-988.692017 59.968529 728.846680
-1550.065063 14.254236 604.264832
-872.411194 -139.253555 756.025208
-762.561035 -54.577778 805.152771
-1023.893250 -113.281990 494.999054
-1452.491455 -226.237488 379.502380
-869.080566 41.448795 758.788513
-1481.493408 -29.646795 271.401947
-1071.918579 -111.661972 622.615173
-1076.388794 -176.004578 685.555359
-1434.611938 -60.632061 183.118744
-817.815674 21.848677 780.659851
-1001.864441 -127.163780 425.324493
-1044.676880 61.985374 524.045776
-765.825684 -64.759560 813.063782
-1016.650452 -21.164957 269.097198
-1468.109985 -283.119965 292.826935
-1428.140869 -309.075378 318.005951
-1409.026611 -306.525909 380.789124
-858.011963 -88.253342 777.197693
-890.720764 -160.284454 747.606384
-1466.123047 -1.655998 243.462845
-1025.160156 -139.572281 462.299500
-1464.508667 -6.311059 233.671494
-787.520996 -12.400164 797.234070
-791.364380 -7.939509 790.105347
-1442.684937 -308.035858 311.588898
-1473.337524 -214.648926 460.895477
-827.246826 14.687215 777.461914
-1454.289795 -324.467163 314.859680
-1050.256348 91.338440 447.706055
-1508.453491 57.102242 393.888824
-1475.677734 -204.884659 415.673309
-881.524719 -147.928726 762.116699
-1426.419312 -56.618572 143.478348
-1006.376099 -193.795914 471.071686
-1488.473877 68.330750 376.057495
-1040.272827 75.087181 446.169647
-1019.171448 9.396746 301.695618
-808.330261 83.159241 771.981018
-1382.993164 -288.081787 370.313995
-1052.245483 -193.106766 653.710266
-1381.577148 -359.579071 369.376801
-974.814148 -108.947563 736.291077
-1510.551270 84.216591 413.545410
-1012.560730 -142.036560 484.373016
-1501.356689 93.971298 294.137085
-1432.908325 -35.375961 118.688148
-1062.838135 82.212883 590.518250
-754.426758 -11.056447 822.590881
-1453.951416 -239.244080 355.533997
-1484.068115 -163.289642 452.427551
-1035.600708 49.853756 491.714935
-1023.839539 -100.393845 272.700897
-1467.541626 -9.285955 209.077332
-1010.559814 -2.686294 313.912170
-1007.707214 -135.843033 310.114929
-1461.337646 -254.279114 375.553741
-1056.912842 145.956345 421.003113
-982.946228 -200.655136 308.422852
-819.444153 -23.379049 787.648376
-899.443237 128.208832 750.087585
-1443.980591 -157.175171 220.698303
-730.604065 -97.795029 828.945313
-1468.175781 69.096016 219.441132
-1508.055542 83.880775 326.599823
-1463.714355 -210.872406 234.151398
-1008.832642 -158.767197 472.908447
-1061.589233 130.589554 374.822327
-1413.851685 -347.885773 346.724426
-1491.257080 -0.676452 348.828949
-1515.842041 161.085846 437.810760
-1517.260742 197.038406 405.402924
-1477.035034 -241.937851 357.819489
-889.747559 -63.219711 745.176697
-1002.887451 9.337234 356.946625
-1457.419189 -81.982765 385.920776
-733.385193 -122.990356 816.522583
-1468.538452 -70.276398 416.688965
-792.948364 -76.111961 801.915771
-997.098145 -26.021482 300.575562
-1074.204224 -35.520126 651.219543
-961.437012 38.423512 716.835632
-1500.432251 76.255539 373.417114
-1074.323242 37.295219 665.935364
-1451.480225 -213.744400 478.476166
-745.077881 -28.124250 814.111877
-970.598450 10.494323 711.400269
-1068.612061 60.236553 643.353027
-1439.458130 -128.385559 184.281174
-1460.924194 -201.040634 319.518829
-1039.399414 -9.034879 579.692749
-1028.945068 17.781765 423.814758
-830.509338 -157.947556 774.905579
-949.609680 -94.843224 723.416626
-1483.651367 103.940353 340.588562
-1431.170532 -129.877197 171.367752
-858.535767 -27.113392 776.201294
-828.604858 -53.913582 798.063110
-729.110840 -110.778374 822.862183
-743.234436 -7.609875 812.156982
-960.450317 69.021248 720.609802
-1449.975586 -259.270172 396.899841
-1433.725220 -0.667496 142.941071
-1459.524414 -288.832520 345.898743
-806.038330 -103.203789 795.782043
-722.036316 -73.811722 847.268860
-883.491028 -4.747929 770.570862
-1059.443604 192.643814 462.482056
-1004.398804 -4.913006 282.456207
-1054.301025 22.209509 508.146881
-911.239258 106.761536 736.613770
-1061.856323 -111.522148 584.947144
-1463.137939 -391.726379 368.940552
-1033.641846 -194.989136 652.279968
-1055.965820 -80.438805 594.418640
-1515.708984 165.491974 353.400757
-1028.486084 138.761002 395.584747
-999.462280 -262.420685 469.975830
-1432.859009 -311.963043 335.425568
-1442.307373 -36.502361 450.100677
-1436.742188 -174.108276 274.274384
-1059.639404 -12.389232 541.540710
-1464.122681 -374.806732 444.104095
-840.546570 -91.241493 767.319031
-880.296936 -184.058365 753.416565
-908.553955 -180.910538 749.389404
-1028.926758 -29.272972 401.073364
-1531.252197 218.647095 435.396576
-857.609558 -92.541138 760.591370
-815.331787 111.631813 773.490967
-896.590149 85.894669 749.973572
-1030.113892 75.119049 427.189636
-1449.491211 -268.032440 296.247711
-1074.327881 -201.839615 619.814758
-1058.197632 -156.150681 624.859009
-1486.455444 91.423599 241.418823
-1433.071899 -121.822968 182.739075
-1026.329224 113.675690 408.704681
-1542.669189 36.134125 593.152588
-1471.878540 -181.883118 290.325684
-1012.823914 42.794258 391.877533
-1049.891113 40.975075 553.381714
-1455.566162 -264.233765 404.342499
-738.777771 -29.169687 816.020935
-1513.245361 85.285690 408.315826
-788.158569 -110.191864 806.761230
-1437.638672 -157.260330 149.063721
-816.886597 -164.370316 776.982544
-978.678345 27.668482 721.355225
-860.563232 116.913635 747.492188
-930.704163 -142.352371 743.247803
-1453.515015 -246.758835 298.155792
-1503.450684 -36.756397 366.329193
-1536.850464 6.742793 479.145325
-836.652832 -119.320122 776.705017
-1007.288025 -92.756912 297.289825
-1027.507446 104.230736 439.959808
-1488.130127 103.141144 237.918106
-1053.153809 -216.340576 658.306885
-1501.848633 -277.371246 589.081360
-1503.774414 -27.648180 336.759583
-1540.730225 -34.366409 586.061096
-1439.235962 1.955562 167.821289
-1434.537598 -131.744034 182.295425
-1439.593262 -266.514435 246.945038
-1017.209595 24.492020 432.887543
-1021.059692 18.065607 455.796112
-1449.130493 -201.277786 258.629303
-1028.900146 -59.411221 428.509796
-994.313110 -186.151367 327.645569
-1543.652466 183.342621 451.156281
-916.139343 -50.670914 754.261780
-816.001038 88.818687 782.207947
-1000.973206 -160.762726 358.431061
-1491.894043 71.262726 252.884659
-1029.669678 19.814007 290.225037
-1507.215698 163.118210 324.548950
-934.299194 -201.604294 738.811096
-1037.664551 -69.660202 555.901001
-953.845581 128.807602 720.086548
-847.085571 97.485947 762.605408
-1516.918213 21.428919 714.587463
-816.020020 -26.070015 779.793335
-1445.836060 -5.479329 128.665115
-1443.891968 -75.133690 135.841965
-1498.149536 16.760294 344.937561
-1434.313232 -51.144726 129.378586
-763.412415 88.793388 846.124207
-887.470093 -192.634949 757.976746
-1430.478760 -252.148560 267.596069
-1049.152588 5.724719 567.590942
-1068.302246 -69.849655 664.152222
-1016.568359 14.947126 397.196045
-1018.571716 -10.570962 455.752411
-1400.964111 -134.792389 521.736328
-1449.837524 -282.971924 408.062134
-1475.482788 -145.305893 297.201019
-1437.186035 -168.254639 490.053558
-1435.849731 -123.381508 184.489288
-873.820129 87.001968 755.947144
-916.052734 -70.067749 752.136536
-1435.887939 -164.527512 257.618195
-1454.662231 40.138893 173.592026
-831.848999 -125.355286 774.325256
-1353.468018 -192.289230 392.835327
-1049.515381 5.523947 594.020813
-1023.681458 118.273239 385.492645
-915.308350 96.854485 747.626587
-1479.438843 40.820938 315.812073
-1447.739990 -253.189789 382.473053
-916.290955 15.662551 750.160217
-1561.105713 19.565737 781.155579
-1441.575073 -60.266434 223.492447
-869.787476 25.695133 763.875916
-1474.142090 24.785223 184.133438
-1014.385559 41.862270 323.044098
-1025.691772 97.702888 345.677643
-1538.371704 -47.766731 544.070435
-850.994507 -160.239670 767.865417
-1068.662231 -94.885414 672.777649
-1391.545288 -260.139313 428.262299
-1507.228027 134.892807 400.978729
-1014.331848 70.534386 420.807526
-1527.029297 151.338379 473.803528
-796.561401 -184.515762 788.422363
-1494.922363 145.158539 298.517548
-898.253235 -158.193634 754.960388
-1027.542236 -2.001922 515.491028
-937.868103 -107.603905 730.186157
