ply
format ascii 1.0
element vertex 1370
property float x
property float y
property float z
end_header
-843.408813 585.367981 410.521240
-759.924805 710.762329 -115.033745
-1146.905151 1294.504272 75.971878
-841.915588 839.685669 87.537880
-910.313660 990.864014 -482.600586
-1135.722534 1220.748779 -2.402997
-917.258728 685.386047 267.411804
-760.275513 717.331238 -169.009171
-850.346497 1311.391724 -143.129654
-970.387329 613.342834 228.333847
-813.673523 1150.383057 -396.174225
-961.769531 679.674072 234.962418
-961.416626 1085.014648 -341.546326
-894.718750 744.106323 258.980865
-979.309265 706.387085 -31.801350
-875.666870 1153.177612 -363.428223
-1009.588928 1015.793457 -379.246094
-1144.194092 1064.815918 -157.590927
-977.980835 1180.355957 -180.014923
-847.441345 660.326843 344.771301
-810.004395 696.633362 -113.341255
-796.788147 716.300903 -107.254456
-866.710022 1074.871216 -426.948456
-864.061096 597.958252 385.094147
-714.141785 766.455017 -105.313469
-987.656128 1073.421997 -345.165436
-917.000122 1286.162598 -118.974503
-1082.005859 1239.776245 -86.672279
-795.418762 1138.289185 -394.539276
-835.945679 1148.250854 -346.690552
-908.749817 547.452454 335.567657
-671.372253 809.796631 -94.577744
-822.303711 1203.846924 -291.665924
-892.900818 604.618469 327.062256
-1011.773560 667.225891 -12.821165
-987.329590 773.684448 102.233810
-925.671875 1250.950684 -165.345154
-1039.528320 1063.721069 -350.107483
-814.381104 811.000610 323.687042
-792.681030 1234.597168 -321.021362
-833.557800 674.071594 363.213104
-711.036499 842.413635 10.872823
-959.508606 572.532104 256.410461
-1140.864014 1054.580444 -201.533371
-921.868164 613.665527 303.092987
-887.658508 1238.834717 -238.458664
-944.898987 1039.945068 -396.861511
-914.737366 1086.625244 -405.252991
-958.791626 1211.018921 -205.741241
-1038.200317 1068.122192 -360.782013
-904.047302 1037.691040 -453.695129
-914.226563 1123.676636 -340.868011
-860.148621 766.185059 292.490936
-962.577759 1139.783081 -282.091949
-773.795959 676.385193 426.831055
-938.831238 631.443909 248.249298
-817.479065 668.802307 -163.936996
-742.082397 713.126221 -149.759125
-798.026794 678.420776 -184.528885
-849.928284 1201.034424 -310.805756
-947.971924 666.618225 248.659103
-888.302002 1233.684448 -104.653648
-861.132202 1138.276367 -357.842773
-773.473145 761.610840 371.817780
-828.365234 803.541382 310.747101
-1259.416870 958.993286 -263.640472
-858.450989 1263.098511 -214.368530
-769.998230 727.134644 -152.261414
-942.579468 758.251343 23.487085
-1001.333252 1207.688965 -195.051483
-906.964905 1345.417847 -74.238731
-904.819824 1233.587769 -218.380035
-887.634155 1244.441162 -93.681328
-1004.330566 1037.439697 -384.627533
-1004.796143 1107.668335 -198.240387
-1037.634888 1069.808716 -294.916626
-982.500549 1177.660889 -212.912964
-832.614563 712.238831 341.559845
-850.273376 636.302856 -190.968262
-670.862122 795.911804 -151.218491
-800.038452 708.208923 378.650330
-930.553528 1070.680420 -423.641785
-934.070618 683.142273 -37.194641
-865.097290 706.722961 293.729523
-757.259033 903.945496 100.687920
-653.967590 873.439453 -33.294994
-700.903320 843.700317 -13.748896
-1113.620972 1239.420044 -9.743810
-858.010986 1266.822632 -208.238464
-839.619141 1269.013062 -142.310043
-904.851624 1287.735229 -63.229465
-1131.620850 1259.013306 32.121212
-936.122620 1012.416138 -260.243866
-832.830505 1129.954712 -376.719330
-856.783508 1037.695068 -482.301788
-1094.832275 955.804138 -408.011475
-701.171814 795.596985 -158.488434
-1014.943604 1139.688232 -156.800552
-896.127747 518.558960 366.970581
-772.471313 774.766907 -51.243847
-914.576233 638.210815 -125.666962
-807.071167 666.402710 -135.382660
-920.784363 784.471191 240.752899
-1088.538452 1238.626221 -64.516251
-864.159973 1198.983643 -304.277222
-934.626831 781.161682 29.007113
-923.005005 671.572693 282.878204
-909.277649 1083.532715 -288.333099
-793.569275 727.802856 373.350586
-894.613220 782.138245 31.155434
-948.967285 767.225037 94.140594
-791.391846 785.623352 -47.758472
-734.751343 823.651001 -24.118898
-1140.280518 1292.446777 68.435501
-1210.993652 1311.062744 120.002655
-862.641235 875.663696 146.996994
-885.824890 617.132690 317.407043
-926.149231 651.575989 282.392578
-669.083069 865.507080 -34.453846
-1075.248535 1009.006592 -223.118942
-940.582825 1163.281006 -134.892883
-1095.720581 1240.809570 -67.845352
-800.898071 1207.552490 -342.406311
-840.683899 645.211243 361.925995
-983.810852 1175.466553 -247.391724
-818.552429 1058.138672 -474.626556
-1061.643066 984.721741 -379.643951
-698.684265 882.941833 57.946850
-665.648804 900.336792 25.133198
-912.259583 1112.165039 -309.307434
-902.450867 1260.229492 -145.385498
-807.873535 863.666443 86.993500
-936.108337 1212.880249 -190.725357
-803.430725 615.165649 447.100769
-982.896667 506.431946 276.773956
-797.662231 789.092102 -3.574520
-943.369080 1305.472900 -86.276718
-821.205994 628.810547 445.797150
-772.156921 756.500061 -65.325989
-730.990479 762.769043 -139.227234
-908.649048 668.178528 303.046356
-845.292236 781.277100 36.280216
-846.118774 770.256042 -7.258965
-1074.464111 954.067810 -437.417297
-997.958557 700.079041 16.124895
-652.066406 835.674561 -85.181488
-714.810791 809.589111 -60.346596
-837.628723 790.084656 293.915466
-1298.272095 1243.521240 84.445572
-849.117920 1214.161133 -309.444366
-780.982178 678.764893 -179.729218
-804.408630 842.572205 297.189270
-762.117310 693.752441 -161.644028
-776.659180 790.728333 363.298004
-843.116638 810.710815 49.458530
-987.586609 1097.297607 -305.123749
-599.822815 849.063232 120.010513
-697.321777 819.333618 -33.009449
-1016.744202 974.881531 -421.026093
-1230.756470 1264.726440 107.284355
-786.747253 789.749084 -23.393497
-834.658081 700.565247 -65.791359
-880.527588 647.004639 -112.419151
-786.854858 819.798096 18.993696
-841.313171 1192.378906 -316.718597
-855.698730 1061.669067 -454.613739
-1178.024292 1272.218628 79.809937
-891.841370 748.818909 260.232208
-1086.397217 983.866516 -358.816406
-1127.919922 1013.460876 -292.741699
-771.202576 775.619324 349.263000
-923.927612 1341.332764 -44.637039
-930.135498 660.508911 246.151489
-803.879883 913.286194 147.347504
-834.738586 1282.796021 -181.792969
-1084.201172 1064.854248 -261.220520
-1170.845581 913.295654 -384.709686
-1236.734131 1026.137451 -224.215683
-936.409607 613.669189 284.514740
-1041.885376 1081.530151 -261.342438
-887.362122 746.558289 -11.269701
-914.196716 1096.790283 -346.891937
-904.469910 755.355835 -6.761140
-1068.795166 1086.555054 -291.575836
-1037.403442 1138.848633 -149.246170
-963.761841 1219.557373 -185.184494
-630.202881 864.667847 -108.262932
-750.119202 765.060242 -53.440697
-918.060242 769.752747 249.348511
-906.906555 553.888428 356.592010
-914.935059 784.525208 235.346298
-863.053772 679.545837 327.975464
-808.182617 859.042908 90.156670
-718.242615 853.833496 17.453194
-863.843018 1295.913086 -161.808350
-1182.828369 1294.915771 78.578972
-966.915710 523.851685 261.441132
-1134.434570 919.083740 -329.213379
-882.037964 707.754333 -75.700172
-968.848877 826.751709 149.575851
-949.737122 1182.084595 -122.663620
-767.396667 808.057129 -4.828603
-1050.368530 1061.235229 -345.719727
-903.444092 677.176147 276.478027
-870.559692 1196.930908 -290.098114
-701.671692 820.969299 -62.519764
-1153.048950 928.702332 -375.281067
-956.656250 563.278137 266.305054
-1023.350830 1237.623535 -154.911087
-934.831909 1165.756958 -288.225464
-1027.460327 1235.059814 -145.549820
-873.341492 807.783936 36.430435
-946.923950 1234.605713 -155.394760
-1065.476074 1055.884277 -314.986877
-928.195618 1190.280151 -263.919098
-833.505432 1127.417480 -381.054138
-894.456299 773.039490 7.699798
-841.767883 615.371399 374.109680
-772.101929 733.189636 387.901764
-777.071594 829.782776 27.842134
-1285.496338 1224.059814 62.003414
-935.894470 610.701111 270.217133
-812.116333 724.382629 340.410736
-826.493042 732.418091 336.179291
-1028.073242 1072.270386 -348.110809
-681.544495 844.911377 -28.550640
-646.851501 870.748657 -115.849953
-926.734924 1189.019775 -279.460236
-941.199402 820.405823 84.486015
-661.968079 844.597900 -72.532570
-918.134888 863.191895 156.612076
-1116.509277 1227.585815 -28.477810
-893.909424 1227.868652 -138.974091
-767.913940 676.410767 441.308075
-804.513611 721.063416 351.566803
-951.876160 1226.111572 -185.013916
-903.290405 1102.366089 -311.315887
-977.634949 1250.943359 -149.385971
-802.992065 1133.932007 -424.411346
-1100.943604 1010.172729 -331.430786
-764.879761 876.745911 99.183136
-1112.794922 1231.219604 -61.038353
-959.828430 682.550415 229.117615
-1061.118042 1089.720215 -284.145844
-1241.408813 1027.203369 -207.152756
-841.793457 757.436951 -56.164948
-938.987732 609.753357 276.416931
-942.792603 646.973083 262.751587
-1203.365234 1300.286011 97.201744
-860.710083 648.765991 337.183655
-904.921387 740.322510 261.448517
-951.960449 535.736450 313.310577
-823.054626 774.823059 314.094238
-661.370850 818.556213 -110.451096
-760.217651 734.648438 411.688446
-983.332886 1143.582153 -272.718567
-864.244263 1303.297729 -152.295670
-691.425476 877.871521 43.756985
-1031.587891 1082.948364 -327.279572
-840.101501 852.942505 59.562859
-776.096130 682.166504 449.632599
-1265.610596 1011.276672 -217.692566
-931.383789 776.134949 38.222591
-1283.375366 1227.395020 104.609169
-1268.451172 1024.793701 -187.969574
-809.992493 866.104858 105.323997
-1001.522278 541.169556 237.152252
-758.007263 766.588684 -87.352722
-897.112610 1283.382080 -151.625061
-899.091003 613.057800 -120.688095
-915.751404 645.637512 -88.393745
-1017.595825 1044.350830 -394.438904
-971.707581 515.099182 279.011749
-881.859192 831.307312 89.102318
-1270.275024 1241.535889 101.922394
-789.319824 687.383789 -152.213837
-832.170044 1292.956787 -177.902618
-735.692566 878.993530 74.915176
-960.382568 686.394775 -28.339142
-842.330200 588.567200 396.318024
-898.002625 1079.533447 -377.952454
-819.864685 694.636963 -112.631668
-867.115662 1179.411255 -316.069244
-945.674866 985.018188 -469.615662
-889.243713 1284.797241 -158.548096
-1018.014221 1244.585815 -120.636971
-1025.800415 1012.403442 -395.605927
-972.530151 547.519165 274.756348
-800.924438 743.409851 -95.743286
-935.455994 1093.546387 -348.123444
-1322.599731 1025.198608 -148.582489
-942.274658 1254.862915 -147.593445
-880.427368 688.227478 288.847778
-990.834961 1132.302368 -262.058746
-819.802551 705.778381 -129.296982
-953.028625 683.497314 -40.042484
-815.256775 745.122253 -30.947432
-902.848938 557.734741 331.128387
-887.650635 696.500549 -60.911991
-770.263306 701.763367 -148.211716
-943.169617 733.095520 221.590973
-913.333313 661.612122 264.806335
-870.531189 727.402161 -37.573822
-846.297424 1302.496704 -157.867966
-862.875488 886.632141 299.633759
-680.550720 816.537476 -92.329689
-1032.595947 715.134888 48.244873
-930.687195 1057.122803 -411.360901
-705.694031 765.237549 -142.537918
-867.743042 774.813354 274.367004
-973.449951 1054.514771 -391.323212
-997.206177 1130.320801 -134.034592
-803.872253 871.579102 288.484344
-1015.781494 1092.848267 -134.159760
-887.044067 673.609924 308.721161
-908.053101 597.267029 326.463562
-814.878052 1139.173584 -421.021576
-898.492676 689.871155 301.227539
-949.900635 596.866882 255.867020
-1265.660522 970.759949 -268.770203
-935.495667 712.963013 -17.292309
-996.036133 671.992798 -20.806551
-814.852051 833.061157 59.992462
-702.921143 953.871155 95.969986
-963.147705 765.440674 77.043297
-969.269592 752.161194 32.478382
-1111.900269 1008.631226 -324.617310
-663.635681 819.360901 -134.125168
-862.943970 1296.483276 -170.338837
-1084.800903 1278.858398 16.259897
-1060.661499 992.659119 -371.393616
-767.366516 769.120544 -30.565641
-657.660950 832.319519 -125.405998
-806.962402 711.468140 352.442871
-920.750061 1220.358276 -222.846405
-1070.965454 944.387146 -443.233734
-961.100708 1018.978333 -438.241302
-849.199768 576.037476 399.322784
-987.996643 1049.970215 -408.826172
-776.243713 767.317749 -33.774754
-932.276917 504.353119 336.554474
-891.492004 1069.247192 -441.238586
-809.613892 657.861572 393.201294
-1157.102783 987.640015 -284.197266
-833.071594 1102.442505 -430.577454
-1088.989868 1037.061646 -334.842987
-821.241577 1295.466064 -224.410751
-831.668701 873.364197 96.498207
-1143.457886 1004.327637 -309.889954
-880.478760 789.390869 270.754547
-994.722595 655.584229 189.300446
-801.876953 816.896057 44.163578
-656.338013 832.351868 -95.028656
-814.162415 651.174927 420.406067
-859.165222 631.649231 -183.333145
-926.129150 579.316956 302.290161
-1001.896851 1202.422485 -201.988083
-878.244141 1139.012329 -329.084961
-873.551758 768.375732 256.538391
-639.487061 855.393127 -59.846104
-796.414307 851.121277 87.465172
-959.356689 1036.674194 -396.071442
-928.555969 811.157471 97.826279
-666.337585 822.658997 -156.504822
-808.061584 1240.270264 -292.901947
-847.257751 1356.044312 -97.420723
-899.411743 1304.775513 -92.156563
-719.952148 736.356689 -163.303406
-866.012390 1181.177612 -324.870789
-760.051514 804.696777 2.519528
-625.777283 834.118408 305.399628
-1271.379761 1029.199097 -175.482056
-1018.906677 861.409973 200.777115
-995.110413 762.097412 66.056168
-661.629456 863.310669 -33.107178
-699.024963 780.544983 -108.135193
-824.384460 808.079041 303.741608
-961.562378 1182.360718 -250.223373
-958.589539 1183.326538 -234.822464
-783.113953 764.078186 358.790680
-888.779114 620.169800 315.026794
-693.263306 844.416016 -18.818579
-788.939087 731.602539 -91.883347
-1054.426392 1068.650269 -281.179108
-728.145630 745.644104 -152.370850
-909.210083 1148.933838 -327.498688
-990.024597 673.119019 171.699112
-1050.229614 1130.984619 -110.196304
-902.559692 1328.954102 -84.228516
-966.356567 1225.460938 -175.905441
-1030.923950 1034.435669 -299.735870
-823.989807 691.965393 -145.971008
-962.661926 1226.282349 -193.048782
-872.862610 1251.381470 -194.530640
-856.423950 1232.663696 -230.895096
-968.280701 1200.378662 -135.429993
-828.265747 646.260376 383.516663
-917.862610 612.450745 285.614014
-805.707397 603.896423 454.136536
-648.945007 842.141418 -80.765968
-851.014587 1267.959595 -184.398239
-988.696716 596.640869 213.216446
-740.150452 757.403015 -133.779572
-838.430908 1096.967407 -435.082855
-906.577087 1199.909058 -261.839722
-1028.560791 1072.174316 -362.494720
-797.570740 715.538269 373.464172
-898.053711 536.768494 408.529572
-944.102295 856.231995 161.607498
-825.495728 1253.142822 -251.937546
-867.402405 799.006348 243.136963
-1000.588562 1196.280151 -208.574036
-773.515869 711.652649 406.404724
-1093.565063 962.187988 -279.568604
-818.844543 643.647705 384.187927
-1020.405762 1102.126221 -199.587738
-665.468445 871.114075 3.886751
-887.484009 682.486084 308.237091
-1003.020386 691.536560 173.825745
-1093.320190 959.967590 -400.411316
-889.299805 510.827026 -77.359634
-878.543518 774.063354 273.942688
-939.402893 1051.190186 -203.527008
-800.094177 1258.313843 -262.730286
-810.776794 638.668823 439.037079
-857.663513 1096.197388 -426.511566
-861.265137 788.360840 273.740234
-831.907532 1079.553223 -457.952454
-1075.106567 1272.024536 -13.571773
-892.692871 1213.402832 -224.203720
-1041.962646 961.994202 -445.859711
-903.206238 746.021912 -18.906527
-847.972290 1175.176758 -346.132477
-858.165344 889.481018 145.590347
-754.658142 788.022034 -22.245378
-1134.868042 917.685486 -361.266510
-909.508972 586.136414 316.237640
-910.163818 615.951782 320.904449
-552.653381 827.701416 152.144363
-785.357971 706.735840 390.501495
-939.228210 627.866089 277.000946
-880.966736 1182.665161 -302.384918
-942.765442 532.368286 294.561615
-819.014282 1212.633545 -319.484833
-716.205688 920.458862 92.304626
-908.789490 529.094238 342.757751
-748.695740 738.340332 -117.407204
-831.248108 864.800110 68.540985
-798.083496 751.071045 354.487244
-1090.634521 965.716064 -397.782837
-871.366943 1329.346924 -117.173340
-1297.263550 1045.406982 -189.715698
-1017.011353 1083.507935 -153.772842
-864.620972 728.238098 283.450806
-789.857483 669.459045 419.033295
-788.019104 820.542053 340.757904
-863.723755 870.758484 140.971375
-939.608765 758.142700 209.744781
-905.222046 1272.599609 -142.479950
-819.993286 1144.915527 -401.847656
-1230.607666 1324.793091 124.438583
-679.640137 792.027832 -118.035583
-814.099243 834.754456 284.465729
-814.069336 823.888062 291.477966
-723.232666 881.074829 62.702877
-659.519043 918.068542 41.957836
-885.557068 798.537231 245.660065
-814.471680 814.757996 293.168915
-1050.800049 1017.526123 -377.944702
-1088.933594 951.395935 -422.367554
-1020.088196 711.579651 40.075924
-1044.097168 935.696350 -450.448547
-1189.680542 935.854797 -325.599792
-882.286438 1333.625244 -106.964645
-857.867554 1049.429565 -475.978882
-993.166443 1073.709595 -174.603638
-774.552246 734.401978 375.419373
-766.437439 754.113098 -75.418785
-786.898010 777.810486 353.945129
-963.510132 1048.789673 -406.245972
-743.348267 697.001892 -205.308762
-843.292358 659.708984 354.273712
-988.466675 612.970459 219.593124
-831.310364 1289.412231 -183.506180
-945.680237 552.878418 308.574585
-925.273499 645.442200 286.266205
-1082.841919 931.091675 -426.324463
-832.149536 1327.118530 -162.849426
-1110.383545 1259.200806 -11.250110
-794.679260 658.820190 395.211212
-866.588196 1282.507324 -198.029572
-956.256470 1156.827026 -283.479156
-944.924866 1259.239868 -160.627914
-901.386353 685.777100 -86.676750
-720.043335 751.248535 -160.336105
-825.138672 1369.038330 -95.051514
-899.719177 739.325806 259.279724
-684.066589 798.542053 -120.647797
-812.599915 816.100220 308.122681
-841.921326 696.500488 -133.388123
-934.836426 688.368042 -31.258059
-825.547119 652.622375 -148.103729
-1016.149048 1136.020874 -219.416214
-743.044861 857.822998 50.115986
-816.342712 1119.046265 -402.178833
-838.034546 755.179138 -41.582455
-933.271667 823.362183 101.571098
-812.051819 749.344849 345.960846
-1174.871460 917.700562 -358.162140
-909.452515 1015.443176 -476.049042
-899.854858 1227.638916 -253.296661
-951.161682 1216.134644 -146.214676
-979.459900 1136.230591 -139.589645
-909.256836 522.632935 348.465851
-958.327332 1211.383423 -111.797806
-869.483276 800.405579 252.338165
-917.972839 547.530701 356.666504
-821.726074 1227.965698 -284.946564
-941.574829 1245.400757 -177.318008
-830.764526 792.430969 299.635406
-805.973511 741.074646 -100.635017
-942.569458 711.380371 205.033890
-937.871704 827.051575 121.446465
-617.497803 912.202637 -49.927155
-735.788147 784.149231 -41.454197
-783.748108 832.146667 315.146210
-885.223022 1303.091431 -109.116150
-828.744324 750.003967 310.906769
-977.417236 1027.182495 -443.062836
-691.957214 809.036682 -71.282570
-927.445374 687.800598 253.063034
-816.984863 705.740479 -77.556259
-678.167419 792.755432 -92.675270
-781.582397 700.088867 411.990570
-895.689514 893.179565 180.827042
-904.139221 1059.782715 -418.945465
-854.656555 875.929443 255.235123
-742.524292 762.582825 -84.746078
-1025.096313 1093.695068 -279.790375
-1076.590576 1215.307617 25.199371
-822.922302 1103.057739 -422.642181
-1070.107666 1167.600708 -61.467419
-932.210449 1239.920288 -188.174393
-975.080872 587.997742 225.534271
-830.353760 1337.210938 -109.215652
-809.484619 744.341309 345.079071
-873.614197 1206.135132 -278.673859
-854.550659 1044.419434 -480.675079
-642.271484 902.356750 -29.163372
-877.850464 728.381714 -27.002539
-956.445923 682.887024 -3.257878
-716.915100 886.551636 33.678261
-873.130615 636.550964 349.312653
-816.616455 735.528259 332.744232
-832.574768 822.911987 260.663147
-801.629150 672.532166 393.097229
-873.581360 750.153992 277.658569
-910.060669 1177.711182 -286.878784
-1230.817139 1259.403442 99.532463
-992.926636 565.584412 230.096954
-960.200134 1224.806763 -178.842514
-823.636108 1244.201660 -260.759003
-813.270081 663.586914 -192.387527
-705.555420 768.012695 -111.916550
-831.887329 1329.512939 -147.889786
-981.895874 569.828247 230.524200
-915.271912 640.622009 -94.142952
-875.085815 1237.248047 -259.653595
-642.156433 857.853271 -57.297775
-852.395447 852.369263 110.958366
-863.891052 1275.261353 -149.921707
-930.587341 1060.435303 -436.135681
-805.960205 849.227844 82.914680
-912.128296 629.608948 304.693939
-979.800415 696.461548 197.813690
-974.745789 1073.888062 -308.793823
-850.983704 650.272949 339.002045
-828.081238 597.268677 438.032959
-1168.330566 938.477478 -336.648132
-742.141602 928.102661 166.602463
-964.056091 601.192627 251.485931
-838.878479 856.827698 264.830872
-892.183350 1242.456787 -116.625809
-1068.191895 1010.167603 -386.134918
-845.120789 1181.007568 -328.313385
-762.296204 687.260742 -217.081726
-1112.887817 930.409790 -372.641418
-649.648804 847.416016 -82.059662
-1255.842773 992.306885 -225.230621
-817.571716 661.498413 -167.518280
-777.262878 812.293213 -30.959522
-736.562195 758.443115 -108.682419
-651.683594 857.825012 -95.579643
-937.488770 1231.910889 -203.768448
-983.036316 1045.904785 -395.044373
-1053.732910 731.240845 74.305351
-842.063599 1336.668457 -139.651047
-784.241455 698.167419 -133.723312
-791.883850 786.206055 339.048492
-1118.639771 948.297058 -421.509064
-858.425415 782.489319 34.489643
-800.815613 775.437134 340.136841
-796.292297 1167.156006 -352.238312
-879.265930 855.753113 114.762123
-1040.319458 1057.220459 -306.574219
-965.480774 688.080566 9.265524
-933.149475 1211.573120 -226.871597
-949.494019 1043.337036 -444.030243
-1021.202576 725.757629 47.902794
-953.718750 1007.225159 -430.250275
-986.192566 624.697510 205.459915
-801.892639 1245.111694 -257.655365
-822.248108 1275.805786 -113.108986
-1039.104492 995.800964 -386.647095
-671.460938 891.749939 25.406565
-811.064209 837.562378 38.742279
-808.416138 785.015076 322.356812
-829.135803 1135.851074 -397.485382
-1126.481323 931.716370 -384.839813
-861.537903 585.830383 405.352386
-719.440308 754.279114 -136.014099
-890.513733 566.434692 371.180664
-1068.059082 1067.678589 -322.285553
-781.605591 732.938904 383.649719
-1099.165894 1225.353516 53.144444
-812.973450 768.912598 316.783752
-796.506958 703.128052 -164.419144
-826.395691 835.238708 273.683441
-691.900940 853.232422 11.701558
-1133.548828 978.295105 -366.627289
-663.967773 880.579956 7.035076
-861.493896 1245.418945 -254.325882
-822.532837 1247.212402 -255.788086
-979.644897 524.306519 290.926147
-882.011414 1266.945435 -169.632446
-795.341003 731.560669 371.941528
-860.104431 1190.517334 -306.703888
-944.054321 687.018738 -58.407887
-1004.964966 1051.003540 -364.899811
-817.945313 589.133972 430.458954
-858.157349 1091.416504 -328.317230
-972.241150 1094.812988 -341.867065
-839.841553 718.738892 -69.945679
-865.083191 1108.851318 -346.320313
-811.711182 724.352600 351.500244
-800.969788 682.793945 -145.893066
-1033.552368 732.211182 57.224133
-861.174805 1055.697266 -468.865662
-904.253052 621.597229 308.289948
-854.447815 1086.658936 -445.247467
-819.183716 864.783936 70.511124
-987.267212 1161.800049 -223.910019
-681.415894 814.551636 -68.705917
-804.293823 1156.979248 -364.732117
-641.805298 849.383667 -64.688896
-811.173035 1277.263062 -229.127747
-1109.918213 1008.111084 -277.580902
-838.639404 1190.924683 -318.613403
-1080.353882 964.780273 -419.889435
-839.674988 1094.907227 -450.199738
-854.106018 726.329956 326.135284
-893.292542 799.343811 243.237000
-742.106384 919.770203 179.565369
-993.513672 603.305237 203.500946
-1039.456177 1008.063721 -150.573196
-869.169922 800.206177 33.122665
-789.798889 853.383667 305.591339
-1175.192627 1101.714233 -80.415588
-815.570068 1296.430176 -167.291656
-814.368896 678.851379 366.386322
-821.861023 777.206421 317.727570
-783.531921 682.646118 401.715515
-976.937012 743.336670 38.772373
-879.418945 797.411804 44.990059
-817.592957 1227.510010 -301.885681
-849.959717 754.899048 301.124695
-974.869080 1231.352783 -163.410110
-750.942505 735.817932 -139.333817
-684.223267 795.098328 -162.742462
-836.669983 804.416626 277.303192
-664.386658 872.929871 -130.037186
-1173.932129 910.092590 -410.937378
-879.598511 1253.306885 -224.363571
-894.620361 1087.312988 -398.961456
-1088.731934 1251.499634 -65.408936
-1124.755493 974.751892 -298.860352
-861.247009 569.021240 383.928101
-984.749512 1167.279785 -187.486832
-985.112854 1176.546875 -247.514801
-735.644531 714.845825 -152.326538
-833.517700 624.643433 394.234589
-825.973938 720.686646 343.374603
-887.349243 1002.889282 -160.137817
-837.870972 761.677063 300.449097
-760.764099 813.083252 -6.152909
-968.011536 578.210938 248.175613
-1174.723877 933.657837 -331.178619
-858.487305 1089.147949 -398.540283
-1104.814697 1257.633911 -24.429668
-1014.757874 1114.227783 -154.805710
-988.337891 1153.363159 -266.957428
-857.823181 691.634155 -93.524895
-795.936157 616.572388 437.829742
-814.986450 859.920044 92.124664
-843.273987 677.174805 -117.929520
-843.486633 1092.555664 -425.510101
-794.694153 1187.830811 -352.478058
-897.680542 842.853760 100.645020
-977.721375 1070.363647 -368.329132
-983.368774 644.569275 196.105118
-1046.208130 983.977966 -388.498718
-710.442017 810.801208 -45.424957
-876.649109 1085.478394 -443.900360
-909.024658 544.851196 356.798004
-875.177795 1051.240723 -475.322784
-971.649658 707.699280 196.214417
-863.876099 730.015198 -33.505970
-983.163147 652.599854 205.876343
-1109.549194 1032.537720 -233.121231
-740.730774 721.804688 -123.894135
-821.670166 1292.380127 -205.352478
-817.983398 741.522034 -56.009911
-1114.348633 943.131165 -370.077209
-1049.203125 1039.385010 -344.964508
-1128.122681 1224.543457 -9.405127
-861.473328 655.879639 342.926392
-1158.693237 1022.317383 -252.586975
-1102.526733 931.293396 -436.215759
-924.778137 1094.434937 -353.273254
-764.229370 723.819153 -129.199661
-968.260498 689.351685 190.045166
-960.773926 562.864685 284.254303
-963.943115 1136.509888 -133.503845
-774.278870 723.666504 402.330017
-781.852600 1125.179810 -413.987885
-1232.890625 1074.268555 -147.158218
-871.716553 843.563416 106.656036
-723.055603 745.813843 -117.382744
-1150.510132 1276.790649 56.827396
-689.042908 835.935242 -42.212921
-806.613403 679.860352 -222.758560
-896.525085 1262.089233 -206.606537
-904.496582 1120.031494 -334.125153
-900.317749 1057.757813 -351.895050
-727.620361 860.630310 26.151218
-776.903259 843.646973 332.506500
-794.709229 783.595215 337.430573
-831.258667 816.645874 284.690369
-921.285095 1243.958984 -145.956024
-1081.434692 924.599976 -390.015625
-780.444336 836.281860 35.126461
-825.766052 739.518250 -55.255249
-865.426575 1228.546997 -272.751190
-796.896423 856.354492 60.983124
-886.702393 1085.891602 -343.413788
-1309.903320 1010.662048 -151.292511
-755.132690 720.945801 -176.444366
-955.448730 1027.101318 -431.411743
-810.867065 1158.584961 -375.570068
-849.702087 1085.620361 -393.712067
-862.292786 752.697449 -17.795607
-806.406738 791.507935 334.712097
-807.688171 660.668274 401.351471
-795.088257 1190.849854 -322.811127
-789.649475 1132.522095 -420.415649
-782.514221 836.761292 2.058393
-865.025940 555.596619 395.491028
-891.387634 731.591492 281.290283
-678.318176 795.764099 -153.170731
-848.273499 1127.404175 -368.186523
-865.631775 628.303711 363.033905
-773.633850 681.946228 423.061584
-1108.046509 920.376770 -408.772919
-808.732361 1114.565063 -442.230103
-702.950195 760.207886 -125.669243
-887.853088 1003.368164 -136.734833
-858.569275 637.912048 354.686981
-1002.649597 727.898560 63.730923
-1312.664917 1190.933960 85.740273
-651.288635 850.086121 -74.426842
-1116.456055 994.428345 -330.205994
-813.882690 687.019714 357.702393
-900.547119 743.501587 261.794861
-862.105042 1214.209595 -274.691467
-1013.926086 1056.693604 -117.082939
-1091.172974 996.098755 -229.790298
-876.877014 1024.702393 -466.206940
-668.007507 915.015076 15.318561
-923.420349 1027.494507 -215.858322
-1073.647705 945.978577 -441.839996
-921.022400 642.295959 278.734314
-680.197693 821.679199 -142.655746
-829.406555 637.244385 382.647034
-857.405090 626.138428 362.559052
-912.161194 502.822235 370.566498
-1262.386108 989.272034 -278.823944
-970.739441 1085.095947 -352.121429
-892.893127 594.011292 331.309082
-848.001282 1245.087769 -261.206970
-1004.310547 1070.414063 -264.187378
-997.419189 1036.506104 -386.823181
-983.597778 1058.819458 -222.799713
-912.612000 1338.824219 -68.418488
-1075.551270 957.944824 -425.981476
-657.337524 820.565674 -81.097145
-957.779846 851.377319 166.973480
-687.052368 814.453308 -63.262100
-983.987976 790.953369 93.139740
-977.013855 1160.953735 -257.869812
-966.195251 1152.912720 -267.764038
-776.059692 849.270813 50.466133
-860.391479 1277.048706 -186.280746
-1232.819336 1005.271912 -182.432129
-1066.014282 1000.440491 -382.183380
-822.960510 810.519958 292.105591
-841.879395 1138.620850 -369.430725
-1119.127930 1221.590698 -39.821877
-798.334045 819.207458 326.945190
-901.181946 763.700989 22.729643
-842.956177 569.625061 413.266205
-662.804199 815.297424 -104.555153
-805.154602 1208.194824 -342.081818
-832.385437 809.762878 301.708954
-978.664551 1132.882813 -167.244827
-811.582520 616.010925 428.018463
-635.396240 883.172607 -89.567078
-871.897583 670.979248 325.863892
-744.116638 737.738464 -117.377640
-985.123413 1054.440796 -372.962341
-1114.553223 965.650146 -314.729767
-646.929688 892.346680 -97.492920
-997.558838 1252.858521 -101.376892
-915.118164 686.245911 -28.011642
-972.169922 1225.989746 -184.770416
-849.864502 1358.245728 -87.737350
-1015.113159 1051.396240 -359.632629
-935.324585 1110.941895 -321.287170
-631.395020 893.050476 -47.708179
-986.778015 1203.469360 -155.446945
-832.981201 754.063782 301.565491
-849.880859 1161.732178 -343.170349
-812.604004 792.866150 321.757324
-810.633667 718.746643 -112.617729
-1086.702271 1052.497070 -303.416962
-933.504700 715.020020 16.737995
-920.783081 1023.410583 -458.449066
-813.078735 777.585999 -30.773911
-840.809387 1184.733765 -332.530396
-784.279785 736.719849 381.085938
-782.661011 711.313232 387.066711
-894.349854 758.597290 244.359543
-970.952637 633.221069 230.464127
-856.554199 1260.389038 -148.020554
-934.224976 1291.420776 -71.129364
-964.541443 1202.538818 -158.004410
-834.472290 646.259399 -166.571548
-805.378052 830.176453 68.235268
-875.639099 719.971558 292.318939
-861.153015 579.779602 403.868652
-815.814758 1152.053589 -388.204620
-755.905273 699.150269 -157.853653
-957.358154 1174.889893 -250.931931
-851.754272 1099.559570 -385.749969
-807.671204 680.476501 -153.406769
-910.770569 709.226990 260.208649
-751.082703 887.184204 79.915276
-1010.364075 1199.464478 -174.336914
-1112.606445 969.577698 -348.059265
-704.247681 928.462585 94.693443
-928.036804 541.883057 327.426971
-824.622620 801.407410 46.661842
-836.416260 612.774231 387.563629
-686.238892 795.792725 -97.817062
-934.068787 1144.332642 -305.851074
-1100.090942 1191.558472 -56.743027
-647.039734 894.703308 -97.269661
-598.340515 900.059692 43.916416
-889.581177 764.044922 15.124587
-1205.956177 1279.957886 106.662354
-904.179260 578.763306 342.669281
-1185.935425 984.179199 -260.959015
-727.708557 900.767395 91.307411
-1252.031738 962.391724 -282.923065
-816.762146 1276.528076 -201.490967
-876.356323 711.596069 -88.211708
-776.058411 773.188232 -38.519737
-1104.422607 1211.160767 -75.864517
-977.212524 1045.475464 -251.603439
-905.486450 1240.608154 -215.427795
-698.270447 855.466431 13.531334
-1129.364502 1208.478394 32.454758
-864.820190 1068.938599 -460.294403
-892.992249 1066.888428 -371.589081
-991.007507 1051.636108 -208.708084
-683.910645 903.499390 53.512505
-936.591736 755.675171 47.350933
-814.049255 1320.801758 -192.714813
-1053.818359 935.770508 -442.931274
-887.449463 841.274963 136.729126
-1115.852539 972.601929 -376.377563
-685.308960 758.905151 -139.258423
-811.911316 624.573120 403.233948
-957.683777 546.304443 282.474731
-877.998352 520.687927 -90.632515
-896.862244 1131.851074 -349.590485
-897.661194 639.812744 316.787415
-661.395813 844.245361 -37.744465
-916.199646 682.456360 278.888031
-820.081543 1144.271484 -363.058289
-824.175415 806.783386 297.899872
-955.493408 516.552795 295.814697
-790.988159 1255.209229 -268.868958
-758.509033 761.136841 -51.716255
-1015.344604 1243.502075 -74.166435
-1121.576660 940.137024 -371.724823
-1082.791016 1004.897888 -365.818085
-906.845825 866.821045 153.061066
-873.356018 1273.604980 -142.612045
-794.871887 884.094055 118.421341
-788.067444 790.178467 352.890839
-783.663330 932.958069 154.456802
-821.878906 1097.663818 -425.208862
-1158.148315 1316.677490 95.494644
-804.758545 795.682068 326.521515
-861.379639 1077.899658 -415.616394
-877.973206 803.813904 248.950607
-1080.650879 1045.883545 -338.236633
-706.588257 797.754028 -88.951752
-788.184875 723.830383 366.143219
-932.639038 1014.149414 -268.968140
-646.858826 835.695313 -141.772079
-942.488953 581.323303 289.351410
-940.993408 1186.675415 -261.290497
-1302.271606 1004.900024 -194.766251
-652.649597 836.350403 -139.797836
-893.880798 1021.854797 -305.937317
-898.225159 862.292542 125.035240
-750.557983 719.962708 -185.207901
-1088.401489 974.255737 -376.342621
-809.199768 732.151428 353.421112
-1023.269470 1046.681885 -355.144379
-1042.153809 1027.859863 -370.962769
-655.861877 855.165771 -29.797646
-1147.210693 885.301147 -397.359344
-903.857544 1165.564087 -278.212952
-799.944458 672.535034 400.127136
-733.908997 763.527283 -86.293510
-838.782532 1176.040283 -366.526581
-870.519165 706.282654 313.571106
-907.430969 1257.710693 -166.727783
-896.217529 1269.108643 -180.317963
-963.725220 706.238892 -39.618042
-787.762817 687.692993 401.367676
-762.735413 775.046631 -57.857304
-897.845398 1346.442749 -57.701294
-936.256470 698.842041 -19.328959
-930.438477 667.627136 -63.951084
-1088.134888 1213.820557 -38.358143
-812.705872 893.427307 124.216934
-931.580261 728.868469 204.880692
-677.775696 865.807556 -39.893944
-1196.505859 1264.680542 80.290192
-716.558167 790.616516 -89.692345
-954.376465 715.358521 -36.020786
-811.695435 673.154053 372.226440
-724.457581 751.269836 -95.121674
-673.527527 804.931152 -79.659546
-984.817505 1144.275635 -216.415054
-915.383545 633.561096 315.318542
-863.594543 1286.894043 -147.013504
-817.850281 1173.724854 -358.946106
-809.786377 873.553955 262.428101
-1013.341980 1092.155273 -288.303589
-732.393616 741.105530 -160.884674
-990.127563 1018.466248 -414.402435
-797.008118 694.636108 390.322540
-921.720032 1082.243042 -404.453156
-908.648132 1114.806641 -365.930328
-1138.315063 936.993958 -184.695511
-852.383728 821.355530 281.408112
-739.078064 787.745300 -50.819408
-718.673096 767.036743 -104.816528
-925.465637 1276.367920 -146.925720
-794.184143 1260.141602 -283.828217
-827.033142 763.698730 318.846619
-943.288147 630.781616 250.769669
-825.916504 1305.804321 -185.501892
-1103.056763 1048.942261 -312.564545
-977.082397 1041.364746 -400.713623
-884.652466 644.382263 -127.996902
-785.322632 895.165222 87.894310
-1228.718750 1279.672974 125.103569
-1034.480469 950.882751 -435.424133
-875.101013 1326.580811 -93.488548
-969.347229 1069.143677 -392.030701
-819.012390 1128.370605 -405.019318
-920.635254 507.472168 347.517151
-743.296936 720.797241 -160.002258
-948.021973 1176.497192 -116.451759
-921.484375 530.053284 353.052002
-637.507385 914.218689 -33.291740
-1107.487549 1225.939819 -61.032658
-803.383850 695.208191 -190.901306
-779.935181 693.164673 -126.893829
-902.938171 684.948059 -85.593475
-824.105957 736.691895 341.148834
-782.851501 1210.614014 -332.658020
-1012.230591 1122.890015 -194.386169
-1101.197632 966.906860 -306.308105
-655.911072 888.741028 -18.912722
-708.446716 815.747925 -42.859928
-943.097717 621.270569 273.469543
-882.901245 803.480408 88.449104
-627.386658 863.032654 -98.608917
-866.679199 1082.866455 -377.515350
-968.692627 1045.743286 -401.878479
-985.260193 790.426147 126.684105
-1217.335815 1276.810669 111.973633
-949.170288 1188.466675 -252.842896
-954.608459 1057.499023 -411.804962
-837.214478 1103.324951 -414.397980
-868.592896 1176.564697 -288.626160
-993.420288 1119.590332 -230.837601
-1174.157715 1324.055176 82.811050
-907.569824 615.450745 305.328613
-863.259338 744.392029 275.905609
-894.337524 788.875793 242.562485
-916.862915 704.275391 255.887512
-855.777710 1211.855591 -279.067413
-954.994568 1079.401001 -372.052826
-957.910767 827.268311 145.139053
-820.674316 1238.077637 -293.737335
-814.174622 768.846558 -4.414012
-864.119080 1248.159546 -227.819916
-742.747864 817.720886 9.161818
-1100.605347 1016.312866 -265.199677
-903.625183 832.811279 121.964813
-786.289063 662.622620 406.263092
-680.121582 888.515503 -8.359758
-826.633789 1100.143311 -415.956726
-869.503967 823.589783 269.437195
-842.537109 1209.368042 -265.928894
-934.085876 1317.651733 -90.710648
-892.780457 1170.980225 -307.040161
-761.205688 733.516602 -94.598846
-827.751709 784.414795 317.659424
-818.550476 1091.247192 -405.595886
-931.387573 1177.805298 -271.809021
-782.363281 706.076477 406.906006
-901.048767 732.047180 -36.994816
-792.865662 1122.230957 -440.126740
-1062.750610 1224.617676 -86.746635
-814.538269 646.728210 403.246796
-930.797363 617.757874 278.209473
-891.877014 691.758606 272.278259
-1093.762329 1020.341492 -327.932312
-680.461853 881.434998 5.857101
-978.060486 1058.677979 -404.885284
-907.936829 548.182007 361.608185
-801.472595 694.925232 379.891296
-611.618530 836.955688 270.253052
-959.589600 1210.086426 -137.724869
-818.442688 1336.571533 -169.541824
-965.936157 1233.935791 -135.942886
-638.450256 883.191467 -106.442451
-851.481445 644.656616 -121.923424
-813.433838 1316.457520 -188.947311
-832.864380 635.108215 394.307037
-921.812378 1168.813843 -296.073273
-909.608704 853.688049 124.189232
-777.710938 679.916382 410.216095
-792.722595 823.292419 33.389595
-876.144592 1172.008301 -316.685486
-855.792480 720.281128 -91.891983
-977.767395 704.923523 179.123779
-919.812561 1038.530151 -462.922852
-968.048523 794.970215 111.768517
-907.246765 538.445435 373.142914
-872.529602 1259.201538 -231.273956
-1004.355103 539.359131 226.292694
-851.868958 1149.218384 -342.486084
-913.101013 632.559570 -101.556808
-741.933655 768.971680 -55.181660
-842.001526 674.694946 343.126343
-867.110657 1249.580566 -248.977112
-660.070496 873.690125 -52.515221
-597.340698 835.963745 221.213089
-986.625122 996.139160 -421.974030
-796.871643 1155.967285 -371.861176
-749.595154 726.513184 -101.227081
-884.715210 1030.826782 -452.314575
-1055.532471 1260.700684 -48.680737
-1137.149780 947.253052 -394.164612
-891.171082 648.501343 296.840057
-1106.463745 1029.776733 -296.388275
-824.049561 778.044006 319.144287
-819.021973 657.038696 369.478180
-774.985962 798.379028 348.727234
-997.861328 1042.368652 -181.999756
-947.626831 704.544250 221.185913
-892.194092 687.715027 289.735413
-927.242188 546.853271 314.694061
-1127.345215 903.451294 -319.262360
-809.102722 1122.567993 -403.420837
-894.067566 1200.297485 -268.595612
-845.277283 1274.720581 -228.175751
-1054.938477 1087.883423 -277.840057
-881.970398 810.542053 244.516586
-1022.975464 723.491455 19.327061
-650.299011 882.098633 -10.336895
-967.695618 1036.665405 -414.439209
-1207.434082 1035.709229 -222.247971
-868.971252 1244.878784 -129.031067
-865.273438 588.617798 412.913025
-725.313721 841.062134 3.987230
-917.883118 707.091431 270.949738
-857.829651 1220.657715 -269.483185
-840.154968 757.084961 -0.149908
-666.523682 884.591858 -29.063925
-782.000610 764.808228 367.098541
-640.973389 883.892944 -55.701748
-806.354858 753.376099 -40.173271
-1007.703979 971.200989 -439.591522
-783.450439 723.015625 -108.604797
-948.811707 635.017761 242.661255
-833.629272 1308.304688 -170.846237
-944.184814 1215.005127 -230.033386
-1028.425171 1253.219116 -84.696243
-813.676514 755.603394 342.171417
-751.983948 812.421875 350.764862
-955.433228 768.550964 46.611271
-668.547058 927.623413 19.958170
-905.359009 658.895142 296.225128
-795.825317 733.512817 -119.151978
-965.902954 639.026123 233.757355
-749.950134 706.950867 -205.180542
-819.261475 881.555420 294.573914
-937.419006 1161.966309 -306.841949
-762.341125 696.362427 445.815186
-874.826233 1052.973022 -453.095825
-892.633057 1047.151489 -455.214874
-922.259399 1139.446655 -298.041901
-825.832153 1190.270874 -342.278137
-1281.999390 1004.825806 -240.311707
-631.736084 868.420959 -74.914764
-1016.383423 1174.214355 -201.743332
-1055.351440 1026.297363 -209.621735
-960.411865 563.922424 253.396805
-671.866333 876.540039 1.421394
-875.720276 1285.732788 -137.904724
-824.918518 737.773682 339.751587
-1265.980591 1244.272339 70.301987
-1047.739990 1011.075195 -400.535339
-805.653870 674.405334 386.348389
-644.432739 867.533508 -49.250648
-803.537842 696.900452 372.293793
-719.986023 849.707031 -10.989285
-764.642456 696.475891 -179.103928
-1266.327881 1204.993042 90.297882
-879.793335 660.487122 318.250366
-675.824585 898.829102 113.471222
-956.308044 644.639099 228.323776
-780.349060 722.602966 388.243561
-741.781677 916.278748 89.829994
-825.204102 805.955017 52.395714
-828.361267 1282.629517 -232.789612
-829.582947 1076.846069 -419.474701
-973.827881 609.686157 242.943649
-757.851501 720.329834 -156.186783
-996.010864 627.409912 209.946274
-924.143921 1130.080566 -332.391602
-953.826294 999.219727 -465.130890
-907.746033 792.686523 42.467354
-814.083679 683.201782 374.003754
-1122.158203 925.715759 -381.614258
-804.373169 869.428833 75.006142
-853.548096 641.446472 -153.365158
-916.588379 1294.672241 -113.345085
-855.966919 1280.883667 -171.423950
-966.231995 652.459106 235.965179
-869.742920 1281.253540 -153.501343
-812.020447 1074.772461 -458.512726
-933.892151 1172.709961 -273.138763
-700.043274 862.591858 30.926876
-848.330261 646.076721 360.940582
-921.369873 663.595520 -71.542885
-881.724976 775.085571 -9.954694
-759.956848 694.682678 -176.755066
-745.121155 781.415649 -67.865334
-904.544861 1093.151001 -270.846558
-555.705994 819.179565 185.504745
-820.285278 745.646057 333.253479
-963.495850 1105.736084 -236.353134
-1005.942078 1077.126465 -325.698029
-1178.779907 915.815491 -399.378357
-677.571899 787.779358 -148.013535
-700.770935 871.148743 41.600521
-1034.033936 1171.562744 -199.370804
-1144.442505 1186.155762 -79.012764
-928.916748 775.407654 55.891769
-946.757507 829.721741 119.084297
-754.136169 714.486633 -170.380859
-1124.570435 991.127930 -343.547913
-1091.023926 1206.854736 -127.271255
-813.762207 711.494873 363.166595
-1126.116455 986.080811 -314.151642
-995.431213 658.346985 184.352966
-857.246582 849.042053 114.713150
-756.784485 810.521851 -9.390676
-837.007324 743.311890 -43.289928
-848.068970 580.664673 391.467773
-788.268250 1174.564453 -348.608673
-1104.441895 1190.090820 35.900566
-643.710144 848.346497 -133.139526
-848.528931 716.178345 -57.477623
-841.253113 1070.096680 -448.123535
-800.476746 685.088928 379.480164
-921.197021 1204.692383 -267.251892
-999.247314 1064.869629 -394.151581
-806.839355 1165.077026 -372.451019
-998.618774 658.320557 173.599121
-988.229614 1194.771240 -170.127731
-960.673401 1155.287109 -279.413513
-1107.202148 1004.499268 -324.722565
-1047.527832 1048.471313 -340.186615
-868.899170 1045.528931 -472.811066
-654.036499 844.345642 -64.332695
-1237.000977 1209.607544 80.070503
-922.275635 1129.200195 -310.549835
-1093.501831 975.703369 -256.481995
-738.983032 723.070679 -196.241623
-978.287170 1063.882202 -272.000916
-985.251465 1195.746826 -215.993515
-878.710449 1114.194702 -345.793976
-902.369690 1205.596191 -256.875793
-870.891052 764.549744 15.374459
-810.371033 597.841675 431.065948
-846.654297 1327.491333 -137.215775
-908.517700 568.233215 319.439484
-865.233887 574.449402 433.534515
-745.808594 749.254456 -98.904892
-915.880005 1038.267456 -425.520416
-882.217285 1161.124268 -336.220795
-1173.353638 955.024841 -327.955475
-1237.120605 967.800476 -303.384949
-875.322388 625.090149 329.077789
-965.599548 647.344177 224.725647
-906.528748 1254.968018 -200.889236
-784.176697 886.330872 101.524612
-1222.438354 952.549072 -313.874268
-798.839722 742.247925 366.304535
-910.769958 1161.660767 -297.793762
-983.281616 1189.471069 -105.378464
-649.148926 859.511841 -31.646944
-1219.610474 981.756897 -260.014435
-633.727356 863.328796 -61.397854
-881.127625 658.529480 -88.331474
-937.578857 600.455078 268.646088
-872.652893 711.318726 307.135468
-831.915894 776.410889 316.961823
-863.107300 1294.780273 -165.669540
-872.147644 1125.783447 -352.134613
-1075.258545 1178.160156 -139.126648
-837.940674 1202.057129 -282.480957
-975.106445 747.233276 62.165710
-894.962830 1063.232178 -446.332214
-927.988342 790.855225 102.162849
-1303.615845 1047.072510 -176.643921
-1039.832275 1053.782104 -369.618591
-1068.166870 1186.739014 -112.847023
-798.493286 821.890320 316.687653
-953.381775 581.556152 257.148224
-1001.759399 679.850830 30.417614
-932.543518 565.924438 311.077911
-746.764526 724.189697 -140.762955
-1032.276855 1232.610596 -66.987190
-944.665833 498.113159 318.103943
-812.954163 1155.048462 -381.901337
-790.086243 778.399719 331.623749
-902.151978 1338.020264 -76.595451
-827.871338 1136.406982 -366.625397
-895.709839 1246.223022 -117.176086
-857.775513 1025.927124 -263.039520
-863.634094 662.752808 316.906128
-877.194214 642.318176 331.288574
-770.946838 762.548889 -93.587791
-957.658691 760.467102 48.551815
-866.964539 701.677246 -70.641899
-976.118652 1185.920166 -247.062531
-929.113098 1208.510986 -229.676224
-910.408752 1240.441895 -150.673416
-864.595764 1229.942139 -233.393234
-1052.953369 1228.066162 -89.491371
-864.359314 639.807251 344.017395
-1072.713135 1110.488281 -86.739868
-723.283875 756.797729 -190.555038
-839.988708 885.892883 134.548416
-910.247070 862.668884 135.669785
-766.744324 748.018250 -57.845222
-985.874939 624.179260 221.013306
-961.138123 1091.199341 -278.575317
-642.947876 876.817444 -77.445877
-1297.062988 1012.568359 -206.655029
-1003.024048 1160.462891 -160.111252
-993.149414 787.902466 110.818741
-905.727112 1062.866699 -442.754547
-864.681213 1193.955200 -324.596527
-1044.386230 1006.168884 -395.643646
-781.294373 747.848877 375.151917
-822.698303 1281.698242 -184.944672
-857.121155 1071.542114 -420.413208
-945.089844 1230.991211 -164.448105
-878.962280 1140.505615 -355.688599
-872.596008 760.435425 6.856292
-833.128662 723.979492 334.336731
-896.174438 1207.488770 -259.657074
-863.337769 1313.130127 -126.687958
-970.782288 558.539856 267.755066
-983.251953 1119.666016 -274.964417
-891.170837 1040.529175 -456.894989
-1029.883179 1141.875244 -109.094666
-896.140625 871.504883 164.536972
-744.296692 747.664673 -160.517227
-898.809753 1274.484253 -134.919632
-848.704773 1116.406616 -387.908997
-829.181519 644.645203 371.366302
-624.468140 870.704773 -93.272377
-941.612488 709.447083 15.318781
-835.565796 824.497070 296.095795
-938.414490 707.543030 -19.425674
-1081.404907 1019.569885 -312.042572
-827.369385 1075.522095 -385.559967
-970.370850 1091.361816 -296.628723
-1205.140747 1309.851196 145.169952
-798.314514 815.915894 320.310638
-804.446838 781.490784 337.533081
-941.271606 1261.607178 -147.356964
-1008.788086 1071.227051 -333.636810
-919.766479 801.166016 64.558998
-664.350098 838.870789 -77.298988
-829.584717 1266.078491 -249.644318
-959.987427 1054.313965 -396.347595
-863.430786 843.378906 75.116493
-882.757690 728.678040 286.836670
-842.078064 1359.395630 -97.868965
-842.556763 1199.342285 -278.008423
-985.922791 635.413940 200.097321
-1219.448120 927.350220 -353.480286
-1049.807007 1057.640747 -245.602966
-802.798462 680.143677 372.952667
-878.926758 1208.980469 -243.408234
-754.775696 745.175964 -192.969025
-797.057861 791.233459 -14.594747
-904.891785 1049.126465 -439.118378
-994.005920 1134.719849 -162.917938
-804.774475 721.104797 360.559448
-1157.661133 908.111267 -408.877777
-663.100037 870.776184 -12.270294
-941.051453 809.297913 139.770386
-1091.266479 1029.417114 -288.160919
-905.682556 742.162476 234.083969
-920.531128 985.709839 -166.334656
-1144.093262 986.432617 -329.865417
-975.695801 1098.169067 -266.149353
-761.869385 761.980225 -102.228706
-866.254211 716.003723 -90.119843
-1127.488892 1180.922363 -104.649345
-848.083008 1113.717041 -380.255066
-830.157043 1283.908447 -204.389786
-805.945740 1186.046387 -365.717590
