ply
format ascii 1.0
element vertex 1345
property float x
property float y
property float z
end_header
-513.221619 1053.586060 -1065.936523
-504.197205 983.518188 -310.928986
-504.861053 976.452087 -204.897720
-462.030609 789.014465 -1145.870117
-444.853943 674.017639 -683.520325
-413.889862 794.697205 -654.183044
-359.324799 688.039185 -701.785828
-366.561310 876.307007 -649.423462
-513.289917 1003.616516 -574.152039
-482.778839 985.648743 -336.367493
-483.904419 843.223206 -1126.698242
-416.095184 761.105957 -641.037964
-661.894104 1327.105347 -946.303772
-466.600464 883.257446 -1124.975342
-402.896729 1010.637817 -293.243500
-522.264771 861.818665 -895.166687
-644.829224 1287.084106 -929.877136
-536.978943 978.647583 -362.751984
-495.502563 702.562744 -666.673096
-672.609558 745.161133 -1103.857422
-860.025024 909.602173 -992.757874
-666.549133 711.155151 -1101.072388
-513.652405 940.285828 -588.704407
-558.144897 993.960449 -1001.347046
-497.628876 909.782898 -1092.332520
-613.827576 925.509705 -286.008911
-492.033997 961.260742 -216.791916
-538.347961 765.216553 -1109.130249
-618.952332 921.674316 -258.323730
-693.894409 958.857849 -993.777222
-474.393860 639.936157 -731.082703
-572.602600 944.027161 -223.120041
-503.479431 1001.389771 -447.156860
-434.090790 935.473389 -1120.750854
-731.865112 817.880188 -1070.828003
-428.103729 772.458008 -1167.515869
-318.016724 740.064819 -712.301392
-513.637085 667.792664 -651.312561
-462.590759 698.603333 -1169.225342
-715.519409 886.561768 -947.228333
-427.461090 985.674438 -207.223053
-590.271667 822.527771 -603.510437
-420.213562 1045.164795 -447.514404
-442.480682 885.337708 -626.107788
-470.733948 981.276733 -262.313721
-374.708344 1043.255249 -420.518372
-579.444824 939.485718 -262.961517
-599.616577 697.217529 -641.914795
-625.440552 925.259216 -376.796478
-661.132996 1166.995972 -975.930359
-531.930481 668.911255 -649.704895
-346.996704 1045.261230 -245.046127
-548.450012 887.215698 -962.191772
-462.629242 977.256287 -253.808060
-668.745483 935.930969 -553.242493
-549.162598 959.322937 -176.192383
-645.053467 939.431213 -1044.760132
-753.419617 772.571350 -1026.478882
-416.516205 887.481445 -1125.755005
-544.656494 992.710266 -1050.127563
-586.914856 779.984680 -1105.204346
-582.742920 922.154785 -215.887497
-445.045654 1017.033142 -386.943726
-539.693481 668.338867 -627.203430
-673.681213 931.177490 -1007.600891
-635.115540 926.495117 -392.515625
-665.381042 756.938599 -1088.069458
-653.415588 810.446106 -1080.162720
-559.354492 889.040222 -1049.599976
-531.309265 997.984436 -1041.832031
-512.743286 960.891724 -191.694626
-557.245422 773.886780 -637.776489
-744.085876 873.581909 -1018.221313
-620.719238 758.736145 -607.339233
-337.453827 1002.474487 -1131.795898
-477.004883 758.542053 -1131.583984
-581.363281 830.480896 -1052.740967
-639.925781 860.570984 -589.362915
-453.886871 831.275085 -641.002380
-404.763733 1056.991211 -1058.594482
-558.120728 891.082764 -1080.449097
-888.064819 1012.245544 -979.934937
-376.623138 1014.985657 -276.882721
-834.076721 939.248962 -997.629578
-295.439880 724.387634 -742.020508
-446.440338 985.116516 -220.115921
-604.586060 646.327698 -628.042114
-430.595795 776.768250 -643.690613
-302.162231 790.325317 -708.457886
-418.005371 1021.659912 -393.485504
-713.911560 788.774597 -1092.324951
-793.169434 794.416260 -1008.554565
-365.803162 1038.831177 -1091.552368
-504.088959 764.231995 -1111.141846
-529.486206 612.214844 -671.979919
-457.068024 1035.784302 -1085.411011
-624.916565 1189.923706 -972.376343
-395.820282 1029.427856 -372.258270
-555.897949 951.798279 -265.039276
-518.264771 605.232483 -704.838135
-514.332458 793.754395 -1089.884521
-487.219849 1024.705322 -1077.590088
-698.907715 920.154419 -1029.383179
-371.395996 840.140686 -646.368652
-571.528320 1277.615967 -974.299011
-423.017242 955.451111 -1103.688477
-654.160217 910.580627 -373.241577
-625.618164 716.328491 -1111.352661
-457.906952 780.003418 -634.856628
-562.033630 805.728088 -1034.420288
-442.602020 1011.061157 -369.792847
-469.734894 979.883728 -273.746124
-568.893982 655.715942 -1131.542480
-385.141022 700.768250 -686.261780
-450.908966 1045.034058 -1020.153748
-550.441895 644.001038 -1139.212891
-582.579468 848.799072 -601.330139
-462.853149 777.325073 -1135.103027
-452.064026 942.455750 -628.269714
-600.625061 726.267395 -633.522278
-395.704224 1031.242310 -345.685272
-411.444489 996.471191 -1109.142700
-508.671692 940.438904 -1098.744751
-367.685425 869.683899 -650.063354
-584.345642 776.922363 -604.850220
-561.582764 935.007507 -273.764252
-685.018799 909.904419 -405.885590
-560.963928 917.820618 -595.613037
-533.054382 754.298035 -626.658386
-451.115448 942.209717 -591.683594
-476.273621 977.933960 -286.374207
-552.356384 753.753418 -1115.750732
-437.655792 1000.914124 -1098.658569
-332.899780 826.591553 -679.813049
-562.299011 945.960327 -241.801010
-401.469452 988.389709 -1101.683960
-569.539368 945.289124 -1091.323853
-389.548859 977.542480 -1135.224487
-652.821228 897.649231 -336.354614
-454.276031 765.696106 -632.308838
-406.583771 1042.761108 -424.850861
-471.686920 734.635376 -1156.295532
-598.834290 745.891235 -592.543335
-392.767059 671.508362 -706.045715
-580.188721 935.168579 -296.102692
-405.789886 1000.450378 -194.293854
-612.009155 981.652405 -1043.464844
-476.670258 1019.415649 -418.130737
-480.520325 669.639893 -667.334900
-368.988800 1054.853882 -1106.683350
-528.566956 857.490417 -591.011475
-661.334595 827.358459 -1101.402100
-463.298309 697.848511 -1166.500488
-461.223083 1054.161621 -1007.534973
-548.702454 658.743225 -642.917114
-623.595642 665.227661 -619.415649
-788.127075 730.611328 -1053.537964
-376.423279 898.857605 -1156.769897
-372.316162 1101.286377 -1083.295410
-622.633667 1188.815308 -974.609009
-700.005127 849.456299 -1060.642578
-411.642548 786.994080 -671.730713
-564.069153 1228.864014 -997.957275
-319.727936 1075.963867 -1118.722168
-373.890778 804.467346 -666.505798
-377.666687 1031.731201 -360.248566
-505.300507 836.215820 -610.119385
-418.504822 778.136780 -652.770203
-444.057587 984.352295 -203.181488
-554.466553 1188.265747 -1010.777344
-606.874084 676.734375 -625.246704
-367.825409 1089.323853 -1087.329834
-535.198608 790.629211 -1116.516357
-553.528259 983.133728 -1084.470703
-563.777649 663.382629 -639.120422
-681.568237 949.767639 -1040.007324
-307.797058 831.456726 -663.745911
-720.255737 849.528076 -1050.614502
-694.890259 682.653259 -1083.787231
-439.012329 1002.739441 -204.161560
-513.458923 1018.787354 -558.417725
-512.845764 1024.199341 -1068.581177
-429.882233 637.630676 -713.273743
-338.156372 860.387451 -668.602539
-500.072754 965.127441 -187.767303
-595.932068 939.327209 -568.316162
-312.254700 790.658752 -677.374573
-321.020752 759.462463 -692.514221
-462.994537 988.878662 -1096.828613
-669.199585 874.940186 -1075.885864
-501.258453 759.913269 -1123.684937
-343.165894 686.970520 -745.174927
-286.637238 874.274109 -691.906189
-502.217804 947.746094 -1087.158813
-526.460815 799.000549 -1044.884888
-428.001526 1063.712891 -1066.032959
-627.202698 769.444763 -1086.784424
-608.171204 1226.463989 -937.045288
-555.398987 974.090820 -405.059845
-596.613953 935.755737 -359.405457
-601.030273 1023.032715 -919.212769
-372.404205 703.371155 -716.900513
-420.961975 887.229309 -1136.141235
-353.439636 909.283813 -631.312012
-577.677307 879.766418 -969.294678
-636.002625 761.387695 -575.028870
-468.404541 985.821716 -275.880554
-571.602783 1002.996399 -1005.115173
-393.341980 964.739929 -1125.161743
-587.436523 1106.272827 -1015.105347
-476.336548 748.891174 -1127.926025
-473.308075 994.519043 -176.581619
-800.845703 786.239563 -1006.629089
-504.476166 1004.203064 -428.380920
-586.993469 828.709778 -1059.746948
-502.256470 957.175842 -211.646851
-341.516571 866.263367 -646.032227
-556.820679 1173.765625 -1012.364380
-704.626160 855.286011 -984.129272
-564.772888 942.652954 -1080.154785
-528.872375 1139.598022 -1023.457275
-488.303009 998.034058 -473.751770
-495.760620 1024.427002 -1031.220337
-591.634888 958.403992 -458.323029
-645.822937 916.335999 -345.667816
-616.108948 929.662109 -320.716248
-530.789185 960.508423 -1084.055664
-606.898315 935.786682 -376.139893
-370.313660 1038.944092 -378.118469
-422.136932 692.700867 -672.708252
-440.210876 1002.807068 -599.441284
-485.840851 1049.216309 -1014.692200
-443.667236 964.444397 -1119.159424
-587.447693 934.313049 -257.466797
-659.533264 918.728027 -361.229584
-460.533966 776.706543 -1144.946533
-388.625183 930.710693 -615.104004
-418.339294 991.870728 -597.323486
-454.107758 790.563660 -1131.371338
-462.859772 794.637878 -629.986450
-574.116943 1249.499878 -988.363892
-361.919586 735.606873 -678.964172
-539.977234 771.462891 -1085.626587
-472.436920 1046.421387 -1070.660156
-526.415771 873.393738 -1107.639160
-653.067078 749.126831 -1093.979614
-814.189819 849.936829 -973.692688
-458.037506 1026.552124 -461.111877
-331.741150 919.304932 -650.085815
-472.139954 1001.125488 -182.557648
-371.692322 1016.427124 -269.780457
-557.990662 1019.389526 -993.334595
-327.049316 1088.146240 -1122.169922
-419.193909 1006.775879 -282.092773
-550.684021 1003.678406 -987.577332
-683.263428 1366.895508 -913.661987
-744.788879 872.581238 -1020.930420
-646.129272 903.105713 -256.154877
-648.143677 914.218140 -358.065887
-626.268494 804.052124 -1110.036499
-363.921570 827.725891 -664.633606
-350.704865 770.744324 -665.551880
-492.242798 747.929993 -623.769104
-343.691132 860.972595 -642.098450
-561.233765 953.976013 -586.949158
-386.159119 1001.512085 -1115.279785
-542.017700 991.072449 -1069.490601
-379.561951 874.817017 -1132.769775
-728.294678 901.453552 -862.184265
-529.636292 630.518494 -679.133606
-361.484619 1038.647095 -351.991302
-672.379456 901.785645 -334.247528
-518.129944 768.996460 -1115.683105
-519.945129 958.811218 -315.008911
-536.854614 745.252441 -1128.019531
-650.904358 764.829834 -1095.107178
-606.534424 915.216553 -230.234665
-348.619720 751.810303 -697.632324
-474.913727 972.272583 -247.882187
-381.668152 705.593018 -680.073364
-615.232788 1155.705444 -993.847839
-669.122742 1393.392456 -947.970642
-486.513000 996.904907 -585.076050
-546.202576 988.187378 -421.401306
-694.090942 837.561035 -564.931335
-534.369202 824.885864 -1042.415161
-442.010529 1034.192261 -461.166840
-681.408447 907.600708 -394.318176
-510.861023 778.156921 -642.675476
-765.117065 804.435425 -1029.801147
-344.100098 740.446350 -710.262573
-399.496582 979.490784 -1133.028687
-420.622406 1032.425903 -1016.154236
-440.084015 743.545410 -1159.877075
-613.688538 756.497559 -598.896606
-682.709717 723.100037 -1094.247437
-359.735168 837.281372 -666.390442
-491.597260 681.983704 -1157.582275
-516.432007 636.829346 -687.068848
-504.405762 756.944763 -627.552795
-341.048706 1037.659302 -360.386658
-372.512543 1015.560852 -237.217194
-451.697388 633.032288 -714.383911
-733.327026 763.076843 -1061.846313
-571.329224 806.487061 -1057.179199
-657.439880 829.016663 -1075.544434
-532.592834 956.619629 -593.906311
-474.204346 968.340210 -240.778046
-610.106628 946.804749 -387.845245
-409.088470 1000.187866 -280.683929
-382.829803 1024.507446 -326.198883
-600.457764 1209.066040 -985.516479
-558.166260 952.261230 -282.878021
-413.352997 743.748169 -659.867065
-429.261841 974.918640 -616.937195
-353.689331 761.404907 -668.508972
-390.272003 1048.478516 -418.465057
-672.977295 821.469421 -572.339294
-434.211578 999.928101 -225.220261
-709.250671 804.962036 -1066.357300
-502.828827 668.765381 -660.080750
-301.770050 923.966248 -678.746277
-865.376465 1016.267639 -965.840515
-573.139282 998.023499 -979.704712
-813.024536 761.739624 -985.427795
-529.747986 976.702148 -468.692444
-418.352112 1010.589661 -318.108032
-383.522949 1013.943115 -267.726318
-358.148376 1026.170776 -278.471985
-789.361267 1033.199219 -989.782349
-271.935760 865.257568 -656.866516
-287.021881 800.490234 -739.453796
-743.097656 770.308044 -1062.315430
-493.015686 1007.797424 -1089.505127
-619.059570 738.716370 -1095.178955
-579.510681 1218.459839 -904.868896
-833.369263 1031.443115 -992.860840
-420.019104 710.920044 -656.340210
-544.543579 896.757874 -1083.485229
-418.909180 964.143494 -1117.248413
-505.690674 1021.127563 -987.723389
-294.163422 777.389526 -749.638977
-489.660034 985.498352 -312.840210
-657.368958 874.256531 -583.219788
-556.123657 1038.993652 -995.745300
-424.202972 975.942810 -620.385803
-414.273163 888.356995 -1135.715210
-564.236389 945.286682 -252.474121
-531.400085 963.858643 -583.831421
-382.147705 1010.351929 -253.228775
-505.881256 1032.114502 -482.206207
-523.023682 950.752747 -1078.852661
-436.447540 968.375916 -1124.871216
-627.582458 980.129761 -1009.077881
-436.581970 999.127930 -1100.128906
-369.536682 662.727661 -706.207825
-444.111725 935.052185 -620.376282
-698.086975 901.006470 -1042.591675
-550.511353 963.110168 -575.854126
-618.427551 908.301147 -239.815872
-560.918701 962.841248 -359.126831
-410.396912 984.622986 -592.799744
-787.345947 1004.703857 -979.038879
-559.786743 986.356262 -422.927124
-425.275269 786.641541 -663.926208
-563.255798 949.749695 -364.254486
-753.886414 771.037964 -1076.111694
-623.620178 913.160217 -285.553711
-434.784180 682.558350 -674.832458
-388.170288 1030.546265 -375.768280
-466.145691 1030.652222 -458.711060
-460.872345 762.004578 -642.215088
-418.236328 775.414429 -1161.089844
-589.991638 1367.251465 -944.321350
-662.659058 1325.023926 -962.774292
-862.757385 846.533569 -1001.373779
-414.573059 647.234924 -719.170166
-641.833252 792.354919 -567.676819
-411.380768 1030.367920 -414.842834
-524.825562 962.421509 -344.097900
-617.868713 933.387390 -345.607971
-436.766693 1045.804321 -1043.181641
-587.870361 673.482422 -653.314270
-346.083649 708.427856 -696.696594
-447.196564 1015.379578 -402.352631
-357.986786 1044.707764 -443.636749
-630.938171 959.202087 -458.561707
-480.081177 743.945557 -1144.659668
-496.639465 751.661621 -1127.998169
-503.212494 970.007507 -224.017807
-197.794830 887.871216 -474.378540
-428.378143 680.912964 -664.452026
-473.262390 661.043518 -653.037842
-324.804138 827.481445 -688.001770
-415.153137 1018.081421 -341.386292
-615.119385 728.489563 -1114.418701
-426.028320 1020.554077 -402.662598
-372.411865 976.452881 -1136.274902
-594.009521 798.886108 -1095.395752
-525.475037 905.680237 -589.850830
-442.487976 994.862244 -259.395538
-499.255463 937.572693 -592.129272
-359.107178 706.392273 -761.131287
-584.750427 895.801941 -584.353210
-324.557068 789.939026 -680.960876
-648.783630 939.053162 -405.246521
-493.167725 984.021057 -334.407318
-574.089661 1009.622131 -1002.332458
-567.352356 766.352478 -613.051208
-492.122101 682.238159 -1161.481323
-546.402588 821.126526 -1018.476440
-537.617371 948.919861 -196.688843
-488.152893 629.477295 -696.065918
-373.784607 1014.228577 -257.350372
-520.013306 1102.805420 -1051.963989
-782.208618 808.537720 -1009.097107
-328.198029 715.625183 -728.910400
-557.060791 694.505371 -1136.322266
-585.472778 844.865173 -1091.403198
-569.429749 1220.373047 -997.956543
-446.389404 765.761658 -1142.609253
-180.571304 837.991455 -563.439636
-436.422699 991.805298 -203.796219
-605.641541 924.891602 -340.818451
-399.332092 912.955383 -636.722351
-492.537506 1015.768494 -435.196503
-497.547516 670.985474 -1145.228760
-555.272766 791.274597 -1112.455078
-400.303436 1057.843018 -1037.555542
-552.446167 718.112854 -628.665833
-574.865234 622.215881 -631.921143
-632.801575 908.601013 -302.531891
-393.196655 1006.094238 -242.641785
-421.137665 635.576477 -714.019104
-626.984070 760.646851 -1103.511108
-406.615356 1008.876099 -340.862640
-503.988922 729.323242 -1136.731201
-501.210144 649.160828 -658.968750
-485.138214 1000.781433 -393.458801
-695.020081 880.476685 -961.807129
-401.327148 1007.368530 -246.974045
-610.639404 1219.409668 -947.732422
-611.013245 942.198975 -365.606415
-535.961365 983.409546 -379.154877
-344.226471 683.282898 -720.080078
-441.958740 1045.318848 -1023.310425
-418.469971 992.372986 -218.474213
-420.268982 1029.920044 -423.287689
-530.322815 615.624756 -689.541931
-485.612640 755.508118 -1078.498047
-522.117065 953.355591 -278.408844
-490.726532 777.821167 -1098.604004
-690.838989 919.921570 -418.579163
-672.107544 803.484070 -1097.615601
-393.356934 966.103210 -628.647034
-539.287109 985.277283 -371.424103
-360.831451 1080.913208 -1094.574219
-412.276031 1020.794189 -362.128540
-390.416779 1004.945862 -603.413513
-532.004211 992.623596 -409.910980
-649.946350 917.903870 -539.165527
-619.960999 737.242310 -601.874329
-656.392639 940.234192 -1045.525635
-639.858765 709.457764 -1111.238770
-703.044861 860.554138 -1047.867920
-505.283081 969.180725 -254.688690
-579.234375 1212.384766 -962.288696
-460.406281 679.639648 -663.870178
-617.078552 1173.207520 -988.605652
-418.967285 1008.466614 -1102.441284
-533.754944 736.565125 -629.401794
-398.571259 1010.969543 -254.930923
-770.229614 751.022644 -1063.861084
-460.235718 706.477173 -661.958984
-553.137634 854.166443 -1089.882568
-471.652527 1019.624023 -584.964111
-702.680054 778.751709 -1059.642090
-452.939331 657.848328 -705.701050
-381.127563 982.199768 -607.694336
-453.321350 1032.431641 -1018.825500
-589.663574 773.102234 -1096.539551
-428.963715 749.483032 -1167.477539
-441.100464 933.049316 -606.934204
-489.538910 643.443298 -677.542908
-529.491516 823.554626 -614.133972
-549.206299 1085.957275 -1036.162842
-319.402283 694.453369 -745.019226
-587.250244 863.370422 -1079.416260
-367.177734 676.837708 -714.643188
-580.309448 936.337891 -261.145172
-464.047791 612.162720 -692.804260
-722.394714 765.054382 -1053.762939
-617.600037 949.485413 -1015.121033
-450.500793 627.472412 -703.617249
-500.303986 624.629639 -683.689575
-720.488281 799.810730 -1047.551880
-418.994781 1007.386902 -366.637634
-780.226807 768.656372 -952.315918
-298.645111 747.492493 -727.915527
-466.741425 962.291809 -1117.845459
-529.357178 834.128418 -606.904785
-577.823669 954.454407 -358.119629
-548.273926 953.553162 -210.137299
-333.975800 1016.675842 -1138.936401
-681.873718 928.587097 -440.397186
-558.904602 1072.515015 -1019.520874
-384.544495 1020.007019 -1084.388184
-620.473999 943.630005 -905.884949
-688.252808 901.061768 -1029.764893
-610.724121 1356.334717 -973.573792
-619.073730 907.568115 -257.868073
-311.320374 754.959290 -705.915222
-670.595032 915.730530 -251.049805
-490.589294 775.672668 -1143.700073
-498.186218 1003.451965 -385.633331
-309.824188 746.902710 -712.150940
-590.914551 629.259216 -631.481445
-432.504883 990.397766 -1118.128906
-347.123749 1024.749634 -297.992859
-593.649597 989.689148 -977.455505
-394.328766 1038.200073 -380.155365
-361.465179 810.843323 -659.376099
-523.667480 624.237549 -679.691162
-279.998474 860.340454 -675.813171
-600.796509 1139.975586 -1039.630859
-482.792297 984.097656 -1103.444458
-451.226532 757.178467 -1169.192017
-482.538483 1041.304321 -1080.637573
-703.532471 763.527649 -1078.861694
-608.630005 948.941162 -408.991241
-528.468445 784.782227 -1107.958252
-597.251099 1000.184326 -1060.060181
-589.929138 911.716797 -227.096832
-690.483704 783.005859 -1095.472290
-639.121155 928.315796 -420.288574
-421.773926 644.137268 -719.688843
-419.619476 974.219421 -1115.387939
-413.608551 1036.668701 -440.018097
-631.095886 1151.434082 -1008.821533
-449.990875 972.795593 -1104.619995
-351.168152 1064.896240 -439.989380
-545.537598 629.085815 -652.449463
-646.718262 951.693848 -452.862976
-645.996704 903.390198 -574.795349
-646.481384 715.937012 -598.007324
-677.132568 897.144287 -288.367554
-521.752747 1023.741577 -1037.249634
-615.999695 1164.837158 -1010.263855
-344.046936 984.374756 -1120.323242
-301.312042 862.689453 -635.164307
-462.824738 741.302856 -647.464844
-580.468262 937.235291 -269.134827
-327.301666 781.567627 -672.345276
-540.004639 642.593811 -667.335449
-331.087585 904.729614 -659.889587
-573.025635 946.223389 -1081.724243
-516.730774 887.688171 -1102.066650
-490.125458 993.920044 -393.783020
-544.124268 1016.001099 -566.123413
-518.580627 975.983948 -349.481689
-455.010040 1015.509155 -365.939850
-619.506104 820.875671 -1090.125244
-561.736572 1225.441406 -937.194336
-187.544098 874.321533 -493.754730
-616.296753 934.143921 -327.318695
-690.052368 896.377808 -361.133026
-551.592957 712.090393 -1155.733643
-498.143768 799.349548 -1127.435791
-569.301270 1153.562134 -1003.053894
-489.110474 1011.325378 -990.517029
-639.754395 749.910522 -592.261841
-497.342712 848.532410 -611.716675
-529.846375 832.168640 -1104.010498
-515.635132 703.846497 -1164.709106
-618.730896 707.659729 -1115.229370
-819.932251 1000.078796 -977.646118
-543.138123 977.309204 -1072.953125
-500.695892 842.703247 -609.801636
-367.905029 965.088135 -1132.524292
-745.082153 837.705566 -1052.763184
-547.786499 982.533508 -380.456238
-274.347504 880.522949 -673.303833
-483.149170 604.359436 -707.417786
-296.986603 769.701050 -708.591248
-501.456451 790.335449 -1119.312866
-488.722076 944.805420 -1116.795654
-295.825958 781.082214 -719.557190
-461.588715 827.474548 -1136.340332
-768.889893 1029.676758 -983.964111
-547.948486 967.047974 -416.437744
-595.476440 1181.898682 -1020.139160
-416.586548 832.068298 -1157.240967
-599.857483 865.651794 -595.708130
-562.584351 879.502258 -1081.951538
-577.903076 749.540710 -1142.101563
-565.586914 1167.079468 -1006.486572
-324.804352 747.259766 -695.731262
-506.306946 802.943359 -1097.222656
-446.782440 1000.240662 -287.750671
-582.083191 942.164978 -189.554565
-873.078857 942.006287 -1000.799194
-533.667969 939.484741 -167.040253
-695.858398 867.217346 -1049.603882
-369.035187 1046.665649 -252.014053
-764.484314 762.597595 -1065.243164
-323.532471 722.368713 -706.038574
-554.456604 804.397339 -1113.086304
-750.023315 853.116028 -1025.488159
-555.459778 961.361938 -412.667236
-688.144165 874.020691 -1038.356445
-749.227417 724.499207 -1071.182251
-382.929810 877.208801 -1162.496094
-838.112000 1024.281128 -954.329956
-393.591461 1018.678711 -309.908142
-448.295868 1017.074524 -1019.146729
-490.738800 840.982605 -946.758484
-326.979858 839.933960 -651.046875
-442.261078 946.003052 -1104.744507
-725.541077 1364.246948 -923.803406
-565.908997 969.249512 -553.991455
-462.545227 920.517944 -1099.301270
-615.171326 1173.970093 -1000.911987
-488.944611 982.607422 -375.278137
-600.814819 911.878601 -259.221680
-355.441620 990.965820 -1112.325928
-525.235840 675.778748 -644.983704
-623.010925 915.457947 -936.087463
-540.807312 1003.157959 -591.569458
-327.970398 693.897522 -730.925903
-620.632874 923.674744 -331.088531
-751.665283 736.839966 -1072.563110
-499.404938 957.354248 -215.342789
-529.015137 865.159729 -1073.922119
-378.495575 1090.236206 -1092.053711
-500.130280 989.715027 -1092.394653
-714.411804 889.175903 -1044.107422
-482.505646 804.928284 -639.098694
-610.648071 676.055115 -599.424805
-516.406311 968.157166 -357.531799
-407.988190 1023.939270 -356.413330
-543.715759 935.660339 -162.542480
-330.239777 1043.527466 -1110.625122
-489.539825 992.664734 -375.256470
-389.047363 980.649719 -1128.034790
-501.569611 973.637024 -357.039703
-827.126038 773.855774 -1045.596069
-533.065918 820.427856 -627.237854
-521.808228 718.338196 -638.331604
-626.000671 926.597290 -432.394836
-418.733093 1108.697998 -1067.738525
-279.037842 773.689331 -712.594666
-569.912109 890.203857 -587.962830
-410.857941 1025.895264 -397.433807
-566.717102 687.319580 -631.224792
-376.341339 1014.504639 -225.181534
-288.057648 767.261780 -722.917603
-420.507813 756.770142 -1164.387817
-691.319885 863.992554 -1060.622925
-455.977203 989.250549 -315.803040
-618.830200 1212.298218 -971.597839
-468.734222 934.991455 -1100.555176
-385.216400 899.814148 -618.977783
-494.007172 957.686401 -1112.799316
-479.491730 1013.109009 -454.062500
-543.042480 994.380066 -428.127502
-546.519043 768.073853 -1111.979370
-508.164886 950.547729 -595.340881
-563.870239 641.152466 -649.341614
-444.598267 1014.293030 -395.888885
-597.051514 957.185730 -423.716400
-497.826050 1002.840759 -1070.263062
-395.716370 996.710083 -1116.204834
-296.888031 878.662048 -681.748535
-455.893768 718.770386 -1162.324707
-544.571167 911.133972 -1098.322632
-497.744354 980.245667 -264.296326
-486.898499 998.337402 -1091.376221
-634.144531 926.215210 -355.532867
-310.585968 722.720215 -719.834106
-794.207031 763.397156 -1027.289673
-440.486389 997.312317 -347.998016
-396.975830 851.737976 -631.289734
-524.039856 723.693604 -1124.860718
-445.275085 983.267761 -246.472946
-323.835266 1081.957886 -1103.018921
-786.105713 804.830750 -1032.608398
-518.546021 798.214661 -619.228271
-387.941101 1036.049683 -384.570099
-389.271393 712.374451 -684.085815
-402.812622 1093.510010 -1077.237183
-425.202301 795.027466 -1142.651978
-512.647888 801.507996 -616.009277
-733.635193 1014.385376 -928.358337
-406.942169 845.002563 -1159.181519
-699.408264 941.731506 -1023.714783
-453.895081 663.982178 -676.804993
-604.945923 1160.054199 -1000.430359
-676.567871 955.548767 -1011.097107
-483.982635 969.196350 -176.407440
-731.281738 772.710449 -1067.610962
-455.276276 1017.421692 -442.363220
-525.802185 841.803650 -1053.949097
-357.498657 1030.980957 -324.669067
-796.985352 739.221130 -1048.266724
-492.188416 622.142883 -702.934509
-474.424286 923.519226 -1127.806519
-395.351837 1016.747009 -239.350143
-824.970093 741.120483 -1009.020020
-647.365662 773.527832 -1116.166382
-428.548553 1008.669678 -1113.671143
-455.772034 994.418640 -607.874084
-447.981750 1003.540405 -326.856018
-610.019531 1232.567871 -953.685608
-671.938599 821.528259 -935.652771
-515.912354 1001.382080 -436.517212
-464.806091 713.926025 -656.564270
-415.694611 1002.384216 -295.954803
-386.897522 858.239319 -1156.868652
-579.507568 957.617615 -374.861389
-530.585510 1088.863159 -1006.054626
-506.937897 973.147522 -235.365891
-485.530670 649.144714 -668.080322
-604.325806 1212.884399 -984.913879
-565.734863 942.199097 -1062.896484
-545.074036 937.986267 -1098.953369
-520.160645 822.028809 -636.571899
-665.148010 880.325928 -1060.040161
-207.681198 840.632629 -604.351074
-459.310242 1014.765442 -1026.535645
-444.437897 926.041138 -607.519958
-738.731689 771.168335 -1066.240845
-400.971497 1032.229370 -387.416992
-371.998901 991.198120 -1107.339722
-470.816895 946.473083 -1091.418701
-350.952667 802.020020 -686.246155
-462.687073 835.176270 -1119.404297
-684.962097 905.493042 -961.391785
-382.593811 1009.052917 -295.688354
-585.791626 967.015015 -577.966064
-434.626282 1028.892090 -1091.649658
-373.203278 1044.616821 -412.729675
-581.074036 952.376709 -352.194794
-311.397858 781.482666 -712.408752
-404.363373 991.635925 -600.994568
-412.462402 924.835449 -1127.023315
-403.376068 998.263184 -609.449646
-555.592346 1016.069824 -997.567566
-296.626770 767.100464 -714.259583
-557.681458 718.536377 -1148.661621
-642.234070 922.847839 -364.707764
-385.749634 1115.362915 -1051.225464
-502.584259 879.346741 -889.091919
-603.711731 744.373169 -620.319458
-487.862152 1020.906738 -436.316681
-422.839966 1045.410645 -1054.660889
-545.514709 977.093018 -329.648041
-671.714111 831.132568 -1058.899414
-313.008057 783.793823 -697.341248
-501.739166 1002.650879 -993.384094
-427.892517 1063.516235 -1076.040649
-499.390869 806.190979 -1131.065063
-645.930115 914.142822 -316.676666
-603.073914 745.120361 -620.021973
-778.975403 727.872925 -1044.804443
-488.667664 716.515564 -1134.718628
-582.372437 1119.470825 -990.266174
-674.075928 904.744202 -961.160217
-884.807983 1059.293457 -978.457642
-539.877991 956.334473 -317.749115
-789.962097 812.026855 -1032.453125
-606.112915 849.052551 -1084.503418
-550.925354 952.468140 -164.455093
-409.849457 793.098572 -1162.777100
-523.428284 964.660339 -294.973114
-647.715149 863.684631 -597.758850
-572.381775 944.868347 -1083.367065
-566.830261 955.674683 -388.765930
-563.577698 615.072693 -666.978699
-431.749756 1051.166016 -1042.351318
-447.209564 999.265076 -280.310364
-559.552063 621.153687 -652.599304
-713.409241 832.302979 -1060.070313
-393.677826 1010.593567 -258.008514
-600.360657 1163.026245 -1013.336121
-342.748627 1058.070190 -382.862610
-652.857422 969.838562 -963.024658
-441.829224 949.374390 -1122.787598
-416.382294 900.521545 -624.691956
-846.343811 888.224426 -995.661255
-578.648560 953.087097 -456.221802
-566.643616 925.508362 -253.241592
-409.790833 930.946472 -1128.456909
-521.503662 606.337341 -706.489624
-441.555206 913.631470 -1131.003784
-436.553986 1020.900940 -393.291840
-406.224884 973.296021 -1132.559204
-379.836914 891.786438 -1157.607056
-624.708801 1112.207275 -1008.889709
-564.851074 960.101685 -413.829590
-445.204681 1016.191406 -408.930786
-577.194519 747.961060 -599.211060
-324.005829 688.968140 -729.050171
-505.663635 845.872009 -1122.054321
-527.041931 782.190491 -1028.136597
-598.020813 933.366272 -281.667999
-631.621216 780.685608 -1082.751709
-369.210144 750.216003 -676.103638
-383.561096 932.705200 -628.623657
-612.634766 924.276611 -185.424026
-458.888245 929.012451 -1122.422119
-693.764282 730.394592 -1070.813110
-580.133789 778.247314 -607.145203
-523.324463 640.457214 -681.998474
-555.869690 941.697632 -579.373718
-754.262268 766.467224 -1041.197144
-629.807434 682.750366 -599.698425
-464.363159 1065.317993 -1064.162231
-561.584534 948.119446 -234.489212
-675.369263 966.991699 -972.909180
-540.129272 962.781921 -429.458008
-545.928833 1048.206177 -993.975708
-520.998901 957.781799 -190.485046
-415.216248 848.258728 -1135.610962
-623.311401 894.978943 -572.748840
-379.801392 884.349426 -1148.135620
-341.585266 1017.583862 -1124.573364
-503.756592 881.228638 -898.826172
-601.364807 1114.614014 -977.252380
-414.043152 1001.979797 -256.762573
-360.947327 896.884216 -1136.157471
-577.981323 960.628296 -297.823364
-613.831421 691.095093 -620.593323
-631.461365 919.716064 -305.714050
-497.513885 1023.371155 -1002.677368
-515.413757 1011.055115 -1073.361816
-373.768555 1023.121033 -368.296997
-483.121063 1007.040771 -473.622009
-628.021362 822.462891 -1104.100830
-385.464600 799.288147 -657.228516
-393.311768 1131.595703 -1089.369629
-407.406647 673.628723 -687.185120
-427.667999 909.658813 -626.037720
-591.041931 893.379639 -580.961243
-338.645782 707.770325 -706.710388
-357.859131 1023.188599 -262.953918
-518.279785 684.959595 -644.566650
-499.616760 779.350098 -1141.036499
-477.620483 966.792969 -215.408676
-572.035767 648.903076 -662.617737
-436.915466 988.059387 -255.406937
-481.630432 965.746521 -196.426682
-720.054199 792.390442 -1068.717041
-504.664124 1078.400024 -1066.689209
-607.882080 1399.309204 -944.930115
-517.374756 716.244873 -1136.833008
-468.121857 991.801636 -327.874359
-552.400146 881.489075 -1084.783813
-511.934296 961.998291 -243.856415
-564.139526 702.960388 -650.298218
-659.921204 1322.363403 -921.188477
-373.307159 1019.976196 -223.780624
-484.298828 776.873657 -633.975403
-389.402313 1037.628662 -230.959518
-536.187805 978.307678 -391.162048
-541.110596 952.400330 -234.508682
-384.554047 813.289185 -673.682983
-360.405914 1096.516602 -1073.831665
-309.819519 789.499817 -707.992126
-718.705505 704.399536 -1082.832642
-400.939636 1000.866272 -206.251068
-408.676422 991.821167 -1095.657959
-412.143311 656.740173 -701.193604
-387.236481 1041.954346 -476.206635
-433.694580 771.785034 -660.209473
-491.300598 627.536133 -700.722412
-595.846375 950.113403 -376.604431
-653.934326 792.720337 -593.752747
-479.963959 611.747803 -723.409790
-426.067230 912.766479 -604.906433
-660.620605 789.034424 -1085.677246
-451.685211 1020.707825 -417.920349
-470.455658 1019.256775 -436.905365
-627.982971 903.508057 -266.005066
-503.121582 966.347839 -1106.102539
-470.223389 990.989075 -292.661102
-457.224091 992.816345 -173.810165
-396.809204 1012.191467 -1106.347534
-695.304565 1075.033691 -928.592529
-534.756958 706.863403 -634.618469
-296.782715 765.893372 -707.215149
-518.681335 974.294739 -327.810120
-626.400330 1239.857544 -920.249634
-501.883636 772.114441 -1126.828491
-621.622009 926.528503 -332.220581
-625.118774 938.677612 -385.095825
-361.196930 1031.614502 -331.557312
-423.960907 1031.189697 -194.489273
-664.858215 917.795715 -414.062622
-397.719574 729.237915 -688.155945
-385.045502 1032.775757 -378.324585
-380.021576 861.713074 -664.423401
-471.861938 621.600403 -692.280518
-405.858337 1050.879883 -493.442200
-596.946289 674.712402 -1118.043579
-491.233612 842.335510 -639.275208
-520.646667 817.426636 -1013.016968
-517.947571 780.052002 -1069.339233
-467.098511 859.636719 -631.477783
-632.259521 923.623413 -404.043335
-600.873657 1102.379639 -1013.289429
-396.343964 950.987122 -1133.614380
-452.388794 921.484131 -1118.641357
-403.474487 729.924255 -689.456177
-363.660217 786.264954 -663.410095
-410.422485 846.762695 -1130.675171
-457.938690 977.557190 -222.990280
-364.876129 877.669128 -664.685486
-524.694824 939.351990 -1077.054199
-380.699036 996.548157 -1117.943970
-370.443390 920.082397 -631.003296
-320.985260 1089.033813 -1101.984497
-657.888123 980.893311 -945.562683
-610.620117 919.765198 -196.156647
-535.947144 654.629150 -649.064026
-433.040192 1057.095703 -482.722961
-587.636414 784.328918 -1078.827393
-376.540680 669.918152 -727.061768
-816.505737 989.830627 -992.198853
-500.972046 1036.714355 -1010.050659
-476.456757 689.985413 -640.638672
-508.366241 785.018921 -641.813477
-627.715881 1230.325439 -896.584595
-491.590393 973.216003 -284.035767
-369.624176 1054.385742 -1064.609131
-381.084808 785.475525 -662.399414
-453.892578 988.268799 -1105.771118
-492.113068 988.228210 -360.226959
-685.840637 767.276184 -1067.027588
-783.929321 838.957092 -1020.656494
-297.578583 811.423706 -692.326660
-462.862640 1017.760742 -601.689575
-463.591431 985.845886 -1109.060913
-452.476501 884.739441 -611.736511
-575.313599 1165.735474 -971.687256
-505.143829 721.993652 -622.847961
-662.753662 884.726563 -1067.842896
-425.040253 968.526062 -1128.371582
-619.985901 794.520081 -596.445129
-746.830322 810.798523 -1060.681274
-557.942749 1215.242065 -1015.821838
-445.140839 991.273376 -263.406647
-590.507751 962.696777 -450.758545
-747.106384 829.233765 -999.969360
-602.756042 821.916382 -1090.108398
-484.817963 991.961914 -261.110352
-541.921631 959.432251 -274.621155
-313.464905 960.903992 -606.801025
-438.977966 1011.380005 -359.739899
-592.351563 831.735596 -593.217041
-544.112793 1143.486084 -1010.676941
-644.286499 916.187500 -366.586121
-610.181213 746.951111 -1108.563843
-568.040100 994.698730 -1065.802979
-335.941650 791.163391 -676.081482
-481.035736 1011.497192 -408.986725
-756.278503 705.862610 -1055.452148
-566.757324 941.399048 -276.624481
-406.109741 1010.031311 -270.761169
-521.436279 999.462341 -426.765503
-650.669617 785.225525 -1072.458374
-565.561462 968.866455 -390.017120
-493.834442 732.055847 -658.927612
-538.891479 714.243164 -1132.534424
-359.140625 777.364868 -689.922791
-597.906128 687.231262 -1124.801147
-539.850647 836.546692 -1101.429199
-465.496216 934.598755 -601.010132
-408.033295 1004.203125 -232.434250
-508.356567 765.806885 -615.500671
-622.844177 954.333984 -443.863007
-484.526337 717.741699 -668.468689
-589.635071 948.395020 -579.077942
-299.967255 939.830994 -646.173584
-330.398682 772.285950 -692.059998
-373.715424 772.813721 -653.060303
-383.132294 884.184082 -1145.843506
-576.453186 921.938538 -204.171295
-440.701508 699.635254 -661.930420
-579.811646 929.075745 -184.737305
-399.312927 891.051453 -616.734985
-689.539795 839.073547 -1061.949097
-287.262329 788.485046 -688.625610
-490.980896 893.486511 -1126.444946
-499.956055 767.284058 -1123.831909
-713.633789 757.501709 -1087.996460
-471.819336 882.234070 -611.732056
-499.404175 1107.707642 -1016.409241
-501.448425 772.825073 -626.115845
-619.144470 688.300842 -1119.140015
-590.044861 668.358154 -650.364502
-475.113647 806.828613 -1122.150269
-593.145691 1156.809692 -974.614197
-622.206482 703.029602 -613.579895
-743.545105 730.683716 -1071.246338
-540.082642 700.339233 -1139.248169
-525.144043 688.104858 -1147.180054
-387.374420 704.065735 -704.736694
-551.580078 631.481628 -676.899109
-471.601166 833.284668 -1150.592163
-456.874725 749.983826 -1150.063843
-494.115601 818.699524 -1126.146851
-582.397278 883.254456 -598.990845
-383.772034 1021.818115 -298.977600
-437.999359 1044.365356 -1077.491211
-311.606750 957.959351 -598.611572
-538.171387 892.725098 -1112.302734
-635.444397 906.981506 -307.009918
-343.009430 976.554688 -1120.235840
-624.473938 1099.363159 -1010.849792
-457.499176 967.879578 -1105.940918
-546.894104 1001.785706 -453.563263
-508.006012 818.921814 -1091.156250
-577.278870 755.040405 -1113.540649
-500.387634 619.815125 -703.783508
-688.539673 835.327881 -571.379944
-840.930786 773.093994 -1017.348450
-480.880188 804.699158 -1133.600708
-460.289215 893.463135 -610.841309
-817.671631 763.457764 -1015.511230
-649.679504 861.891113 -1071.484497
-572.977661 890.263245 -585.829773
-544.921570 995.769775 -1016.341675
-294.271515 723.649780 -748.100525
-372.502533 1072.803223 -1087.225464
-519.329590 662.126343 -1140.800537
-852.837036 950.298157 -991.383728
-354.601624 799.047974 -680.372009
-810.842773 1036.695923 -1000.508667
-424.433990 999.535156 -222.363297
-513.595764 637.073730 -670.645386
-398.406006 855.383728 -1138.346680
-484.162415 816.761597 -1119.460083
-514.577148 954.779663 -238.171783
-620.566833 908.645996 -232.766495
-416.576660 775.310669 -640.483276
-519.576294 972.334961 -1091.935791
-364.728638 705.742065 -685.361938
-456.192322 984.242126 -1113.869263
-492.801483 621.734680 -703.833984
-567.086487 876.663879 -574.536438
-588.699158 943.621582 -351.105286
-565.581543 908.258362 -1046.033936
-466.187775 633.557678 -708.030090
-552.513428 931.753601 -1097.460083
-402.371765 1002.929077 -231.262329
-628.672668 732.949219 -602.351807
-521.312988 951.231812 -190.210464
-535.611755 974.762268 -446.901855
-352.656097 983.816589 -1132.162964
-783.580017 812.140930 -1017.440979
-487.879364 933.110229 -620.289368
-428.736847 989.493958 -247.877426
-313.791779 781.624878 -686.645752
-480.396851 801.367615 -1104.303223
-605.206299 811.903442 -591.463074
-564.645020 1078.707764 -980.420349
-518.049011 984.117004 -387.491852
-483.326996 968.787537 -190.778610
-403.353027 881.200073 -628.348816
-613.186462 929.110901 -337.537079
-621.202148 801.889282 -1094.677979
-454.407013 1042.857178 -1078.487915
-416.695557 1055.259644 -1056.143555
-401.651001 1002.432068 -203.414307
-419.413666 1050.481567 -1083.741699
-549.211914 940.885193 -1075.309692
-465.417053 949.044678 -592.962402
-406.236755 1016.802185 -346.229034
-384.587738 1041.759399 -1103.914429
-546.694092 934.634216 -202.299057
-324.139282 784.919434 -677.733704
-604.526062 969.849365 -451.171906
-410.431030 911.828125 -621.676697
-448.837433 912.191223 -628.861328
-398.632538 1047.268555 -427.665710
-472.196381 942.471680 -1091.128174
-560.963989 840.348633 -598.034668
-578.549011 702.111694 -626.151306
-483.118500 842.522766 -618.978699
-306.814941 741.544800 -724.924744
-495.389282 1010.831848 -1073.553345
-528.523376 980.407898 -353.517456
-556.416443 784.144226 -1121.846802
-520.666504 756.965454 -626.169861
-395.234375 1038.101929 -1082.906372
-533.802063 870.340576 -608.472351
-768.833069 768.984985 -1041.373657
-487.679230 989.284851 -308.574860
-353.160675 1142.925415 -1086.380981
-625.429993 949.792847 -433.347015
-443.156647 1025.574097 -1078.910767
-626.347290 688.832642 -598.086487
-379.296936 685.555725 -702.156921
-375.528809 1052.791382 -1100.062988
-312.229797 736.221375 -720.366760
-534.065796 820.865662 -1101.488281
-521.367432 806.481934 -885.491943
-668.841919 784.832520 -1084.216919
-468.535553 987.951172 -223.349121
-354.022583 939.576111 -633.350281
-561.359192 860.274902 -598.093567
-431.285736 1002.862915 -1084.890869
-403.189362 1043.029541 -467.633453
-874.762817 1047.069824 -965.613464
-395.865417 1024.628174 -227.397812
-866.383301 1049.438354 -982.507935
-386.992554 1052.820801 -409.532654
-275.183258 884.662354 -659.439270
-563.349426 964.430847 -550.743896
-288.453339 775.672058 -716.965942
-559.328918 835.020752 -596.179016
-305.956909 753.456177 -712.691162
-487.198364 973.208374 -250.237701
-583.982849 1219.663940 -897.024536
-766.794434 821.136230 -992.555847
-782.724792 839.459534 -1034.835449
-560.742188 883.661865 -1081.381958
-598.723938 915.690491 -199.553787
-448.983765 1036.553955 -1087.074585
-397.054077 916.495239 -1118.194824
-430.772797 889.907593 -1145.237915
-574.945435 1291.839600 -993.738892
-667.952759 913.935486 -561.084290
-560.933777 955.502441 -308.722748
-450.301361 765.185059 -656.946289
-712.521912 854.342468 -1033.125610
-505.016632 995.659912 -422.949951
-597.804138 912.001038 -554.256226
-661.649414 1186.889648 -947.994507
-419.239624 1033.173096 -465.856354
-566.730957 984.482117 -414.434174
-578.517944 777.248108 -607.976624
-512.489136 999.614990 -456.716461
-496.958618 994.870667 -472.487274
-503.605927 1092.234863 -1021.370300
-440.858276 895.849060 -1140.577148
-392.879150 1041.588501 -440.148987
-722.259705 742.478577 -1088.581421
-432.155914 752.736206 -1159.668701
-456.240570 1022.135864 -1003.531250
-598.203064 705.311340 -618.650208
-621.139709 1157.878662 -972.301270
-345.452820 773.103088 -675.788208
-489.358337 899.524475 -1128.414185
-436.234436 698.160095 -667.609009
-506.525360 693.067749 -1151.037354
-464.100830 645.394470 -670.569275
-375.862000 1028.121826 -255.878540
-687.050049 931.183228 -989.013611
-644.586060 720.335083 -1107.295898
-612.988953 1368.234497 -936.836731
-518.891541 1021.999268 -1008.609985
-595.014893 957.136597 -388.227081
-239.775620 935.023254 -470.094269
-567.849731 744.129883 -1135.097046
-504.178284 645.282410 -669.849792
-477.814758 646.958862 -703.424561
-450.073975 1016.879639 -454.087219
-542.621094 973.581360 -378.785706
-389.320007 750.253662 -664.927673
-448.535828 858.672363 -629.776489
-409.812988 1021.447144 -418.738312
-388.977722 864.429626 -1156.703369
-521.487793 788.661560 -1095.310425
-395.457672 836.877258 -649.646118
-389.646790 1026.549561 -234.737091
-424.274017 1002.669312 -256.505981
-408.785767 715.389465 -657.834167
-722.594299 817.828674 -1053.374512
-537.173828 898.986389 -597.918518
-436.615784 1050.432983 -1082.713257
-531.601807 782.624817 -1086.948853
-442.641479 889.463501 -1136.390259
-671.044861 695.730713 -1099.815674
-786.765442 808.817078 -995.140015
-628.751892 751.156494 -596.594849
-529.035461 1142.244019 -1009.714233
-743.471069 850.180664 -1031.893311
-624.655884 716.745605 -605.942566
-444.400299 755.180908 -1158.212891
-639.189270 827.940125 -1085.993408
-495.623840 718.508301 -626.641357
-473.887451 634.765564 -701.908081
-488.989349 1004.401794 -368.190582
-486.477844 1023.798340 -450.340302
-589.416016 844.896912 -616.822632
-857.813171 749.565796 -987.028687
-350.162903 1049.087891 -263.725769
-674.334900 721.821045 -374.787384
-601.573792 918.200317 -553.938416
-786.424011 872.360046 -997.167053
-526.670959 1091.560181 -1016.961487
-295.787109 907.917664 -656.445923
-399.945587 1048.946045 -499.584351
-375.263855 924.196411 -1150.993408
-630.290100 769.157837 -1100.378418
-404.174927 1002.674744 -196.980164
-509.103394 986.579529 -378.676910
-475.777344 654.389343 -664.668884
-747.510986 853.354309 -1019.898804
-680.356384 905.639709 -397.070770
-409.180603 669.911560 -696.575073
-419.762634 686.098389 -676.694885
-586.625854 615.861816 -692.341431
-609.809875 875.155884 -969.903870
-669.333862 689.731384 -1087.886230
-455.740997 788.773193 -1159.404297
-633.269287 845.643250 -1077.196289
-482.309296 926.652283 -1116.203613
-464.556854 916.246033 -1128.254150
-478.043945 975.245544 -193.552826
-456.078766 993.598389 -271.577942
-397.680664 1024.469971 -225.369141
-373.999054 831.923889 -652.400024
-568.680847 977.310547 -417.766388
-561.625854 959.953247 -458.619659
-427.888885 768.003906 -661.557983
-479.967041 1038.784912 -1001.172058
-734.182617 891.922546 -1047.578857
-504.379761 965.690125 -273.621063
-358.173157 866.496460 -645.513611
-371.764435 1021.791260 -349.041992
-584.082825 1007.131226 -926.078918
-539.013184 620.855469 -657.846863
-836.329468 896.454041 -999.497498
-444.962738 679.384949 -656.792236
-436.870575 762.950439 -1156.318481
-508.645935 983.806396 -367.469971
-513.166016 788.051392 -609.504333
-538.565796 987.585693 -1078.880127
-498.349426 857.871887 -608.363953
-620.852844 715.125732 -1131.158081
-470.773224 1006.828552 -463.827545
-454.053741 1016.511169 -396.334320
-599.340027 944.520020 -415.868866
-451.100433 989.661499 -599.615723
-298.857330 745.585510 -744.099548
-756.995972 788.965271 -1050.127686
-669.249146 983.852234 -958.276978
-850.838013 1044.256836 -962.255432
-751.814209 877.556763 -964.408630
-473.031586 984.962402 -299.680786
-679.418213 1398.507202 -943.016602
-632.352051 855.922485 -1081.317505
-315.203827 920.635376 -646.195007
-567.906006 1196.105591 -1011.517334
-470.653900 742.879211 -642.418213
-385.448792 689.569458 -702.484314
-502.221619 1021.142029 -1030.182251
-649.625122 1301.575684 -937.918945
-460.857056 1114.710449 -1025.532837
-465.742493 759.307800 -643.570374
-643.998962 810.525452 -1084.448608
-515.613892 1019.729919 -464.213318
-602.166809 1033.328003 -1041.997925
-770.473083 818.841675 -1058.486328
-697.152405 855.086609 -1070.704102
-615.561890 761.734131 -1101.576294
-583.658997 626.222168 -651.373962
-666.060547 912.475891 -342.718079
-542.977112 899.925598 -591.754822
-475.685944 1003.222412 -390.364136
-748.530701 778.189148 -1014.159668
-298.090973 750.626343 -730.355408
-648.854248 892.042297 -1068.930664
-414.258331 759.705078 -655.267334
-429.736847 668.042603 -683.430359
-849.064941 981.160767 -985.260559
-588.169189 954.139221 -448.381866
-432.969696 994.199524 -287.618713
-641.229248 829.651611 -561.023376
-824.366089 902.231934 -989.201843
-281.140015 944.828247 -649.268127
-481.404175 891.267212 -594.185913
-447.959198 1048.908936 -1080.862793
-616.476440 878.161560 -572.381531
-504.885590 958.682129 -226.914093
-556.671265 692.231262 -627.605469
-525.067017 871.211243 -589.128235
-553.256592 959.814148 -1073.176758
-734.193909 733.523560 -1075.041382
-407.308228 1047.711670 -437.953918
-387.005066 742.362000 -657.167908
-593.080811 1235.488647 -977.846252
-513.968872 985.470520 -430.346954
-615.965820 928.820068 -312.508911
-461.236237 992.788879 -284.301941
-603.244141 824.650391 -1065.610107
-442.523804 931.536377 -1132.751953
-590.840210 737.337646 -1114.873169
-565.875183 680.138550 -636.982971
-396.174622 865.765442 -1161.963989
-724.440125 705.387268 -1066.040894
-372.846039 1033.700317 -367.916229
-559.615784 1240.385742 -1000.654846
-591.162781 948.517456 -418.994598
-590.617798 965.235046 -419.760803
-407.241455 664.570007 -711.384033
-630.728271 738.187134 -1106.029785
-441.963287 777.960022 -1138.032837
-512.815063 631.392395 -697.023010
-611.306519 909.970520 -184.182220
-869.484009 980.991333 -989.342407
-610.309509 805.334290 -1100.622803
-450.638611 1012.908020 -451.157990
-386.444855 1019.548584 -236.096451
-264.137177 843.320984 -668.027954
-347.693817 973.569336 -1140.667480
-518.291748 957.765686 -597.253784
-661.833374 867.226196 -576.104980
-402.960938 975.582092 -1130.945557
-609.368774 1396.464111 -935.540955
-615.736511 745.658020 -1093.697266
-521.128418 584.941650 -695.026978
-517.242615 978.816101 -177.562286
-467.294037 938.792969 -1111.034424
-627.203491 906.238770 -248.436218
-532.538391 690.475464 -639.276917
-633.279480 886.580750 -565.509949
-542.235901 945.717590 -242.687576
-459.990356 765.356567 -645.476013
-795.580627 745.285583 -1013.211853
-570.897583 956.714539 -377.956177
-565.015747 963.619324 -985.353699
-366.508392 1038.596802 -396.377197
-664.745361 965.656677 -960.717163
-598.518982 931.801025 -238.592743
-326.415466 735.353394 -701.328674
-688.769775 812.110596 -1069.199097
-304.880371 808.987366 -675.287720
-748.774841 763.358948 -1048.456787
-487.266449 766.915405 -644.990112
-552.908630 969.048157 -349.426636
-441.999512 1010.050476 -1093.544678
-333.877045 972.967224 -633.007751
