ply
format ascii 1.0
element vertex 1379
property float x
property float y
property float z
end_header
502.162354 -147.587006 -1418.801147
361.858185 198.577072 -1102.715820
545.956055 -52.602940 -926.096924
392.369385 2.818065 -963.290588
441.187317 -95.750145 -1440.815430
397.389313 531.788452 -886.387756
691.251892 150.930008 -956.045349
227.250137 133.807541 -1002.754761
422.712158 297.421997 -1156.682129
908.542908 -88.325302 -1310.273438
868.071350 -116.954025 -1238.686035
373.089935 86.856201 -1050.827026
574.919861 97.078857 -960.365051
492.344391 529.154480 -830.249512
794.663818 118.619522 -1455.817017
598.952576 86.750740 -1480.160156
568.984375 381.411621 -1037.423950
567.733887 -116.157532 -1399.577271
640.273560 358.363251 -990.706116
682.998535 209.679260 -739.860046
443.260162 -65.607414 -1455.848999
484.657867 508.031281 -880.081665
663.885193 220.150620 -986.567444
556.384216 406.866730 -964.033630
499.340790 -295.480103 -1307.448853
540.526855 244.182007 -1075.848755
471.852783 553.055603 -824.896484
545.678711 539.535889 -798.458435
613.843628 -355.160370 -1261.705078
551.259338 37.656197 -1490.684570
431.570496 274.765320 -1142.932129
552.637268 481.560333 -880.335266
591.703369 378.927460 -1007.434204
841.755737 -46.308132 -1292.513428
376.520294 506.335663 -941.878967
772.110352 -174.667847 -1310.478271
772.153503 57.839958 -1439.202515
578.658325 103.209579 -1570.854492
585.636719 209.182617 -1056.389160
417.526550 -65.382668 -1459.185913
819.076599 134.312134 -1386.193481
565.513550 -10.202692 -924.125488
578.596008 425.725952 -930.614258
519.929810 547.770142 -822.322144
624.160706 460.117767 -829.733215
395.142059 29.067207 -981.678650
742.151917 -14.671732 -1327.635986
416.055908 -88.425613 -1416.009155
907.351501 -151.274414 -1260.579346
555.898682 419.687836 -964.634094
602.437622 -11.296258 -1346.678101
480.456909 6.943554 -964.169434
471.900574 -30.267727 -1399.835693
695.148743 -292.649078 -1275.964966
531.117065 518.708801 -816.795410
407.300598 136.225113 -1058.638306
485.948792 142.547775 -1026.307739
532.263184 39.350803 -949.921753
794.431091 90.006050 -1455.762451
514.380188 -204.014999 -1380.024536
352.262268 -22.837831 -1013.522949
459.936127 -51.451981 -948.421143
665.241272 424.709503 -840.358032
506.539246 393.783600 -1053.243530
850.698730 -189.977234 -1287.642578
555.704895 -129.210464 -1410.042480
463.587982 -5.042861 -1492.888184
510.530884 119.333366 -994.234009
660.597046 -101.208710 -1373.966309
873.105652 124.635574 -1404.053345
543.807922 197.794632 -1051.584595
768.822021 -38.735222 -1285.127563
678.000061 379.439331 -908.979614
497.954224 105.648201 -990.258484
778.117981 -189.261795 -1307.933350
447.455383 573.698425 -851.023254
590.976318 -31.600771 -922.100037
481.120392 481.031952 -895.943542
462.378265 380.437805 -1061.812134
506.802032 -256.892700 -1372.128418
723.944946 -221.051804 -1279.132324
472.836792 107.683762 -1017.384460
567.883728 -333.868652 -1301.253662
836.483582 -155.311218 -1297.992188
520.210999 -341.778931 -1277.026733
520.882935 -9.531163 -923.571167
368.441101 -131.227509 -1443.875488
615.232483 -305.123016 -1282.355469
655.444458 -316.761169 -1248.220459
402.301636 206.050186 -1098.247070
598.457092 -82.905258 -1402.542114
525.322449 505.258881 -856.800415
569.933472 529.492554 -787.387451
836.900696 -141.961823 -1305.291138
554.297668 255.386078 -1075.457397
791.569153 267.689514 -1567.263184
600.739746 -15.340444 -1387.018066
453.618927 -78.254204 -1469.587402
565.617798 -110.240326 -1250.690796
379.603729 40.174438 -1016.141724
949.774963 -129.446121 -1259.013428
456.573212 -120.765739 -1427.162476
438.889557 271.065002 -1124.806763
388.794830 17.174128 -980.204102
522.715393 15.902465 -1498.362305
433.712616 497.004120 -960.171875
647.366455 105.028206 -940.852234
442.850006 458.705627 -993.431091
578.975342 -232.550308 -1333.299683
499.541992 536.881775 -810.155884
480.194183 -230.665558 -1383.887573
697.916748 -231.196320 -1315.243774
606.553406 113.097435 -949.827637
427.440155 572.752136 -839.310913
858.047852 -63.596558 -1297.775269
470.881561 571.446960 -817.539429
520.607849 -42.101639 -1449.319336
389.154907 159.744354 -1068.907837
423.667816 -45.147781 -1415.970215
516.645203 402.399231 -1022.617432
798.355042 -3.647805 -1373.982300
895.575623 -43.343483 -1302.756836
398.083862 -86.623199 -1448.641968
891.599854 -19.634907 -1349.093994
606.788208 34.147224 -1291.978149
510.462158 -54.239281 -927.408203
582.143372 115.099419 -1548.706177
563.033325 480.978851 -846.821350
419.908997 -185.058517 -1417.437866
494.603180 152.431686 -1044.808228
853.689270 -191.559967 -1254.770386
648.622131 19.567417 -918.662292
545.796387 212.579758 -1063.557861
528.231873 -57.781254 -914.091248
729.495728 258.409027 -816.029419
567.176147 54.045853 -937.118652
491.866638 -316.700439 -1300.127930
469.874634 1.258887 -953.724121
591.729919 466.963806 -844.114563
422.906219 281.724365 -1146.147949
335.815460 -1.148222 -1011.982239
825.029785 35.222923 -1399.099731
474.719818 46.954254 -962.617126
502.631653 -172.107315 -1427.769043
676.199585 412.699402 -835.268433
437.121307 -104.834579 -1419.880859
579.149170 434.569702 -883.405701
635.248230 450.539124 -827.160645
723.684326 -88.246948 -1362.260620
737.831848 -85.390297 -1371.341675
352.624451 451.750031 -1054.839355
554.028870 47.997009 -940.345276
643.729370 -129.271439 -1367.984863
418.930664 446.305450 -988.373108
765.232971 -141.173660 -1347.792236
511.349365 -167.724564 -1422.544556
485.175140 -279.736633 -1324.980957
505.473785 496.954773 -854.877563
542.213806 296.080750 -1096.598511
478.276337 447.518494 -962.704651
595.979248 -1.191374 -906.451111
573.351807 -329.351196 -1292.033813
385.313049 141.422668 -1071.280518
606.078125 38.219799 -929.443542
731.520386 -208.829483 -1318.776855
569.037903 532.190002 -810.371277
541.164612 -138.020432 -1413.886108
475.855560 41.829235 -1532.411499
581.524414 -296.868591 -1284.750977
422.114441 81.556175 -1007.170715
626.828064 -242.576096 -1296.630371
477.349579 434.190643 -999.808777
678.546753 -224.995453 -1331.806519
488.168488 32.269104 -1538.109131
831.138062 -123.662407 -1324.392578
413.619904 114.956299 -1048.076904
371.541351 480.674408 -979.263000
479.389740 12.295963 -932.889343
581.259460 446.320374 -876.783386
524.925964 145.612427 -1015.657288
383.209778 -78.924896 -1458.975708
656.757690 393.275421 -916.907837
365.123535 499.450745 -954.186340
492.006805 -261.160553 -1345.306274
705.341614 354.730560 -959.316101
470.891052 405.535645 -1035.562866
497.056152 -105.685295 -1440.527466
674.781311 262.473389 -1025.230225
369.825562 462.036743 -1019.111816
570.886902 9.876089 -929.682373
492.369995 226.325165 -1056.216553
611.100220 49.864151 -934.272766
683.942810 99.614342 -907.828674
492.166321 409.562042 -1018.828857
603.244873 -329.071075 -1269.289551
505.568481 -11.764119 -928.322144
622.280640 -19.067430 -915.665161
637.314819 409.424194 -905.746887
498.483093 -129.232635 -1430.166260
562.207825 305.592712 -1086.729370
616.560547 374.887451 -988.762756
600.125427 75.930008 -953.210205
473.971313 -35.108974 -938.799438
579.175537 -44.991589 -1445.901489
408.676208 499.492157 -942.349243
530.447632 280.079865 -1096.565186
418.902618 529.733643 -886.275757
692.234497 -174.910629 -1340.082520
505.992950 492.666687 -879.906738
564.694824 -336.774139 -1277.045288
654.856201 433.619934 -852.053772
468.655548 -312.157501 -1311.170898
522.143494 -35.758339 -1457.873291
800.856506 38.451138 -1385.989990
426.878113 31.878855 -959.107788
621.435852 -8.231521 -894.283997
714.002136 -53.814762 -1399.237061
689.520142 -144.307800 -1370.818848
377.374054 568.973816 -870.776306
787.406921 -128.107300 -1313.019531
537.229553 -18.062281 -1435.433960
505.720032 310.909210 -1123.541992
424.487671 515.639099 -896.059570
430.480011 -95.220390 -1466.020996
572.541565 250.417587 -1044.561157
512.213440 -104.723030 -1425.718872
413.321899 408.966492 -1062.327637
820.732483 -111.558212 -1327.433716
684.853821 -284.218170 -1257.985107
626.620178 308.273071 -1084.318481
833.677979 -166.160965 -1308.611084
853.725891 -131.345612 -1299.130859
516.689880 40.981483 -932.624634
922.570740 -106.602814 -1299.086914
610.022461 -311.212128 -1277.747437
540.153259 492.570709 -837.392090
420.305237 547.203430 -864.499695
793.317444 -25.458773 -1329.789063
621.654358 300.396729 -1094.054077
405.776947 112.078514 -1031.762573
377.465210 -153.474777 -1429.429321
539.350220 -332.375488 -1308.652588
665.268982 -158.862457 -1344.299683
725.880188 23.263884 -1409.945557
530.376831 -52.154961 -920.440247
718.237244 100.418915 -941.618774
503.469818 -198.515121 -1388.272095
559.322144 -228.616318 -1361.677368
624.799866 -25.509478 -921.242371
491.686829 202.147049 -1063.254639
438.159119 152.627304 -1043.390503
554.079895 35.665897 -1489.577393
380.505493 416.263641 -1059.223755
591.846436 488.352783 -799.030396
548.096985 467.299103 -877.797302
467.697662 524.279175 -853.920044
824.298401 -131.833969 -1309.230957
731.577576 -129.324860 -1349.481567
308.447144 105.550003 -1045.088745
680.470520 -107.309746 -1388.785522
510.314301 275.796234 -1101.351074
380.807861 457.604980 -1017.114929
715.201172 -52.859283 -1318.696655
336.633514 73.161255 -1025.677124
464.318512 -215.957870 -1410.314209
605.694336 484.561310 -807.985535
525.694641 -302.343323 -1322.671021
606.886841 180.797348 -986.959473
374.553680 133.383865 -1080.509644
500.372375 432.262238 -949.872498
740.289612 -27.193338 -1367.496582
634.884155 -176.150040 -1325.226807
506.617523 64.345680 -961.120911
613.837097 -107.887947 -1377.460327
426.696259 -46.784103 -935.525452
891.893005 -101.934227 -1293.964600
363.195465 -98.117798 -1474.824219
400.121704 258.838348 -1120.056396
593.382080 -12.956152 -909.554810
682.453125 175.255798 -974.218262
627.628235 416.349182 -889.632996
466.231018 50.866985 -1529.066895
589.522644 -19.073689 -910.798767
494.487488 -55.068523 -930.447754
547.083923 -7.647067 -926.789795
647.043457 396.400879 -916.796814
741.486206 -212.495346 -1298.719238
946.050476 -77.848595 -1293.189209
558.476929 69.845444 -949.649841
350.407837 467.865631 -1032.228149
418.605560 386.001862 -1077.106689
579.844543 438.558411 -885.457520
731.779785 -273.188568 -1244.055054
444.730560 -206.915955 -1393.616455
460.167664 420.131073 -1020.981079
470.731659 -183.991074 -1405.087646
456.926849 29.082678 -984.814575
527.402161 270.160187 -1091.366455
755.809021 14.092441 -1429.433716
581.269592 -204.568954 -1314.661621
702.341064 -136.361740 -1340.545288
361.047119 221.476044 -1093.422607
552.398315 424.267303 -959.198853
592.249878 -130.594238 -1329.057129
410.994629 -113.502121 -1448.084351
530.173035 213.275772 -1047.555664
661.879333 415.654327 -890.741455
847.155518 -137.790863 -1291.967651
399.557129 210.369171 -1094.035156
478.808533 559.697693 -822.277161
916.516602 -143.566818 -1278.365723
493.783051 190.213776 -1048.387695
645.868408 -333.500244 -1253.448730
730.006104 -157.972122 -1317.084839
275.542023 33.347038 -1048.295166
571.648071 464.537201 -863.615784
404.455536 508.069183 -936.302612
451.387451 -130.952026 -1424.187500
878.553894 -196.712250 -1266.305908
386.754791 -28.534508 -998.111877
593.601440 -48.510933 -899.376587
584.073181 -217.169281 -1321.477173
647.088562 35.501282 -1323.240723
594.326477 -177.283066 -1352.921509
520.668945 27.825392 -939.337952
398.213318 24.471041 -991.825195
483.132263 200.122025 -1059.514038
468.565186 452.384949 -983.900146
341.266388 539.731995 -926.388916
388.194672 24.605057 -1005.229675
720.435120 -73.635689 -1388.050415
591.643738 546.495605 -785.955383
435.928558 -29.565605 -949.352112
553.699158 -255.718719 -1303.645630
440.534515 394.678406 -1054.184448
668.131470 101.211929 -928.524475
547.446411 456.609100 -904.766663
653.322876 -257.379578 -1317.427734
540.800232 375.738586 -1044.859131
596.243835 -40.697491 -918.245972
405.913269 -13.877499 -964.074219
392.657043 -16.500912 -1525.562378
610.660828 265.645874 -1062.786621
655.157532 -95.015022 -1380.253540
335.826569 -9.716739 -1019.747559
546.066650 -129.340088 -1411.993286
541.116150 491.675934 -838.773987
707.544189 -108.178642 -1377.403198
453.801239 -20.788462 -1473.644531
559.527954 478.186310 -850.985657
693.650146 -258.370087 -1289.911499
598.363037 -217.891953 -1322.417603
313.895569 176.647919 -1082.561279
381.030609 504.476715 -946.423584
649.638977 -76.018860 -1363.719116
588.807373 -301.208679 -1277.223999
736.219055 -128.872299 -1339.510620
583.696045 -246.335693 -1302.665161
438.318634 206.134232 -1082.923096
307.820068 53.724148 -1019.673767
574.960815 490.714264 -820.319702
542.257324 -312.647552 -1285.868042
683.288391 47.844387 -1355.588745
583.245056 506.888641 -794.136841
417.597870 -179.589966 -1418.117432
597.109070 -41.294834 -898.867249
464.420074 10.909952 -957.719482
639.475098 -237.198166 -1309.889526
821.259399 76.845444 -1448.934204
568.640381 444.366638 -900.747131
567.585022 459.785248 -868.000244
492.600433 489.979248 -875.288940
613.512512 390.244995 -937.598206
532.305298 -228.063232 -1356.950439
537.047119 421.576752 -962.776611
554.284363 444.468689 -913.007385
518.803955 -337.558899 -1290.913818
843.013489 -49.615280 -1351.724609
516.183533 -7.348788 -934.871033
365.937469 161.126923 -1054.229370
378.744720 -121.612312 -1434.860840
807.644897 -186.263214 -1291.552612
399.608185 -109.315186 -1450.248169
864.971802 -173.042175 -1260.722168
745.495911 51.948334 -1444.528198
423.726685 387.783112 -1069.157959
731.336121 331.990204 -900.075195
452.329590 494.559814 -928.442200
526.029541 -174.003387 -1392.348877
672.784912 -18.911520 -1384.999634
926.953308 -147.161362 -1284.110718
543.741150 -315.021973 -1311.209229
437.593231 -98.627357 -1462.569458
342.502930 157.570465 -1057.027100
837.870544 42.562950 -1386.048706
307.126617 21.769094 -1016.955933
444.946320 -6.355846 -953.556702
438.788422 -30.094948 -1425.038940
654.675415 102.593079 -900.338867
466.168549 76.092247 -970.243408
389.020508 154.879578 -1062.225098
529.350220 -54.740398 -926.820251
428.083771 -165.630112 -1410.883911
539.996765 205.801147 -1039.294189
729.097839 -55.767040 -1401.995483
760.125854 -54.774529 -1385.763794
485.166321 71.206528 -971.892395
589.491516 8.987700 -921.579163
754.138000 -105.856186 -1348.497803
575.053711 -57.541283 -1295.357056
875.007263 -126.465721 -1265.053345
739.947449 -76.975349 -1380.361938
859.290649 -86.704010 -1307.845093
590.060364 474.656952 -839.554993
442.037567 477.701355 -974.063354
369.586914 174.557220 -1085.593018
495.807983 298.141144 -1117.651733
363.739746 222.106079 -1111.950073
515.773193 -68.782104 -1432.011963
509.710693 396.046021 -1021.271118
696.500244 -83.339218 -1389.959961
383.942902 455.215057 -1019.372498
332.979431 190.625717 -1097.107666
500.348755 -229.870972 -1362.223755
466.684326 434.971405 -999.979858
766.367188 -23.527580 -1343.209351
479.416870 62.194710 -975.756775
735.138000 -2.800929 -1388.579590
476.049011 459.912384 -951.194336
579.111328 80.404846 -946.288574
604.642151 497.042389 -804.081482
326.222992 186.071289 -1094.441040
787.003845 91.461464 -1420.810181
810.124084 132.981949 -1448.540894
810.502747 189.274216 -1404.446045
463.067535 -118.676048 -1436.046997
735.445923 10.276866 -1361.960938
473.241730 -190.620407 -1410.990601
850.762268 122.945366 -1436.824585
341.296326 517.638000 -959.020020
433.981995 229.551880 -1103.956543
572.119934 542.554626 -788.475098
456.283417 469.472260 -929.273438
544.137085 -144.523926 -1396.553223
442.893463 -20.487183 -944.365906
459.141846 499.749237 -913.615417
450.145538 -122.719276 -1445.516479
487.511627 -203.198105 -1367.858276
524.253296 -32.107754 -1420.597656
512.850220 433.000427 -973.304688
614.890686 150.352341 -979.879395
441.854797 -46.802471 -953.614258
475.691162 -116.342422 -1436.760254
520.637451 -285.434570 -1320.921753
879.979065 -55.664314 -1336.487427
451.303802 -24.568468 -948.809998
702.870117 -303.932678 -1251.979370
563.632324 181.932022 -1039.129883
519.063110 -96.376335 -1439.101685
757.215271 -109.105286 -1363.865601
456.496094 255.133575 -1139.078613
460.976624 -27.568878 -1406.909058
573.801208 -24.052021 -1190.181641
688.146790 -30.223854 -1380.973755
466.790955 44.654362 -978.722839
493.092102 -316.958954 -1312.868530
431.649902 454.490845 -964.632324
552.939453 -65.800385 -914.021973
483.986328 18.451681 -946.196106
666.604614 43.488316 -899.177917
503.393280 381.356140 -1034.465698
387.560272 546.027832 -884.707703
690.792847 207.956711 -983.117615
540.242737 290.533508 -1102.565552
453.754639 587.718933 -812.739807
462.499878 412.784576 -1007.212524
514.033447 -223.409897 -1350.641235
572.163452 424.948395 -920.589417
373.017792 242.443573 -1102.589233
548.031189 -25.877310 -1393.213501
792.146484 -160.504761 -1292.895874
668.006714 380.287842 -911.305908
772.244568 -52.659077 -1344.867310
477.966492 143.612839 -1029.654053
430.909027 -36.015900 -950.630249
454.439117 -1.556343 -948.446350
856.975098 -158.886810 -1262.782349
504.316559 109.232552 -997.646057
641.205444 198.064377 -1017.388550
647.914856 386.882446 -915.352173
416.642487 452.019867 -981.309937
776.846252 -185.385803 -1283.557983
413.411407 204.235840 -1087.692749
328.543976 116.742935 -1060.097900
650.074036 491.101715 -794.965149
640.283325 144.517639 -981.040039
514.457214 50.626209 -950.032043
664.684998 -37.762585 -1365.522461
384.261536 523.359680 -913.977173
653.850525 0.867442 -925.740662
689.172485 341.824493 -956.433350
454.737518 -151.462280 -1429.750122
556.971130 -47.702515 -1449.031372
517.825623 299.120270 -1111.044922
358.190582 105.056458 -1034.513672
751.469910 -15.634724 -1355.506470
801.033203 -76.054253 -1314.557983
611.421509 -5.342587 -904.064514
671.101013 417.124359 -863.250000
448.521088 -109.423943 -1448.910156
588.337708 45.591587 -914.183350
806.411133 -177.485382 -1310.598755
632.841125 -71.043442 -1350.529053
322.481323 83.107628 -1040.516968
545.351990 475.149567 -861.133850
408.788696 237.798950 -1119.512451
410.357727 -162.644745 -1435.646851
435.542450 508.507751 -944.646423
357.614777 -74.353157 -1490.547852
402.242462 -46.914375 -1458.112793
522.807190 -78.468971 -925.973816
623.880127 -208.981812 -1303.643921
603.903931 387.628998 -956.900208
499.174774 -70.968636 -1435.508545
513.506592 74.012596 -1548.330566
819.180603 -156.315598 -1302.669434
634.786377 511.530243 -780.005371
542.632263 275.566986 -1118.586548
549.623840 142.390564 -986.048523
663.664734 -61.045918 -1388.239258
704.102356 292.320038 -806.737488
795.159607 -73.776932 -1280.221558
741.299927 -108.134071 -1342.067505
919.021667 -153.378708 -1267.320801
615.524109 -28.260256 -1418.922729
396.123535 -22.057762 -976.092773
521.511658 91.197586 -1000.500000
437.882141 -23.077356 -970.918762
377.751862 13.074468 -989.213257
570.676453 438.745483 -915.297241
442.040466 499.540436 -928.886108
346.400848 -16.003717 -1020.261047
558.545471 414.954681 -957.396301
742.182922 -14.485700 -1343.131958
726.710999 -37.110245 -1343.376221
355.867371 -6.346190 -988.763977
600.289551 -338.973236 -1285.617188
635.084534 424.858215 -863.113220
599.356262 -47.094143 -913.164001
810.513855 -169.225601 -1287.209595
598.169800 259.870300 -1066.036377
623.670410 434.429138 -846.853577
589.141113 40.742428 -921.176392
557.064270 178.075302 -1039.117798
591.303162 9.339233 -1289.550171
618.004700 -20.052170 -1300.250732
390.472900 36.626804 -975.223450
633.504028 433.695587 -859.096008
417.184265 202.130432 -1117.421631
451.369110 439.606140 -1008.183044
645.527771 489.721161 -791.223206
466.402252 451.077454 -969.703308
825.891663 -179.441010 -1303.644897
805.331787 -126.237534 -1323.467163
816.659363 -60.754791 -1369.835083
618.150574 -291.982574 -1274.997070
520.430786 473.493225 -875.732056
647.929932 -159.538071 -1363.147095
584.171570 -271.196503 -1290.459961
831.945862 -137.644699 -1309.113037
549.066528 -222.098480 -1366.770630
427.533478 417.782349 -1045.151733
407.108612 -137.383682 -1430.287964
639.972473 -323.010559 -1273.297729
501.596436 217.200241 -1062.944458
471.712616 462.720642 -957.663818
639.892700 -246.216309 -1296.342041
493.607788 390.181213 -1023.413269
527.599548 89.218117 -1555.780762
657.402466 383.807770 -913.523315
569.033630 -130.089203 -1360.506348
713.255981 -234.803528 -1274.143921
721.902649 -290.775391 -1273.677490
492.335693 -194.165176 -1373.510864
825.473022 265.361542 -1556.236938
635.215454 422.230469 -879.997192
584.487915 105.388435 -981.459595
382.292816 206.036774 -1107.100952
459.461273 465.834778 -963.108643
541.983459 436.115845 -943.112366
813.568115 -17.959085 -1363.724731
684.043579 -218.865997 -1325.827148
614.375061 117.689308 -958.513733
734.004333 -278.363190 -1243.800049
775.160522 156.029633 -1450.750488
603.721252 200.775833 -1014.263000
533.373535 -243.012970 -1342.315674
503.162323 18.348215 -939.468384
577.960754 -161.902390 -1381.507568
546.162537 -72.580002 -1441.623047
422.580658 553.387878 -860.043579
818.933167 117.551392 -1444.896851
623.203979 82.302673 -921.426025
566.729492 163.246460 -1004.985657
611.542542 -194.087585 -1307.794434
757.092651 14.337157 -1436.848145
691.849304 -207.681870 -1320.290771
863.940430 84.052895 -1426.304810
775.413025 -38.799427 -1305.065308
616.560303 352.335754 -991.577332
912.406555 -89.447495 -1297.880371
569.648560 237.075348 -1037.086304
472.886292 225.665222 -1084.215942
710.801453 -75.712288 -1367.569702
356.544647 -88.039261 -1484.758789
574.352722 30.970421 -944.557312
422.017303 422.767365 -1053.629395
508.333893 431.632843 -979.231628
683.202454 1.922294 -1341.834473
756.459839 -67.698509 -1326.321899
417.436279 585.674927 -861.591797
363.948273 18.898586 -1016.136292
760.503479 -107.363152 -1357.478760
798.189697 -216.967758 -1274.079346
454.072571 254.280869 -1102.937988
530.360107 441.067200 -935.495361
835.712463 -164.915192 -1305.927124
483.332153 37.301971 -976.468079
602.289063 -55.901913 -1327.535645
453.774780 511.491089 -878.828613
949.186462 -107.704117 -1291.679321
543.364380 471.096466 -866.938904
401.558167 95.405701 -1046.982788
580.257019 399.599670 -990.366089
669.447021 382.189636 -872.389038
399.477051 -24.912395 -1495.347656
773.740356 215.990219 -1438.026489
577.662720 178.406113 -1005.456482
506.296356 532.606323 -835.229980
707.213684 -263.452087 -1293.500000
665.624695 375.347229 -937.019836
595.603699 378.352478 -958.114746
705.539001 -35.709263 -1316.206177
895.709412 -160.783661 -1284.663696
670.021179 40.840023 -924.919312
591.175842 -268.302032 -1311.219238
490.442780 -125.364349 -1448.830200
500.296143 568.195801 -803.631470
473.698761 -112.931847 -1443.721802
585.368347 534.633423 -794.516174
461.464233 -240.750443 -1355.274170
621.610229 -0.221038 -908.435425
495.258759 -35.236370 -929.758362
552.747681 106.738541 -1527.117798
490.930664 -68.643967 -928.737854
536.718994 549.399597 -824.225830
602.149475 -85.123177 -1413.496460
424.354065 517.572021 -887.633423
353.557343 236.398026 -1138.183228
903.941101 -167.561600 -1269.118042
451.434967 480.693542 -918.072815
451.632568 483.486023 -943.111023
382.899963 208.403152 -1080.062744
329.992554 52.583973 -1024.541016
703.469177 -46.346935 -1403.787720
401.894165 115.170616 -1027.425781
632.699402 -42.005089 -1290.299194
848.441162 -139.733444 -1307.990356
696.015930 -196.664063 -1308.484863
622.879639 418.799561 -888.498352
807.067383 -123.737045 -1320.805542
457.630005 563.681458 -862.336548
573.247375 459.493256 -870.135010
659.359558 -184.064194 -1327.575317
677.605103 -135.756775 -1366.617065
645.740356 9.983879 -917.931641
376.204163 99.064011 -1011.344543
881.786804 -64.675949 -1326.221191
577.268066 464.060211 -859.192627
492.036072 -95.307800 -1441.994995
683.070313 344.857178 -945.373535
515.884644 449.331024 -930.769714
733.030762 121.056557 -1475.598389
690.221680 -127.038712 -1366.111328
342.482849 -41.453110 -1006.348938
429.132019 424.932281 -1019.531311
639.093811 63.628551 -941.417725
544.090210 -29.467319 -930.751709
669.494995 155.270050 -785.587952
523.242676 198.183472 -1031.578613
599.674255 448.952576 -857.187988
392.520172 -61.692806 -1451.626709
663.219788 -285.078156 -1296.436401
620.801758 466.890076 -823.589233
480.926727 -89.578102 -1433.023315
596.498901 411.420471 -921.432129
695.082886 -138.247726 -1376.441040
777.175110 -124.522400 -1318.913818
734.556641 -4.065965 -1377.561279
504.099121 447.034088 -927.628784
492.353119 -308.159302 -1318.461304
425.815674 -64.717026 -1443.162842
351.853912 471.694122 -998.950867
349.426758 102.179474 -1059.333008
648.767639 165.508347 -976.122192
439.873322 464.039673 -956.763916
548.362732 23.148214 -948.731689
390.755463 -70.023491 -1480.065430
897.677917 -74.752975 -1331.328857
532.444275 4.671116 -914.864685
668.591248 209.333496 -993.276978
633.741943 -8.250049 -894.485840
372.754974 -25.217854 -986.889893
458.678711 279.388184 -1117.156616
596.657410 232.525726 -1035.790405
449.788910 -47.831264 -955.501343
608.611816 402.882996 -934.800110
465.573303 -23.145697 -940.525513
810.175110 -217.251480 -1271.857666
599.930481 395.927155 -950.033081
703.403809 -106.793549 -1375.053589
541.684082 -344.854584 -1267.677856
479.750336 -30.860107 -932.183960
438.962677 -55.547684 -1462.984375
775.646240 -202.638672 -1272.844116
642.856018 443.658386 -828.438599
398.918579 -152.267593 -1442.129761
539.530579 493.204132 -841.870422
596.693848 -67.422478 -910.143921
432.823456 560.069763 -847.624329
677.991333 118.054520 -955.719910
592.554871 3.789325 -1256.429565
468.933319 -45.556881 -939.730042
684.221558 -82.004539 -1389.331543
414.061310 142.935059 -1047.021851
549.376404 11.975989 -921.773315
420.415466 -57.870167 -1458.302979
355.346832 204.849472 -1084.243530
764.041443 -57.133614 -1363.787109
523.775452 -175.575165 -1388.678101
795.697693 -122.058670 -1339.809570
623.421387 406.914185 -914.106506
570.001221 148.705826 -994.533691
613.423706 -64.545815 -1411.727295
674.798096 402.446472 -896.696960
598.443115 125.063377 -955.202759
615.301270 -84.501823 -1431.322998
523.076111 401.908966 -1014.641357
594.289185 452.366364 -853.247864
546.919434 312.704193 -1106.959717
832.127258 -110.536697 -1310.901123
456.369507 420.403320 -1020.171570
539.778564 -116.899010 -1436.222656
455.022583 -95.268257 -1455.580078
552.465637 -233.351669 -1318.578613
593.231628 514.344727 -780.131104
487.208008 -187.835815 -1378.808960
538.450439 -200.118591 -1376.282837
547.599670 421.045044 -955.284607
547.610474 -62.782970 -1427.070801
317.184448 139.471725 -1080.643066
479.314667 454.952637 -956.291260
762.388184 -184.343475 -1325.452393
427.017242 467.719360 -954.288208
592.122620 502.412903 -812.432983
539.467407 4.936412 -927.135986
521.865234 -225.142532 -1346.222656
403.565948 34.000648 -1008.466553
688.670166 -87.588295 -1373.402832
530.580322 508.338318 -834.724121
391.161011 21.315847 -996.949402
509.055908 -163.735062 -1401.068115
518.302490 429.291870 -982.465820
580.871094 -326.046997 -1300.429443
552.713013 239.197205 -1059.003540
519.852844 -284.818726 -1306.773438
760.671570 -93.294212 -1356.152466
784.516846 -152.948059 -1333.674927
517.053589 -311.363678 -1308.997925
553.671082 316.318726 -1119.958496
631.607117 282.320770 -1067.817261
499.799347 117.144104 -995.150818
214.588867 221.443069 -962.832581
482.784424 -29.539577 -929.309021
806.508057 -249.331680 -1265.263672
684.657043 204.419556 -736.435242
514.839600 420.765320 -977.490540
934.606689 -97.204834 -1287.748657
401.434387 -28.053953 -960.474609
770.363647 104.622253 -1437.866943
629.447937 -325.221710 -1274.387817
500.310852 -14.525471 -920.875977
578.422180 -6.652349 -908.454529
619.948792 -6.113505 -920.329407
637.956299 29.954271 -902.307068
622.898804 26.552923 -908.263611
622.666199 -306.731140 -1288.268555
568.661072 118.443207 -977.063721
367.427429 4.809512 -1004.239868
875.892212 -180.477371 -1280.865112
505.575714 -20.277143 -933.200439
472.654633 -155.388260 -1418.280273
791.535767 -158.000122 -1316.725708
689.278748 92.628662 -926.597229
718.054626 124.628571 -1449.974365
476.427979 -218.306061 -1405.448364
574.383850 386.511993 -1014.416748
697.807007 -234.209015 -1307.245728
413.898102 557.157166 -849.166992
659.531921 24.276279 -909.866760
418.166199 538.522766 -886.961670
778.172180 -203.430389 -1300.492798
402.763580 426.307587 -1027.026733
718.276550 -109.986732 -1362.242554
375.908203 187.419250 -1082.734375
426.552826 415.935394 -1037.293091
433.507080 -53.411015 -1416.184448
814.006958 184.355148 -1436.687378
734.544495 -37.310265 -1305.502075
454.947968 8.925984 -973.962097
469.308350 471.671570 -916.343384
585.162292 157.667725 -979.450684
423.131195 512.687683 -917.944031
405.344299 480.032227 -946.963135
345.663483 81.526451 -1011.515747
894.095154 142.057480 -1451.514282
646.094238 -263.870697 -1292.190796
630.178223 38.100079 -1316.416138
489.978058 222.304962 -1090.653320
399.838135 -86.000237 -1437.410400
728.987732 -110.161255 -1363.927979
453.586334 -20.058578 -940.396484
620.497437 482.587860 -810.569397
530.249207 60.743885 -952.661255
550.439331 7.854685 -913.094360
607.474487 376.255280 -975.453430
607.907043 -267.492371 -1283.125977
591.366150 426.628296 -917.059937
417.924835 395.565796 -1082.889526
543.299316 512.433411 -820.243835
576.644653 499.396606 -821.223633
365.113129 547.748291 -899.732056
417.033691 -105.664383 -1462.213501
649.581604 427.828064 -849.934937
690.745789 -173.467575 -1346.273193
700.185242 114.575706 -922.681274
809.814148 118.182671 -1479.656982
843.091492 209.302017 -1476.717163
611.909912 407.570526 -923.128418
771.265686 -234.493011 -1271.641235
362.334869 50.508152 -1011.899414
532.323364 161.329163 -1565.825439
574.798706 480.464966 -824.451111
389.074493 -89.848991 -1462.586670
511.263245 415.167267 -990.593445
834.271179 53.618099 -1431.488525
587.184082 29.397329 -1228.762817
422.110962 -6.416937 -969.575439
690.599792 -154.342346 -1372.168945
625.736694 -46.923424 -1352.325806
398.342834 124.966537 -1034.689453
613.306580 426.413605 -868.880737
525.585510 -194.169434 -1392.876831
631.242126 386.196136 -944.482727
550.338379 405.762329 -983.686035
332.824677 202.360397 -1121.595215
548.355652 6.587539 -921.626465
456.255920 -10.574461 -944.820251
601.804382 -65.673225 -1426.103760
892.072754 -156.027618 -1282.737061
619.382019 -316.865448 -1286.140015
594.744812 153.115173 -974.001099
810.278442 -66.989700 -1318.207275
616.603333 -296.117279 -1267.910767
802.321838 -46.707661 -1326.447388
454.577728 -221.354889 -1386.825684
805.304565 -104.341629 -1326.827271
498.511932 -174.018356 -1386.566162
598.127258 -13.910573 -1196.746216
463.597565 91.673012 -997.776672
398.344696 547.057678 -880.307495
567.225769 371.238037 -1034.077881
739.613098 25.880730 -1430.561035
842.199646 -179.520325 -1283.735352
516.854980 -76.530380 -912.293762
483.261108 -252.564133 -1381.944824
771.758606 -91.041473 -1337.081299
656.910645 152.555786 -972.916565
327.269531 11.430846 -1024.075073
406.290863 -113.118477 -1448.163086
356.083252 493.836670 -968.412415
501.836334 -131.361664 -1442.318604
464.645630 476.943115 -958.924500
818.197815 186.885712 -1432.437866
742.832275 -183.097092 -1317.342407
614.158508 396.963074 -912.246277
617.179810 -353.957550 -1260.511597
684.129150 -103.281990 -1377.436279
407.917389 77.891701 -1027.670044
549.891357 515.162170 -803.563965
372.005341 64.852379 -1038.526245
493.179321 34.315090 -955.056091
709.418274 -110.185776 -1366.771362
378.146973 22.508148 -992.755249
740.250916 -132.266052 -1355.052490
755.857239 -182.240540 -1326.752808
531.247009 400.193787 -1031.061401
491.333191 -182.279449 -1398.561646
666.148987 20.784851 -904.834167
460.178345 192.376144 -1062.891968
520.780762 475.860565 -890.421875
347.960236 148.725250 -1079.685059
863.298950 253.159805 -1535.342529
673.505981 357.449554 -939.877380
552.400085 300.792938 -1102.120483
812.218323 -196.011642 -1291.177979
447.442230 182.076904 -1078.001343
657.703125 386.694885 -910.115112
647.338745 -306.196228 -1257.175049
807.801208 -206.785889 -1263.367798
472.460876 204.212585 -1084.989990
326.785614 9.505410 -1010.395386
482.578217 -201.339859 -1386.006592
851.487793 -128.567764 -1271.776855
379.256042 529.402527 -912.360596
472.109436 -33.244900 -928.027466
612.522400 458.340515 -841.383606
620.579834 426.714508 -869.647888
476.975403 118.871841 -1029.359497
398.874756 -58.502094 -1460.329468
508.094360 -72.752754 -1433.397217
419.049225 -39.110146 -1486.342896
887.918152 -19.873547 -1349.887817
432.015686 471.645355 -941.176270
547.866394 -320.746002 -1316.494873
500.665710 396.816101 -1028.084229
321.857788 117.073547 -1058.726685
562.988342 -52.246292 -1449.506836
410.558380 454.307281 -1002.336792
674.909790 -128.132385 -1371.315674
561.133362 -291.426056 -1317.906738
482.238556 497.081543 -879.025330
499.714325 -153.283646 -1414.146362
898.642395 -129.415939 -1292.411377
703.804626 -286.087921 -1263.466431
576.099487 108.766594 -968.598816
641.204102 -264.668274 -1301.950317
498.444977 421.981323 -1001.992859
438.479614 526.248169 -897.620361
762.562927 -124.474434 -1349.916870
860.710449 244.840759 -1522.950928
665.037659 195.724197 -727.685547
410.621704 203.575256 -1091.097046
300.097931 31.074841 -1017.189087
498.582764 -13.313241 -934.148743
834.448792 -124.908508 -1303.826294
618.432556 -41.528709 -1283.302246
769.437012 -114.486992 -1339.835449
649.500793 -61.884079 -1394.273560
418.577637 -75.150795 -1448.778687
667.492920 395.349274 -887.120728
523.248108 554.062561 -807.088562
412.894104 150.345810 -1071.274170
345.636383 -73.507973 -1488.677734
582.666443 -255.537003 -1256.241577
796.939514 -17.867290 -1324.208252
705.803040 -155.452103 -1348.760742
438.917419 -170.702026 -1446.897583
572.465027 -38.136330 -920.450867
785.957764 -70.762367 -1365.492310
790.964905 -198.096329 -1287.266602
901.350159 -83.118248 -1308.286987
849.036743 -151.792953 -1290.082764
530.856995 -238.104675 -1352.451782
555.076904 437.714172 -916.244568
445.592316 124.965439 -1019.465149
394.658386 449.663452 -1018.119446
479.838043 -196.368759 -1418.621216
474.689270 63.753895 -957.557373
367.523621 -62.081699 -1412.720215
523.774353 -33.588501 -936.922058
859.536072 -59.980644 -1270.665283
527.126221 -22.798927 -1390.694580
486.560852 82.955086 -995.270752
386.159454 170.982925 -1071.590332
525.905762 -53.826649 -912.088135
579.284912 -236.712280 -1250.856934
677.244995 114.605659 -892.096191
378.226532 485.664795 -967.697754
709.104614 -150.999435 -1329.457275
797.815063 -87.257973 -1315.012451
593.106140 416.382751 -916.604919
532.411072 -18.771803 -1430.927490
658.975098 419.018921 -873.151184
487.204010 -198.473175 -1403.761475
526.694702 -305.574097 -1295.767578
391.182404 -107.749855 -1454.086670
801.456665 -211.316360 -1289.368896
367.926270 17.462217 -998.765808
653.211243 -112.424538 -1350.194336
422.766602 419.453552 -1028.743164
586.449158 -116.555550 -1409.941772
351.720673 -27.118570 -984.499817
691.185425 -194.245270 -1325.615234
421.493530 -190.299423 -1395.005371
719.470642 -61.295887 -1371.014648
610.070313 402.750702 -946.803467
357.588165 -153.874268 -1434.820068
540.368530 -138.638397 -1434.416992
458.573914 -210.684525 -1391.116943
488.263031 -138.471130 -1408.042969
645.414246 365.322418 -937.224915
829.465881 278.370453 -1534.406006
469.612152 407.938202 -1033.333130
432.678711 166.611298 -1055.527344
624.476013 441.876801 -843.705200
659.763611 265.703918 -1040.309082
450.172180 -19.308086 -945.678162
543.326233 154.100372 -1019.462341
371.742676 494.984528 -958.733459
688.481628 -10.620243 -1348.518066
849.931091 -196.190720 -1269.088867
767.044739 151.708572 -1451.478149
377.694366 -134.787628 -1467.398438
481.491791 505.936005 -880.998291
839.291504 81.609169 -1442.419312
778.704895 -242.037842 -1264.075073
350.847534 10.235091 -1017.992432
397.629028 227.070770 -1115.631226
648.240906 90.642029 -902.159851
819.366455 -76.509071 -1321.595093
597.205750 516.677612 -779.904358
644.877014 464.993439 -816.135254
465.070801 -169.407227 -1412.655640
422.928894 -37.346264 -979.831299
745.088074 -40.232479 -1335.511841
646.402893 435.110321 -842.652283
920.022949 -149.587097 -1274.100098
520.772034 112.766983 -975.723633
673.236084 167.781799 -738.009460
478.634033 -245.386063 -1382.769165
510.980591 552.804138 -798.158447
582.193115 -24.909367 -904.102478
634.935059 188.390869 -1012.458557
484.427429 124.197945 -1024.251221
655.746399 44.405815 -911.595032
756.535645 -95.094528 -1349.930176
766.629456 -253.738861 -1272.907593
648.675598 45.102573 -916.880310
438.620392 477.344910 -941.125000
670.851685 160.274857 -955.134521
423.766266 -184.144531 -1415.164429
383.990997 558.500549 -877.651733
486.908325 435.257477 -961.770081
662.231750 387.386261 -916.175415
510.839996 193.438873 -1061.093872
471.508209 575.722595 -832.769104
485.589630 413.299164 -989.804810
554.210571 -92.547356 -1433.856689
629.465515 -137.333344 -1365.444946
541.242004 153.987579 -1002.694885
587.711121 413.161499 -940.731628
495.173889 -268.118744 -1355.428589
521.968811 249.115921 -1108.956543
494.379303 453.819519 -956.093323
429.237915 215.182816 -1097.782959
447.127686 511.173340 -907.171631
424.232239 397.871735 -1062.388306
582.534546 130.317886 -964.505615
822.778442 127.478416 -1451.445679
358.704102 -25.911732 -981.607910
692.329590 -178.111267 -1341.020630
454.339966 87.914337 -1337.543823
795.551208 115.294464 -1450.137695
569.806458 407.292633 -960.386475
872.971802 -135.892273 -1287.770142
660.564575 420.941772 -861.833496
508.578217 529.903809 -856.819824
540.647766 11.359054 -940.527100
922.749084 188.822784 -1469.589233
677.561584 396.322784 -890.807312
449.018585 100.850830 -1010.361328
609.314819 364.884491 -966.804993
395.900024 566.495850 -868.063110
329.464050 14.708508 -1027.683228
396.306671 528.811768 -908.613098
782.059814 -34.577667 -1337.253296
449.839233 43.464794 -971.552002
556.574463 261.499359 -1079.831055
669.866516 391.952637 -906.433472
688.970337 354.429291 -912.807617
506.329468 31.469273 -1511.029785
469.152466 46.754784 -991.131714
820.643127 -184.306915 -1273.084595
557.456848 288.547516 -1071.775513
372.194489 193.786377 -1074.005737
479.861420 -280.799316 -1344.775635
861.870667 -91.414200 -1248.136963
453.699493 435.793365 -997.391907
575.798645 349.043884 -1024.923096
480.002411 -215.173462 -1400.973022
493.848694 -114.669029 -1437.628662
851.696106 -192.046249 -1277.547485
457.777039 281.417725 -1133.932007
768.108337 -250.803009 -1248.801025
411.118347 532.286255 -906.878967
392.998199 459.135071 -994.853455
559.941650 369.031250 -990.947693
571.010193 256.345612 -1071.330078
582.643494 432.752411 -891.893982
296.442932 107.305710 -1042.175049
464.235352 505.399445 -873.830750
787.877502 -50.529594 -1305.590942
668.215027 348.923157 -962.452698
779.087524 -248.994171 -1242.892212
396.987030 512.125305 -916.472229
386.436188 441.157227 -1028.710205
634.955627 -268.483643 -1300.352417
470.725159 -69.882301 -1462.061401
512.497375 383.947723 -996.520691
399.522217 198.519745 -1087.257813
484.351929 10.165876 -1480.279419
557.397522 548.514954 -784.403076
460.452362 -76.845634 -1448.223755
484.298981 553.707336 -836.481628
535.983704 64.135925 -954.049011
381.834686 473.286652 -1000.375549
574.578186 454.866364 -868.112915
386.153687 -87.323120 -1448.864868
574.621643 -178.724869 -1364.826416
901.935608 -28.053736 -1323.257446
759.689087 -243.172348 -1252.688843
617.495789 -193.583740 -1338.029297
815.998352 208.645340 -1442.581299
942.237000 -19.942791 -1328.215332
769.835144 -205.073181 -1308.849365
621.895813 455.318481 -828.002563
535.159912 -64.366295 -937.656128
766.386475 -31.237503 -1321.714722
892.576233 -87.639000 -1297.603027
582.954956 430.844452 -901.710266
493.540863 -227.179871 -1395.192017
667.962219 -255.679749 -1293.992065
583.209473 130.099304 -1561.281006
558.104248 549.446594 -811.939636
371.648865 -12.538789 -1458.916382
715.927124 -149.864868 -1347.368164
588.071350 501.214111 -807.093811
718.764282 -224.707077 -1304.907471
407.341705 110.987648 -1047.316528
586.436462 0.320811 -1405.213989
479.510986 476.181793 -948.573181
589.604004 509.096649 -808.979309
554.031372 -89.233589 -1436.912842
432.698730 -234.669846 -1382.733643
594.590454 -159.623703 -1360.630859
779.697388 -41.026691 -1286.668579
442.797882 465.138367 -943.848633
549.393677 537.081604 -784.796204
446.365295 3.842609 -942.054260
632.598083 419.558807 -874.151428
379.195831 12.854918 -969.083435
535.447632 80.665230 -1563.625977
598.338013 466.520264 -831.329468
541.860718 -18.763834 -914.215637
649.676697 429.813385 -846.794189
573.294067 184.419083 -1016.625061
583.657104 410.503143 -936.050903
537.219055 -272.006256 -1328.878784
742.302917 -68.064857 -1364.914551
523.118103 -230.607803 -1337.871094
524.108337 49.732761 -937.210632
587.906128 387.539246 -974.586243
563.054504 406.839294 -969.400696
681.125793 119.357109 -748.398071
470.303192 155.762848 -1032.722534
522.062744 267.008942 -1098.663574
397.444366 242.543930 -1126.901123
587.441406 -312.983704 -1282.099731
505.940277 -208.504227 -1373.524292
532.138855 -221.113281 -1366.041382
773.874084 -76.571426 -1328.641479
420.575623 449.091064 -989.448792
337.035370 534.067017 -936.815491
506.055267 -244.662476 -1357.598389
922.353821 253.942886 -1506.593628
418.171478 510.081085 -920.127380
488.024414 -101.139412 -1443.290527
638.397949 47.872746 -908.147888
614.312622 -293.892578 -1270.774292
502.370300 274.214417 -1083.490601
539.107483 -35.179783 -914.709595
485.147400 -18.018080 -1399.878296
904.890015 -146.888474 -1270.268188
640.144348 1.330472 -1313.534546
584.322327 516.417175 -780.147339
440.596863 556.197937 -869.044495
319.804138 117.907730 -1063.940308
500.257721 89.920525 -1543.617798
665.967957 357.633698 -947.490417
820.880676 -147.118256 -1293.665894
578.868103 307.311615 -1086.968506
455.292328 -210.780106 -1406.032349
583.943604 462.331299 -844.373901
475.648071 512.908752 -859.258789
561.526184 26.140242 -1465.582886
847.155884 -203.478455 -1267.011719
590.017639 -67.239174 -1208.429321
598.324097 19.385326 -912.679932
760.123474 -21.820040 -1359.800293
470.740936 -174.116180 -1411.596436
838.832581 -204.713501 -1282.834717
593.462952 -3.389751 -902.932495
518.052856 -129.147003 -1419.657349
586.320129 -284.196106 -1300.897461
529.905090 -195.044312 -1405.768799
606.811768 70.608406 -1381.884766
942.371765 -71.724091 -1302.068970
531.662170 365.448364 -1024.966797
575.793579 426.641663 -916.157104
390.466522 515.458923 -908.911438
685.917969 -255.951904 -1289.067505
615.236816 131.260132 -967.183411
552.875244 224.862885 -1052.093994
664.032593 -196.939041 -1344.956177
620.273132 443.790833 -847.278687
579.016296 542.962952 -798.194031
719.144775 355.684845 -950.522461
646.100220 164.743912 -970.748718
516.837036 -46.839558 -1445.718384
671.380310 441.900635 -853.380005
538.425232 -175.830032 -1360.708496
525.460876 -312.961426 -1302.538818
407.400085 -147.768021 -1427.131226
536.656433 61.182915 -936.910278
504.737793 -24.376614 -924.944580
681.578369 416.063141 -884.447632
476.573212 -216.425278 -1382.032349
434.995697 -18.179779 -940.304016
624.930908 -252.706741 -1289.978760
424.269897 -3.800417 -1497.336182
446.563660 174.243988 -1054.908691
611.671570 410.939514 -910.438232
626.504883 -64.737709 -1293.865234
587.848877 -101.687798 -1409.954956
801.261353 -38.333027 -1316.613892
775.697449 -97.492630 -1338.505371
757.973694 -203.230438 -1316.279541
612.864441 89.646713 -932.075806
600.973267 -253.143478 -1259.327515
665.947449 234.618744 -1010.175720
574.329102 469.781250 -853.915527
387.734344 -47.241722 -991.216064
774.444336 36.334446 -1447.666992
354.376984 -53.172646 -1000.532593
599.396301 391.671112 -933.371643
463.649780 548.371155 -830.538147
504.763123 544.972107 -816.713074
531.666382 -84.989418 -1454.431274
587.184631 138.568039 -989.485168
890.839233 -57.100613 -1286.626587
580.566772 406.960724 -946.323242
632.010071 55.050503 -928.562195
677.588257 366.426422 -922.806580
412.700714 -96.427910 -1449.049194
813.669128 -127.028572 -1318.616943
603.564148 -71.021339 -1349.320557
679.138855 184.877899 -982.761902
578.785217 14.395872 -919.223389
582.017334 5.895486 -1425.067627
911.201782 -102.736900 -1293.238403
531.067322 189.138519 -1032.164551
637.890991 366.782074 -942.202209
808.881165 131.905655 -1381.918823
811.055847 -178.274323 -1279.335571
923.086670 -139.514252 -1278.516235
455.890991 483.777130 -938.171509
389.643066 110.456879 -1037.110840
649.555603 -291.860291 -1287.405518
777.453552 -265.648285 -1268.145874
469.694519 280.390991 -1122.642700
609.506226 7.416368 -1323.106812
497.820190 -236.864655 -1345.527954
577.983521 -255.360565 -1285.840576
852.357117 -171.561829 -1295.937622
517.859436 498.500244 -861.574646
479.986084 167.384705 -1059.781616
417.191986 3.559803 -1543.162964
556.584717 -183.898102 -1327.757202
511.685455 109.533241 -1577.299194
353.112488 51.573830 -998.060608
575.963806 416.583893 -941.386353
645.831848 -313.698853 -1267.706787
600.645508 -36.849400 -1440.561890
472.716736 29.748072 -979.476013
426.041779 289.163208 -1152.409180
449.832214 495.603119 -922.171082
610.719543 -133.988892 -1291.124146
544.615540 -18.848188 -1386.138428
707.453796 -204.408829 -1296.066772
615.010925 457.426880 -843.863098
663.222473 -216.153702 -1306.885376
359.348267 72.003349 -1015.807556
573.500427 479.781097 -843.907288
465.952393 -136.266312 -1415.122070
790.402161 0.635624 -1414.649414
639.584839 -338.290894 -1252.390625
854.874084 -75.080719 -1273.091064
776.365723 -162.297867 -1304.459717
589.693848 193.958466 -1014.473999
846.165833 -182.473267 -1276.739380
388.812561 239.502090 -1126.966553
571.976624 392.533905 -984.458069
540.950439 175.556274 -1021.803406
643.169739 -265.294495 -1277.895386
486.968475 299.899933 -1104.065918
615.941895 -114.756088 -1381.951904
303.378174 75.113861 -1054.494141
709.933105 -197.069153 -1332.645508
674.265930 348.220825 -954.768433
348.001862 179.934387 -1094.818726
492.773315 23.928133 -968.962524
513.059814 560.760437 -794.316956
432.005402 502.852844 -925.804749
611.653259 486.040710 -804.206238
480.184662 -50.235439 -954.923157
542.140808 410.922241 -955.133728
814.616028 -184.273727 -1274.512451
666.241638 -49.842690 -1389.901733
702.120850 -139.792709 -1371.747437
443.309448 494.436188 -930.811890
679.229858 373.658508 -933.564026
702.185913 -190.087067 -1327.572754
491.637909 467.808655 -921.338074
406.487213 137.440765 -1046.508423
481.248657 -19.258770 -952.660767
684.644287 43.481018 -1347.478394
656.179260 393.183533 -898.732666
563.527649 504.391296 -806.245789
529.946533 45.531013 -1513.735718
644.379211 -270.710144 -1298.424194
428.437073 7.696676 -962.334351
654.961731 -130.259140 -1343.675903
528.731262 -109.457420 -1432.641113
416.468872 61.357235 -1015.234009
489.911346 -268.989777 -1343.190674
403.114655 462.601563 -998.557739
565.057922 430.405823 -926.749756
488.069183 -77.763496 -938.603699
641.002380 -332.731384 -1243.299194
349.424408 143.088425 -1070.952026
554.338623 -274.964386 -1310.864380
453.417603 202.772049 -1053.725708
947.578796 -122.323586 -1264.097778
744.759216 -257.492279 -1280.734741
687.148560 -180.291718 -1319.186157
668.880188 -87.898598 -1387.678345
398.823151 20.923355 -977.831055
808.882996 -181.080048 -1294.341187
576.373169 78.403984 -1510.974731
790.404175 -135.378540 -1307.843018
438.860687 512.474426 -895.822510
662.865906 262.297211 -1043.218018
562.865173 -347.911011 -1258.623413
626.576050 85.744553 -949.276367
812.186035 -25.405579 -1310.378174
843.461731 -149.314743 -1307.213989
531.216125 89.548996 -1461.589844
421.260101 -169.838638 -1410.637085
587.621094 144.983002 -1000.658936
604.531067 390.371948 -950.172852
520.509399 -152.322128 -1409.697266
463.766693 488.286957 -903.868958
347.981445 -44.975941 -984.423340
551.918030 486.815857 -855.774902
343.851807 220.576111 -1096.447266
648.246643 -51.167454 -1357.110840
524.155518 -52.974861 -1449.623413
672.874878 433.965759 -814.426575
