ply
format ascii 1.0
element vertex 1424
property float x
property float y
property float z
end_header
1357.765503 623.327332 -370.694794
660.508911 891.591553 -170.454987
1437.989380 557.331848 -11.937440
687.337952 887.140076 -35.022858
782.710022 850.814819 -254.108566
1441.034668 654.749756 54.884155
1398.689453 806.497314 -369.809723
1434.793701 829.259277 -42.470333
1377.602539 560.101807 -271.270142
1399.032959 562.030396 -222.082855
982.397461 910.941162 -115.426567
1421.884399 867.403748 -28.411877
1412.683838 590.915588 -246.639709
1432.228516 566.452271 119.744888
1367.817383 640.739990 -335.901123
925.754456 524.176697 -218.113342
733.551575 880.881592 -118.551865
733.408936 884.801575 23.995502
1386.426514 482.668457 -127.717888
1317.156616 698.704346 -107.043373
907.757751 508.145386 -199.846176
850.043335 839.894165 -144.318741
922.040649 509.342468 -85.641838
784.037903 877.467041 -71.057175
764.964600 879.928406 39.531956
730.705750 874.749878 -216.231079
931.678528 451.237457 -178.305969
947.514771 443.317688 -132.980515
968.995911 515.287659 101.050819
947.620483 650.865967 -37.636578
923.034058 542.278503 -195.059830
1439.027222 546.871033 -1.548688
1392.747681 349.268951 -139.060867
1406.382324 641.552917 -0.071645
923.246887 542.702759 -219.139496
763.987366 875.312805 66.907539
759.160889 881.480042 -101.649300
1384.084229 522.789734 -352.174744
765.179199 878.784058 30.821991
1381.402466 772.924072 -297.420929
986.020386 444.807404 12.983848
1379.244507 641.145752 66.037277
1391.349365 337.102997 -139.945190
1379.716064 558.149780 -264.714111
924.714783 489.195740 -70.686501
1425.165649 519.086975 -80.560783
1396.582886 348.038788 -89.949074
1427.091797 660.710022 -41.081295
929.185425 535.307434 -22.762199
1386.343262 384.335510 -96.498375
634.102173 931.916626 50.067944
813.962341 587.608459 185.102768
931.109497 481.246094 -152.671341
946.814636 439.453888 -214.742905
790.668091 871.813538 62.167282
1389.606689 684.871399 -334.525818
966.172302 428.260681 -47.915039
1398.005127 690.168396 -66.649796
952.213928 494.325348 -70.694801
580.786377 926.578308 -134.560028
1446.354492 622.024963 160.824188
930.850281 604.182190 -148.188705
1387.131348 442.353088 -83.738197
948.661011 522.119324 -27.571505
1348.044678 691.818665 -46.369148
1429.546387 529.354126 50.576797
1441.287109 510.598022 41.808453
791.827942 870.487793 -217.797745
1399.085083 808.426514 -348.374725
959.719910 623.201416 94.485847
1445.964844 543.684021 86.592140
925.354248 479.847321 -168.087173
938.570190 516.539673 16.076569
1389.138184 420.049255 -218.869919
942.194214 607.086609 -55.666344
809.159729 872.858154 -31.159025
571.276306 943.305542 -136.468246
1393.308838 518.082642 -282.156342
1401.424683 648.846619 -40.323620
633.984070 913.599121 42.928158
1428.615845 666.906677 111.218826
949.875732 642.665283 -123.798393
760.114746 869.365906 -2.084425
1423.371460 915.683167 -4.989732
1438.697021 602.685242 20.854244
875.269348 863.214783 -30.649736
732.181152 877.099609 81.334221
661.908875 892.735413 -262.777252
1432.929321 558.300476 55.496674
1378.965332 732.941040 -397.346802
1437.914673 571.776978 -34.718613
1453.635498 751.347595 -21.056824
923.205566 612.568237 -144.847534
690.154175 892.904724 41.572739
1392.963867 544.360107 -159.488235
1393.065918 382.964600 -42.115021
620.777466 911.659302 -21.650717
1445.459351 539.844971 90.452477
963.041138 493.421539 65.794601
976.272278 744.908142 5.669796
662.902344 905.488281 -185.581787
952.752197 589.870178 -113.757813
902.945313 589.834412 -258.862610
1398.800293 704.907593 39.173668
611.772644 913.717163 -73.813118
948.183411 550.622253 41.651947
831.302856 856.708557 24.034613
1396.803589 522.286743 -124.936417
977.174194 816.020874 -17.138676
852.078491 858.572754 -61.908360
1359.691650 561.395874 -305.112305
1405.259766 428.888336 -130.420670
810.920532 861.676147 60.122093
635.605530 919.736938 22.855555
1366.954712 525.237000 -330.070984
1289.620361 634.444580 -106.651817
1431.141724 526.938110 -53.331318
953.593567 435.128296 -141.671646
1399.079346 613.911560 99.323685
936.849365 453.758728 -230.333496
1415.094727 436.570618 -18.282356
1378.626953 455.255615 -140.530350
676.452332 893.761536 68.601929
927.404175 475.187927 -163.559845
665.437927 896.673950 -36.170650
683.514648 890.792908 -283.052948
1436.627686 487.625214 -2.609601
934.863037 462.208832 -88.988937
1391.662354 480.147552 -258.292175
1355.385254 573.298706 -355.712677
936.568176 752.012451 -236.135956
1438.546631 777.412292 -28.783089
1374.636230 321.608398 -164.387680
930.071960 573.822937 -180.291824
663.293335 898.298401 23.766306
937.512451 632.357361 -197.569489
1400.716553 577.462891 -217.715439
618.378906 911.815918 -85.022400
786.929565 863.057129 -70.979973
960.248596 800.065125 -15.416815
954.694885 527.209045 -35.871460
966.254517 516.996338 64.114143
932.815308 710.677124 -144.223267
798.860840 872.396362 80.092003
955.974854 732.525391 23.247204
1404.828003 378.207336 -211.266846
968.554199 562.618896 89.799118
943.713989 759.796997 -189.585724
1427.254028 600.948486 5.492391
1375.104370 453.044189 -185.235764
1434.422363 539.425293 16.804127
1431.070557 509.126678 2.986350
977.077393 517.583435 71.974106
967.857727 672.481262 -94.441727
946.845520 573.256348 -95.118874
606.823792 922.673462 -100.579750
633.871704 917.914063 -81.400505
942.764221 448.933289 -158.197693
803.637573 866.894409 27.548628
972.520203 707.946106 24.903862
1393.352539 654.516235 -87.134109
927.887085 589.719177 -77.515434
930.570251 615.993469 -158.530518
594.139099 921.102783 -0.250742
1421.297852 567.446838 80.668945
930.230530 635.753052 -107.876740
1351.990479 517.490234 -377.743927
670.559753 892.392212 -135.181015
796.165100 873.079956 -2.737041
799.665039 862.085632 -20.874128
974.744629 548.450684 71.503166
935.519714 673.084534 -173.224655
1384.566406 456.303192 -323.955414
950.876709 757.980652 -81.513687
668.484558 902.662415 -149.076874
766.828064 863.724976 -226.269653
715.752930 896.897949 -75.130264
768.449768 876.479736 4.748926
850.160522 847.461121 -88.552597
720.320862 878.656006 -253.050629
1416.546875 419.557312 -16.020380
1392.601563 556.685486 -287.349915
836.087463 855.998413 -226.709152
1391.052002 677.444519 31.588535
1430.769897 453.952179 24.107336
1427.033081 467.851318 -10.790854
972.594116 748.649719 -179.188461
1378.606567 687.604614 12.101686
1378.494385 398.535370 -148.449585
779.337585 879.881958 -173.553665
940.171753 495.144623 -27.136507
937.905518 719.636353 -111.151306
944.424072 552.466431 -117.152176
937.299194 654.311157 118.953690
940.245850 608.994629 -37.427456
1425.906250 804.477417 3.456069
795.138184 856.921631 -234.641052
832.010498 845.338928 -247.527267
942.433105 537.152344 -29.822014
1434.798340 620.426819 -43.145107
1388.193481 532.216614 -150.841141
1440.622559 691.792358 205.132874
691.689819 896.602722 60.390114
920.311829 503.690033 -218.361832
935.236145 502.583618 -6.047323
960.228699 664.214050 -26.240461
674.669495 899.971619 -30.429338
633.503052 915.035645 47.125244
1366.692017 467.051147 -120.545509
939.224182 507.876984 -202.861847
1440.784790 904.465271 17.409420
1362.166992 490.687378 -370.035706
1431.758911 1045.259644 -32.303883
1390.239990 387.813263 -198.311630
744.788635 886.908691 -141.892731
832.986145 878.517151 -37.140648
824.088562 870.843994 74.889854
950.645813 632.039063 19.608246
1396.994751 380.640503 -154.401306
815.816772 868.571533 -45.832596
1416.864624 596.163086 -79.879906
1440.757813 550.796814 16.937298
1395.055054 406.798462 -134.550735
1380.118042 663.787903 -85.080658
931.706970 764.378174 -170.367447
1334.611084 722.867554 -96.409851
943.407959 741.734802 -264.936279
701.872131 875.811890 -243.783798
974.267578 428.844543 -156.330307
971.379517 458.395355 45.993900
619.646667 926.129272 50.684803
634.998230 898.248352 -257.625488
1422.605469 621.327026 36.688988
955.088379 425.505981 -112.755280
649.229980 919.688049 59.711365
1422.697388 604.752441 -60.061703
934.461121 483.669037 -88.422455
821.578125 864.766602 87.096809
913.814453 601.227844 -219.614914
1393.404297 507.144043 -281.369904
792.210449 872.950439 33.630539
735.676208 875.814880 -251.281677
682.771729 903.076660 65.079796
1380.470581 347.285583 -107.741173
947.901733 541.622498 -61.451675
839.468018 868.927185 -64.886055
1419.502319 544.854004 71.680557
923.245178 466.027740 -216.087952
1380.492920 491.323456 -72.954117
1437.470093 589.025818 17.362206
923.106323 604.893738 -278.616425
930.276489 728.928894 -168.742569
839.386047 865.594604 -0.799051
951.844299 523.623108 -111.056801
742.610779 881.620422 62.550945
920.386902 550.100647 -238.502899
1424.940308 443.364990 -8.725249
1385.446045 506.929779 -149.298737
1378.166382 469.287354 -262.330627
883.294800 572.020752 161.511917
712.167664 888.002441 44.985531
1429.885498 633.293701 39.489609
751.928589 879.738159 59.808502
1337.772583 524.184570 -125.695717
946.696472 671.050232 73.039665
738.019226 884.384644 52.628765
1374.871338 524.202637 -141.655655
807.879211 889.978271 74.209358
930.611877 481.221008 -43.979118
952.460327 527.697510 35.592560
1421.415405 502.583344 -77.231636
1414.593994 375.789795 -120.320015
1425.645142 504.526398 36.933434
1394.721069 504.686981 -252.588837
952.186646 609.573303 67.865341
962.662842 614.783875 122.431122
821.133484 853.225769 -245.475082
1377.730713 481.623322 -272.142487
1396.582642 448.561646 -196.454697
944.924866 536.532715 58.376690
974.906433 528.885559 64.259857
1001.857056 887.687134 -56.863407
1417.903320 652.168579 52.188591
1382.000366 396.648804 -169.535385
1377.045288 535.835632 -279.832001
1367.277100 444.431061 -298.672516
842.230957 862.322388 -44.655834
1369.679932 475.871490 -297.830231
731.051758 859.770447 -266.614471
1376.190796 528.181641 -427.450623
1391.225220 402.004395 -222.336044
787.166748 750.239380 163.334671
1402.040405 746.879333 -313.323364
759.008118 871.746704 -109.985100
947.360413 504.135010 -51.197746
922.467468 593.744324 -131.643433
823.890747 862.864807 42.818737
955.807129 653.356445 67.224174
802.986389 855.337646 -196.691742
1010.268494 446.780792 8.385333
879.497009 877.847595 -60.683952
673.462219 890.589722 -220.674835
672.937500 898.129761 0.216831
724.116821 886.543884 -144.711761
613.449097 925.549011 -55.538410
645.209106 894.054565 -232.846710
1393.762329 627.959473 -254.405930
1373.714233 545.832458 -355.722107
1437.106079 1012.767151 29.892942
919.406799 453.654449 -202.031418
1388.729736 497.162903 -295.650452
722.705627 888.056641 38.371311
1432.656250 627.303894 -62.895405
662.980469 896.587891 -72.806671
968.287659 605.422302 98.509552
946.782715 590.601440 -51.017193
1355.279907 646.506714 46.175365
1375.918701 554.734497 -337.069580
775.275208 861.251831 -275.576080
1424.694824 676.215454 -54.051331
938.513977 421.539978 -178.382172
935.646057 472.980530 -133.012650
942.409546 596.014587 -32.885445
918.287170 610.717224 -249.578293
1401.561523 450.666534 -88.192360
1435.783569 556.506958 94.785561
967.312866 720.365234 -215.901337
1431.237671 554.934204 67.776421
644.995483 899.318665 -116.828537
1318.833618 544.150635 -383.598785
834.218201 871.131287 -131.049500
929.909729 548.058716 -165.062500
1275.155396 602.295166 -206.364517
924.578003 479.212952 -245.737564
957.355835 825.445129 -97.865219
934.749817 530.873596 -111.551537
966.726868 442.133911 -7.723601
923.963379 490.514801 -177.923996
1358.460938 525.538696 -361.751434
758.651245 869.442261 -73.820503
1340.847290 458.355438 -142.361038
1356.455811 527.897522 -167.541641
1437.870239 464.321716 47.930588
1380.267212 346.799896 -156.169144
792.519714 861.966370 -216.889954
660.373413 899.766968 -83.702637
1417.305176 458.627777 -39.330208
960.088806 743.276978 -78.616898
1395.585815 404.634247 -184.658661
1419.622681 545.904053 -93.548241
1363.650146 407.817932 -304.885590
715.383850 884.444092 -55.546017
1383.546143 439.603912 -59.623646
1297.447754 704.220337 -108.728531
958.431519 428.473724 -51.295586
1432.000854 831.547241 -14.421974
1371.422241 347.476105 -236.896255
1435.874146 487.721619 -14.706537
1358.876099 673.476929 -226.485626
751.979980 551.992371 -338.522369
598.468567 921.587097 -71.435562
923.592041 505.955811 -170.786484
1382.716187 593.523743 -124.707382
596.356018 913.990417 -55.838646
1422.662476 627.261108 67.982063
921.665100 622.630249 -240.014252
1395.687500 427.394165 -172.583359
916.907166 483.330994 -255.553726
865.803772 871.131653 -96.369621
795.005127 875.347412 -153.397507
929.578613 587.763062 -60.574444
791.572266 874.346497 -172.641129
947.614014 509.270020 -60.836689
1361.528320 668.346008 -125.485924
948.624817 571.439636 -145.872696
1406.726929 488.586914 13.940648
943.636047 450.741486 -102.584755
1411.087646 439.644684 -76.671700
942.169983 634.711487 42.164700
1396.084961 492.386536 -154.975479
946.737244 447.927124 -175.149826
1427.615479 836.080139 -13.297705
975.905090 461.762543 74.288544
1433.110229 424.906891 24.447964
959.973389 521.058777 76.919907
1310.104492 620.760803 -296.452301
1433.335327 599.974365 7.320669
1380.949829 930.717773 -56.794003
693.746887 879.466309 -234.569077
1356.182861 505.633636 -386.025757
1423.680664 990.002625 -58.676682
1422.980469 606.985107 -102.141731
866.587341 865.014404 22.113613
1405.170044 554.627136 -64.642479
1419.448730 652.557800 39.998188
968.359863 446.145905 -1.731981
922.727356 579.014282 -144.075256
925.285583 598.344788 -120.879829
1437.177002 835.922852 7.549082
1375.916626 375.717682 -212.706543
1316.520386 580.290955 -341.380798
781.814880 875.205383 -64.799637
1396.333984 339.863129 -116.581039
1401.392822 602.082764 128.163010
1430.135864 460.072418 56.748703
846.188904 828.035522 138.488480
799.315674 865.516541 -245.301041
1437.343262 554.622009 -55.919617
1428.047363 520.823975 35.964432
1390.661255 382.915131 -85.360168
704.323547 894.624756 -155.674927
1371.662476 508.181335 -372.676270
824.867371 875.418823 -25.302378
1398.628662 345.888947 -108.621452
1411.541992 561.176636 -257.864838
702.732422 873.715515 -214.962402
882.887817 869.569702 -79.142799
1434.471436 566.967041 70.284134
663.770996 917.976746 -76.364510
628.361450 922.915161 -5.599684
949.267090 585.173218 12.284990
1359.973633 398.863037 -93.412643
965.326965 702.080566 82.225113
1412.950562 638.631165 113.954712
746.413391 889.630432 81.888405
1431.235229 663.546875 -69.277718
947.215759 664.539673 -71.244751
656.364685 903.609253 -224.693253
950.201172 468.048523 -131.680267
801.976013 870.343567 0.147955
761.773560 885.952271 -122.796936
1447.227783 600.199158 170.900360
750.541870 883.769165 -27.065548
1360.184570 659.462708 -258.010681
653.981873 898.041748 -108.190216
831.089172 851.226563 -87.406555
1410.828979 651.906738 45.633808
1424.948730 564.118835 -40.941231
1393.469116 390.385132 -207.350098
1352.878906 434.362854 -76.637726
768.336365 587.343384 -324.651245
1360.795776 459.008179 -99.219315
1417.979004 329.647583 -70.529129
949.054932 638.720703 -201.199371
1397.218994 416.945282 -264.917633
1427.663940 544.968567 22.283087
1402.513794 534.413818 -305.816650
1437.049927 913.595215 19.161201
815.197510 855.703125 -165.605606
919.451538 534.073120 -252.168427
919.023376 565.821350 -138.803375
795.523010 612.173706 197.391006
953.682800 644.468262 -107.210747
963.662537 795.909363 -80.971451
826.127441 850.722412 -250.928894
754.852173 880.127747 -45.859097
571.064148 932.040283 -166.673660
1330.463135 611.474792 -279.556580
1418.192505 600.676392 -72.383438
1388.293335 360.918152 -202.585129
1429.983154 599.768921 76.714859
946.772827 534.243713 -262.494690
1431.484619 601.721436 90.750351
1406.297852 510.203339 -40.237125
952.074463 513.189819 -20.803186
959.082092 526.740112 29.074444
1391.247192 318.063263 -130.466156
1386.542725 529.178345 -311.194580
1412.865845 505.111938 37.149300
952.501343 462.288177 -1.788214
959.523071 493.250153 -4.571796
1448.780518 540.218506 131.670273
960.260925 804.315125 -8.835526
1381.722900 601.899170 -218.102264
957.730164 424.655823 -133.487732
944.729492 498.066925 -200.067520
825.423584 858.892517 74.337128
625.238098 909.506653 20.464176
1373.386963 632.951172 -251.182220
1378.439819 547.133362 -343.991364
904.352295 617.759094 -267.961945
977.601807 542.654480 85.916855
1402.685181 433.031067 -15.013331
1383.378418 721.329834 -5.163549
959.768188 467.620850 46.605347
910.088745 581.426331 -273.376099
928.756470 513.430115 -144.423050
1377.089844 716.975708 -406.047333
1409.373413 348.318390 -32.854034
1390.517090 583.194031 -361.269623
1404.851929 537.391479 -272.334900
1420.363525 579.318726 -94.921028
773.745117 879.609436 -4.384026
1359.430786 672.048218 -248.316406
922.017029 502.341583 -247.231918
941.581116 572.260864 40.731781
610.348877 928.116150 0.111209
1394.638916 579.716248 -268.207520
942.234192 681.859131 -103.581337
930.145020 706.074890 -160.806717
652.366638 904.616638 -35.021496
1393.568237 639.550232 -246.059525
1390.575317 397.162598 -166.299377
1401.578979 562.805420 -117.707298
820.337769 858.215393 5.913440
750.043091 877.376343 -207.581375
875.591248 875.182312 -50.268711
1410.588379 639.489014 157.183014
673.126526 888.914185 -249.604645
1426.908447 438.768799 -14.470054
1431.905884 463.006897 -2.148134
1371.315430 523.110168 -392.418854
928.068665 588.504578 -71.824379
965.430115 703.228821 -18.283087
679.246216 887.074402 -216.078156
1380.175537 517.762207 -241.311050
1370.221069 507.699829 -402.941193
1434.427734 635.108826 123.618996
686.191406 897.062683 36.902554
1402.600586 339.493378 -50.900589
967.471191 477.162140 44.564323
731.631470 885.537354 -210.804108
1408.167114 412.681976 -142.163635
903.449646 505.031525 -249.044312
1438.350342 472.013306 75.007988
973.164001 622.258667 41.217899
965.168518 550.581909 105.276100
1400.631470 413.636261 -218.013824
1383.999756 387.418152 -234.471786
967.312256 444.601471 8.355886
1426.258179 523.347046 -3.298616
1444.673584 817.138855 -32.699173
948.924011 423.823364 -73.278725
810.233215 876.256104 -136.133957
1402.471436 360.215759 -166.582031
955.198669 552.325134 73.830353
750.802551 881.926270 -185.390106
743.104248 876.933655 -52.962349
945.002136 673.913940 -35.941471
1343.966187 604.903870 -282.647705
1437.496948 493.478973 2.489681
814.779358 862.631531 -56.553089
1442.109619 1020.206848 -109.025566
1447.085815 1030.552002 -34.236462
1392.947266 342.323303 -123.598656
916.934326 473.871674 -275.875244
832.663879 872.212524 32.532021
957.231995 744.783875 -111.693474
971.109192 687.665649 -68.614601
1433.083984 430.378693 17.866047
661.731812 903.801819 -110.856041
970.628174 589.868042 98.957497
1390.668091 379.302521 -92.696342
1381.273560 713.779785 -71.329041
597.438171 921.914429 -188.721741
1361.413452 638.849731 -319.137909
949.803955 484.991058 -38.119328
938.735474 529.901855 -63.147205
1358.001953 534.276306 -430.099854
953.950012 472.798187 16.608614
970.360413 468.342346 8.909412
973.056396 574.932373 85.642029
714.103516 890.523193 57.709908
937.019775 509.157898 -5.273516
1401.337402 584.115356 -99.730141
937.439758 490.649384 -60.664379
686.099792 894.209045 -131.662598
965.190308 414.582642 -58.443371
701.712830 888.992310 -197.366730
1393.968506 564.880493 -254.598022
678.119324 884.181030 -186.201569
696.049805 869.695862 -258.016083
641.896912 908.854797 14.857220
938.349365 449.750641 -100.200417
1445.467407 1050.869141 -43.027924
1423.782959 643.363403 -23.570934
952.747437 711.727112 -254.106110
959.599548 553.438171 68.181206
717.393555 903.784790 73.464157
947.449646 773.214783 -74.319122
1426.664795 532.033508 -53.017590
912.822998 533.633362 -289.186798
1428.286743 534.849792 -72.938644
923.390625 593.922852 -154.537430
934.569031 451.524017 -214.386719
980.965881 454.761658 33.666004
918.162964 463.640259 -210.968796
1393.096191 400.759521 -173.659073
695.450317 894.121338 18.431780
636.152893 912.369446 -128.064102
926.612427 514.925659 -139.293594
867.830505 566.174377 175.454559
666.784485 894.289429 15.548949
797.201111 875.590515 49.473888
1367.375610 670.773071 22.294939
938.078430 477.672607 -58.537224
733.258606 875.782471 -1.036538
1323.732544 565.393311 -441.700287
1408.937378 449.037201 -229.094177
1317.482422 693.916504 -105.557243
929.214539 544.561279 -171.981476
1381.723877 663.820862 -383.096558
932.559753 628.485779 -68.289284
725.703247 897.830627 56.736492
957.624390 491.936340 61.179802
945.691650 563.724365 66.488106
929.646362 769.466675 -201.600357
933.828796 640.498291 -36.958817
1384.727417 466.728546 -330.096191
920.687805 572.148682 -219.878662
951.894836 434.648041 -63.919872
1348.144287 620.330811 -161.395676
947.082031 653.019104 54.927650
1384.186401 413.266815 -251.022339
617.457275 940.409607 -49.380100
1413.440063 380.191162 -16.778395
768.336853 871.409363 -37.920872
1437.689941 1012.828796 32.859234
1426.661133 511.240021 -33.012138
619.023254 905.166992 -183.005814
955.053040 753.593140 -56.812500
955.195679 420.821930 -105.161247
956.730347 786.499329 -123.405220
590.108948 944.464722 -133.815414
1406.413330 390.290436 -57.792175
1360.247437 554.771851 -420.002594
1456.533081 652.593567 168.425949
1399.348389 751.698547 -396.699738
1392.427124 371.859528 -41.212494
790.119568 863.284973 42.306931
1385.367188 464.224792 -274.722046
945.184143 582.779663 -51.186192
730.416321 876.108093 54.984219
812.482056 858.316895 43.030407
613.502319 902.383972 -225.872421
798.702332 871.754700 -55.303730
1454.178345 592.801392 168.928192
1397.818726 623.278320 -240.571457
678.274780 889.719421 -78.039253
771.150940 876.338684 -201.487350
788.497681 854.529785 -249.423615
1399.470581 393.484711 -64.194649
956.313599 548.752136 -78.215332
1396.545532 614.685425 -108.679581
668.455322 887.958130 -197.560318
945.972168 683.782654 -149.277557
592.871155 919.503784 -129.996643
1381.344238 486.362427 -317.407990
1275.945801 620.423035 -114.702209
1346.098999 681.917114 -187.011780
912.390686 505.031433 -297.684387
1393.538452 772.504944 -319.634766
792.267944 875.703186 -83.635582
1461.482422 672.334717 147.588669
857.235474 870.519714 71.361282
617.817017 907.769714 -194.690155
775.566040 879.593628 57.482216
1406.743286 747.095703 -53.535618
961.829224 572.702515 -33.878777
637.389526 918.015320 -19.467476
716.170654 881.509460 -263.778381
1379.745972 417.373444 -299.630798
1407.070557 697.857727 36.463852
1338.984375 639.524048 -209.488693
925.499207 488.636871 -100.460510
949.247803 686.670654 9.828279
953.278564 512.489136 62.231255
933.405151 733.383789 109.144012
841.189270 853.203003 -60.543369
784.991150 877.173889 24.859886
648.553467 915.186951 -77.626305
805.080872 869.692017 10.190759
839.297241 875.518799 -27.127438
719.159485 879.890808 -275.132599
725.614624 885.074402 -48.833092
945.522095 449.550659 -114.014763
674.060608 900.654968 -99.865112
1383.479736 520.338989 -359.499878
1441.210815 635.569153 133.272354
1409.965088 385.189972 -55.661713
1395.386353 653.137085 91.800148
955.072693 412.595001 -158.678009
1388.118774 508.158600 -341.516357
1335.158447 638.573975 78.753250
873.355591 876.668274 -78.573395
747.905212 867.101440 -232.204559
1394.728882 395.519653 -181.364105
958.976440 736.476013 -22.184565
953.169434 448.103638 -72.537323
930.320984 564.211975 -167.180130
1415.000732 566.968811 -217.250732
975.575806 598.177612 94.665222
945.817078 541.747009 -91.849266
965.678162 550.270874 53.048706
973.473633 448.203674 -6.543310
1445.304688 569.934937 79.455605
927.241333 518.758545 -132.947174
934.319519 484.267090 -133.165115
951.713745 822.407715 -83.625290
1388.235718 382.599762 -104.018669
935.977966 513.000183 -176.349533
988.319031 481.476685 46.938160
934.479126 617.223694 111.544014
904.104187 548.582825 -234.483017
959.154968 778.038696 -21.868288
946.277527 421.550354 -137.306839
1429.932251 569.115051 14.527198
1462.280029 633.055115 184.299438
673.816284 906.259277 -134.569611
961.120789 664.917969 73.262688
1386.704834 618.971191 -211.319519
1452.520264 601.005615 160.806641
698.825806 893.416138 4.912172
1433.341309 499.545624 -36.184814
1423.065796 787.829834 -4.941387
1415.023560 436.267303 -72.328560
831.503967 856.882813 -237.924866
1447.662476 833.419678 -30.784538
1389.394165 620.232361 -258.654724
722.848328 892.873169 -59.288307
1396.232544 780.385742 -383.642181
1334.692017 709.962158 -91.014503
1411.174438 584.213562 -9.805985
795.639099 852.966736 -240.411621
1408.585205 424.692078 54.050365
1409.488525 841.359863 -35.925297
1437.585815 731.823792 148.449860
1312.727051 554.948242 -359.342316
598.353394 912.555969 -129.230148
967.005737 666.753784 -98.771667
1383.479126 345.664093 -200.841400
934.334351 786.279419 -175.686783
929.204224 568.370117 -184.127197
1322.823853 680.186401 -69.819191
705.892944 884.247192 -161.545273
1431.106689 436.525269 29.055689
972.987183 742.812622 -150.219971
699.810852 891.481323 -189.498444
620.921509 929.496826 13.636312
1430.556641 551.163391 59.798149
783.314453 852.170288 -245.034561
1317.015869 535.117432 -358.958801
1403.906982 893.549500 -44.106125
611.997559 926.590454 -99.218346
1426.771484 676.576355 -81.927498
1384.565186 480.715088 -289.452393
1424.449097 825.341248 -51.425678
611.066833 938.692871 9.867715
934.428467 517.756104 -79.228302
854.527527 851.433105 -194.446014
1425.645508 536.967773 -11.765456
932.439331 662.590515 -226.085037
1376.623779 479.283417 -134.245758
946.558899 674.331726 -182.587555
619.407166 911.930725 20.099882
1388.123413 513.981689 -354.951599
676.859070 895.828552 61.539669
1370.315063 387.115082 -242.834900
774.975403 863.094910 82.456528
1431.588135 540.488831 90.649155
1397.391846 328.922424 -68.855736
716.834473 877.850708 -126.709618
959.319092 465.601471 36.527679
725.657471 884.058228 89.949348
1398.378296 834.647522 -329.717072
770.716675 884.223206 -40.417107
1399.439087 445.118927 -30.029497
1353.778320 500.414490 -397.487274
681.352844 905.837585 46.464401
1398.097900 520.093872 -304.567291
1385.867065 516.709106 -332.669434
845.282166 863.419250 -11.186489
1392.995728 456.831512 -190.409470
1409.700439 379.440125 -204.544800
1374.307129 402.450287 -144.153732
1432.230591 521.916626 100.419807
824.699707 875.051697 -100.958382
814.162537 854.655396 -206.663040
946.667175 766.143738 -253.285217
1382.343262 430.298340 -309.190399
1386.747803 392.602325 -90.709763
1397.296753 587.248047 -255.664413
1348.010376 648.414551 -60.970051
1397.240356 494.680145 -173.805710
609.256287 919.663818 -10.956904
1400.187012 597.000183 -196.570435
960.201233 748.730225 -177.619675
966.171265 413.942993 -66.110199
1401.718750 715.080139 -325.178131
1336.562256 718.037354 -213.298584
1427.665405 510.985779 -61.008846
1389.952271 550.679565 -208.706940
974.770325 482.364380 29.989578
723.184021 876.009583 -172.508621
713.669861 880.208374 -172.263260
1353.443970 388.188354 -124.498795
928.343262 598.271179 -158.273865
834.635986 852.972473 -50.442020
959.907227 799.493591 -100.893402
1442.326660 576.896729 112.654755
732.594543 889.275024 16.284729
581.199829 936.175232 -1.353883
1438.140625 667.417053 193.246597
949.239197 678.922485 -71.100555
935.029907 657.275024 -227.535828
1421.633423 646.543213 -59.270416
1412.148560 419.234314 -60.513386
794.475342 602.839844 175.611511
610.564758 905.842346 -141.630493
743.495117 881.510254 -2.794459
1389.004028 513.110840 -310.722229
1402.079346 408.071106 -61.238880
1421.801147 551.369751 -86.651848
1395.197266 497.270386 -245.238556
1389.252930 541.620911 -308.078522
1430.545044 619.109985 137.487885
969.970642 472.310089 14.321890
1397.438843 342.306335 -183.324738
920.541504 532.560364 -163.198181
629.366577 903.185669 -173.437393
786.407837 880.574219 -87.161072
948.934082 585.566772 60.216312
607.762939 934.908447 -146.260468
720.211182 878.172424 -72.646210
1358.520508 598.960388 -409.124023
939.658630 609.893860 -233.496124
1379.559204 559.636841 -243.177933
1399.465820 340.701141 -96.883705
1434.124390 608.127380 -1.854653
908.473999 496.759033 -197.481247
949.035706 586.554382 -213.623260
861.417725 845.095215 -61.264992
1420.250000 537.004517 -55.265350
1385.013062 553.754089 -307.528870
1425.359131 740.109070 37.500717
975.856018 890.442078 -94.596931
1391.888184 411.709717 -199.331802
646.371033 909.582031 32.911053
983.738159 839.628357 -57.444950
943.695923 475.993469 -14.251836
839.949890 867.044617 -162.742111
1390.986328 532.526428 -268.629486
640.106995 910.091187 -98.394440
836.351563 846.899353 -200.484528
920.049072 507.003082 -88.778282
955.294434 737.602234 -222.673584
670.254761 899.250183 30.353411
1435.765869 524.776550 -1.465921
948.073364 453.234009 -180.094421
1440.229248 565.243774 140.109909
929.545349 604.898438 -206.083038
956.834106 445.071747 -24.915035
965.679993 550.427124 81.310753
1387.186768 514.985779 -388.592560
1393.296143 490.643616 -231.097549
936.872620 499.058838 -109.165100
950.729004 716.954468 -24.522152
934.067200 629.790161 -139.899948
590.371521 915.625061 -57.531525
751.828064 882.053345 -3.726286
1443.961670 588.038574 31.021858
779.723938 878.063416 -78.226082
1409.026123 387.256012 -173.952621
977.542969 728.396118 -38.365566
909.811707 606.052917 -234.142944
985.099365 545.881653 92.702187
931.968628 537.036194 -18.623585
945.376587 704.581238 -223.245239
1404.812134 525.618042 -268.096710
1422.158081 739.740906 26.129114
756.502075 751.607849 184.472687
1423.403564 460.646545 78.468628
1374.421387 634.237366 -256.065765
1389.228149 458.143860 -249.620117
1354.340698 410.861389 -106.834824
837.104858 860.418884 -199.983902
1368.979980 667.477478 24.072487
938.395691 583.258972 -223.018494
1429.216919 579.839478 5.008867
962.357605 703.315063 28.338463
947.384949 685.424927 26.635239
748.523071 880.666199 -7.098978
1440.641235 501.607269 105.874039
1446.606323 954.595276 -5.364558
1417.464600 472.426605 -43.130459
917.247314 586.103699 -176.767380
1395.697876 827.503662 -12.725962
830.208252 857.279968 47.802273
1384.561035 419.107910 -263.875305
929.831482 456.165710 -190.145447
1401.171143 443.861969 -238.346451
1415.541260 1031.463501 -102.110168
763.086731 884.661377 -112.958244
1359.121216 533.783264 -391.807312
954.667480 719.564392 -114.906807
650.519775 891.255615 -230.360062
960.954529 648.468811 -78.686409
958.462585 434.667450 -21.341864
1360.654541 675.107910 -74.688461
959.319275 621.715637 -12.276513
1438.313721 689.577454 170.723724
728.772888 887.246826 -54.984886
1442.083008 650.943359 136.753860
1422.012207 435.839111 41.507118
1329.176392 564.618408 -147.654694
959.426208 439.374481 -183.078140
774.774048 888.039185 -57.927933
1457.587891 1022.650513 -30.460340
1409.615479 694.967468 76.725807
742.958862 878.541138 -177.871475
1430.364624 479.727448 49.732777
678.102844 887.823181 -171.053406
1382.174438 457.733521 -215.876099
1369.051514 593.492737 -329.849823
1360.068970 580.643250 -426.524506
978.810059 440.353210 -38.811333
920.376282 518.676270 -161.297729
1300.805054 613.680603 -93.616333
622.969727 935.193420 -117.418526
1399.060303 741.361023 -371.360931
853.212219 862.179138 -21.731871
936.953674 470.902069 -70.322510
853.303162 853.948486 -97.102371
963.649109 676.106873 94.234001
817.665771 868.833740 28.589794
1402.977295 417.792938 29.404627
948.858337 472.774475 -30.566048
1367.517212 466.695740 -175.051727
708.571716 892.773315 1.648474
931.504883 556.767578 -111.010071
962.333984 417.228821 -82.552765
946.316467 615.711304 -11.560351
943.465576 489.399323 -11.360899
1402.009155 644.104065 21.076035
966.829285 660.958740 78.486183
921.328735 615.200867 -261.959320
783.653076 858.306885 -238.445190
1414.203613 547.493774 -217.016388
731.099060 882.739746 -116.620438
960.588074 787.689331 -26.441442
972.939636 450.036316 8.957060
919.174377 467.285309 -257.011017
1392.159424 592.094116 -108.504448
1444.714111 814.223938 -39.737946
767.375366 872.469727 -142.312469
944.703735 419.488708 -165.188278
1383.089478 673.615234 -112.883720
943.153992 687.011841 -97.924995
731.517090 880.267822 -286.918976
959.848267 416.577606 -73.459595
981.339844 462.765930 70.757637
946.220764 444.270782 -194.862549
1436.888306 1050.841309 14.890003
754.752319 877.909912 -197.596664
730.495178 865.724182 -285.130371
914.996643 471.134369 -257.898376
940.152893 475.125305 -168.756882
829.340820 848.383484 -175.167358
956.314636 702.299072 10.119465
1399.716553 660.645630 51.913471
747.415771 874.557312 -247.818451
1379.348999 636.131775 -253.975388
1397.433716 460.049469 -67.354034
640.447266 903.542969 -32.149426
1326.139893 588.054688 -164.183716
960.924561 620.689636 5.675479
1438.291626 625.546204 51.341618
871.859619 860.291382 -20.783245
962.345703 821.031677 -142.918213
1432.683472 608.369141 -17.241796
1377.289673 874.492432 0.511529
859.702698 872.254333 -113.514122
662.009766 893.875793 -153.516846
1374.006470 557.383972 -297.320831
1440.921631 682.406555 205.271881
944.272217 724.594360 -189.773651
1419.355957 505.424347 -50.288845
1433.403687 584.152466 -43.841980
1363.359131 617.124268 -355.046082
766.702942 881.267273 -39.768322
1389.640137 373.683075 -216.425064
969.049622 444.226807 -79.863327
1433.564819 521.029602 119.062561
1409.463379 402.680267 -61.991581
1406.390991 499.160461 -50.336060
945.489136 621.258545 55.856899
1417.218140 818.132385 7.414063
1334.568237 493.322540 -126.985718
958.334351 792.290955 -226.061768
1416.012695 539.006348 43.949280
1377.774780 604.536499 -326.037323
1435.749268 630.355286 58.232803
677.604614 905.703369 47.551834
757.335510 862.254578 -207.604950
950.915955 593.077820 64.945000
746.025391 873.365601 9.006371
1412.876343 412.472382 -17.940613
1427.711426 592.171509 99.374573
963.580750 559.295959 80.514717
683.518005 914.503052 -174.408859
1436.541626 850.018860 5.199699
929.916016 459.081390 -228.644913
1408.052002 1042.213013 -171.521408
927.874817 452.388550 -138.796799
1357.725220 763.136963 -304.964844
833.103760 852.844238 -14.098642
941.758301 606.643188 57.276192
620.799988 937.858459 19.754295
1405.165527 496.910980 -175.570236
1291.902100 707.833313 -108.094116
1389.535645 492.043182 -292.163605
940.652771 652.558533 -207.655014
1422.951660 785.843628 -319.077118
1370.754028 444.504211 -93.972374
954.090088 771.974487 -261.896240
1435.641235 465.702515 74.016640
642.733154 903.114380 -75.497795
960.055847 800.162659 -27.141373
930.931580 649.365479 -73.950745
924.557556 513.266052 -57.115665
1323.241455 458.842682 -105.439117
1366.150635 410.892548 -116.268593
1419.292114 592.534241 119.225471
1438.295532 580.442017 -73.135979
1374.241577 350.192780 -186.808289
1441.586304 568.279541 21.403221
1427.315674 490.988922 -0.806482
692.084900 885.416870 -200.099106
1381.544434 445.190308 -327.411865
773.019775 877.596924 -75.475250
684.848450 893.234680 20.533525
1353.656494 454.736603 -78.026573
950.220154 644.711365 -196.565979
807.261902 875.771179 -8.218742
1423.092407 639.219604 112.427391
957.982178 768.983887 -106.567696
1402.496338 600.064697 -184.338486
1436.020386 616.817627 89.961815
730.231201 885.365295 6.578133
946.845581 427.015106 -90.686127
1358.631226 691.281921 -72.435638
974.417053 797.740601 -62.482853
948.462646 481.442627 28.874344
922.031311 536.388733 -130.413895
1425.583252 793.896729 -81.122704
1377.240845 467.225311 -332.206543
796.117371 865.532654 -169.089615
951.667542 595.724121 45.941082
974.292480 523.982117 60.152344
1367.794312 614.155579 -286.739044
651.746338 901.022278 -55.014408
1440.360962 514.585876 73.143318
974.636414 763.484314 15.408441
1420.984009 964.821167 -133.537399
1375.335449 676.554749 -75.472855
1377.816650 382.412384 -116.344810
1417.121338 731.236389 23.054693
1418.924316 624.826172 -85.004936
1450.573853 568.129211 147.411041
950.740906 791.230164 -133.105469
1439.489868 538.407349 91.426033
1437.119751 481.542603 54.396034
955.481445 789.485901 -39.116066
1368.019043 496.863495 -322.184692
960.995422 639.299377 115.680359
1389.709961 449.387115 -237.426376
812.153809 876.794861 -108.359650
596.809998 917.377502 -191.557205
943.270325 704.294189 -250.120605
824.178223 865.922607 51.527710
957.952637 623.025818 -30.581415
1384.543945 534.943848 -325.002502
963.536194 805.738708 -81.909134
950.422607 640.745789 -67.729492
1408.057129 478.538666 -260.960938
946.569031 613.128540 115.449478
813.408508 858.758667 83.345932
1305.516113 535.048096 -367.323700
948.152832 528.832275 -123.861794
1416.720581 465.179138 -71.662476
958.552612 617.464966 86.203568
1389.098022 783.431702 -328.750977
936.145813 593.104858 -91.496864
836.106995 870.836243 -140.353058
1411.131226 598.733948 -53.132278
936.456726 654.601624 -313.625458
937.190796 539.609741 -218.251160
1388.667603 333.039917 -165.026352
926.877930 450.214233 -181.227478
1367.767822 360.936890 -93.101097
979.973083 788.348206 16.632566
662.416992 905.148621 4.666914
1407.985596 382.228333 -62.484131
1439.010620 469.824493 64.681244
786.076538 871.394714 -133.367218
739.642395 864.336304 -254.826370
935.693054 573.622559 -69.877571
1460.144043 1046.826294 -71.179947
644.406799 919.453979 48.015869
942.357056 553.477844 -251.659027
1432.623901 458.586884 -28.198082
700.423584 882.438477 -227.397110
920.934143 578.805542 -261.115326
742.463623 563.757935 -345.495819
600.268005 909.069824 -184.621017
932.779541 480.520111 -104.003891
1421.994751 829.909058 -51.841164
772.947449 879.011414 -87.604408
1421.257080 668.167175 -50.160358
943.622375 598.054199 -153.420731
1425.427002 579.645020 -44.530502
1423.581055 479.074799 28.866325
924.188049 441.297516 -224.026489
628.610718 918.887878 -132.884552
1382.304810 581.541992 -359.386963
956.590515 450.879150 -11.923849
926.278625 527.722534 -293.524384
1435.159912 533.428040 -45.086319
936.783386 527.745483 -237.573593
955.834900 550.696472 73.603363
939.648132 552.800720 42.444038
936.821167 545.186829 -86.788864
1428.636230 533.445313 -43.495934
1405.242920 647.688110 -133.723938
1394.513916 459.458984 -245.140976
923.519714 599.262756 -127.875755
654.806702 913.492126 -83.241234
1417.151978 446.382294 -6.018679
1386.344116 310.490662 -143.370621
1405.250732 334.716248 -51.965340
1440.783203 627.114868 98.105507
621.805237 903.465088 -220.206039
1379.638062 609.873474 -421.014252
663.106262 912.566101 62.249706
1400.015137 481.157867 -51.503124
616.599731 912.867188 0.606810
935.923523 441.120026 -248.776321
1429.003906 615.944153 120.872940
1434.700195 485.542267 33.036484
699.246521 894.662231 -85.159843
962.762268 791.802002 -77.278992
1396.935425 752.756104 -5.797686
827.875061 531.465271 -327.462524
623.262939 913.307556 -20.287231
970.257446 592.747253 79.981293
1393.994629 596.399841 -132.576035
1309.009766 661.679565 -182.385284
714.582031 890.337219 56.626373
797.696777 871.629333 69.210556
923.161011 574.348999 -79.612602
827.427429 874.753601 -62.130363
758.671814 870.704956 -169.103714
933.878967 803.022400 -194.655792
955.837158 763.096313 -170.437759
1399.606934 721.004333 -346.017395
1447.908325 651.610474 150.841003
953.145508 575.505249 75.110161
933.415344 523.359741 -75.299423
940.367493 426.554962 -165.924942
1440.448975 697.130005 133.687073
1363.589233 650.455017 -109.502373
1411.786621 454.992126 32.890129
921.057678 637.046570 -161.949890
934.230530 653.078125 -76.506096
852.854797 877.997925 75.039124
972.400940 770.971802 -47.004414
980.025635 761.984802 -41.219376
919.957458 606.194397 -141.036606
618.552307 936.206909 25.583527
1385.145508 726.222107 -89.969955
1398.634644 578.398438 -338.755310
1341.419800 661.344788 -157.367554
1410.951294 848.397339 -89.619049
775.930847 863.954041 -192.401566
1453.414673 1063.538696 5.998584
1392.280396 502.936035 -289.291992
798.648254 854.918518 -250.089951
1420.896118 655.503845 66.337784
936.115784 817.735474 -165.807739
821.388123 873.882019 69.416077
934.425842 603.878662 98.062843
1391.067993 365.070831 -205.374954
1458.566040 638.685425 168.165955
847.232971 867.124573 -67.986389
1424.763550 518.043152 23.806866
1432.026001 539.525879 -12.187740
1416.454956 514.538513 -76.001381
1426.072510 547.673279 -9.463449
648.562256 904.006897 11.516102
1442.185547 590.442871 123.642197
857.707397 872.482239 -104.234299
893.602112 551.657593 -313.101440
1434.494629 489.886841 7.338366
842.304260 855.816711 -65.927177
1390.540527 369.599854 -100.590416
945.758545 466.630249 -11.990106
1393.240112 457.943634 -238.894470
947.854065 614.871155 -142.521179
1385.061279 387.435883 -249.092529
1367.065430 463.766174 -308.848022
1390.421631 387.134369 -87.283028
957.381714 804.888794 -121.791649
1438.212158 850.331360 -17.597845
913.170654 476.079742 -265.084808
974.195984 578.852966 77.073959
1408.008423 560.396362 -270.245544
961.010803 792.467102 -179.225845
959.664246 670.193115 54.767715
739.179626 890.345398 62.994823
1362.693970 515.720825 -438.469666
1393.067017 485.714844 -262.654175
642.373535 909.349731 -65.304176
1374.388306 540.401978 -420.166199
949.355713 589.745239 6.805383
990.193359 506.024048 81.730637
1424.895508 830.497498 -53.556133
968.331726 495.419128 60.879280
933.745300 604.242798 -112.098564
1443.867676 543.413574 66.345398
832.268799 865.073120 -5.326646
831.854980 874.330200 -42.118477
955.849548 817.572815 -261.751740
801.866638 859.871582 -122.504967
963.260986 745.168457 -172.628738
1419.039917 462.845917 -18.910189
740.026123 871.535461 81.672478
1395.936768 448.082489 -209.840530
954.278137 787.458984 -264.307678
1442.550293 492.653748 84.639717
1363.392334 615.555725 -124.475586
1356.781494 647.457397 -314.652496
1429.687134 546.671021 13.590591
948.817932 657.364075 40.430138
796.799561 878.161865 18.029507
1412.459839 521.559692 47.066551
1411.725586 353.489258 -35.656605
761.058899 871.086548 -192.377472
1335.074097 627.012146 -149.674637
1410.579712 519.830139 -267.904633
1395.926758 401.826691 -98.892822
1433.332031 541.216492 -52.348083
612.798645 910.797241 -79.772110
1386.515991 336.640503 -175.635956
935.377869 546.710144 -0.648913
1401.641479 737.872803 -347.739227
1421.732422 656.539612 0.300568
855.436646 862.801025 -50.265144
1365.426880 869.035278 -7.407907
965.156982 707.842407 -224.475281
754.377991 878.822144 -173.277451
1385.814331 470.866333 -322.238831
776.590027 866.490234 -119.309418
970.542542 676.196350 76.755089
1429.440674 469.422485 53.798653
926.732422 613.688171 -193.779358
809.696472 870.299500 24.380730
1449.504150 605.886841 156.039383
1400.936157 376.458069 -0.352386
618.831055 939.045898 -145.607773
970.166016 469.819916 65.223412
1361.666870 562.721985 -362.916809
926.106262 567.864075 -223.346252
679.211487 893.893250 -197.414871
936.255493 656.299988 -190.242249
1420.414673 654.374573 20.176960
768.452759 867.947998 -230.805344
971.108887 662.708679 -31.445778
1420.269897 807.521301 -286.600983
677.942017 899.404480 17.541914
955.554504 761.906250 -117.252388
1418.853149 684.816711 67.863213
958.648560 495.827332 14.144757
594.866211 936.504395 -45.440739
938.067200 679.252747 -33.592617
1383.838379 453.676453 -303.764648
932.270142 684.890991 -265.928833
610.083008 939.947388 16.878538
834.603333 878.599121 -46.184895
789.419006 872.723999 -199.182755
643.279968 909.480591 -2.180704
924.286499 662.725281 -156.673096
1388.857666 363.238373 -152.943604
933.058105 790.556519 -162.738159
1296.574707 634.464539 -96.713310
1445.254028 601.237793 134.741501
693.828186 893.522583 -210.475143
1393.712524 691.984558 134.745712
932.231201 631.859314 -183.273773
1435.858887 595.992615 -31.208313
1386.081543 665.716797 -179.901199
1382.217651 398.115234 -276.973907
701.892029 884.767090 -193.637573
1379.430298 420.652802 -291.182831
663.225403 902.993408 -29.393185
938.724304 585.363831 -96.827538
946.455811 483.849945 -4.468902
820.019287 850.278320 -216.481766
965.029480 486.260101 -3.532880
1431.609985 567.508789 3.150740
1397.377686 773.320068 -374.212067
727.737122 891.566772 -135.291626
1423.442505 500.285370 9.260418
972.608276 420.266113 -65.096329
949.214233 520.395508 -139.564255
1438.365601 706.110657 128.322845
1386.073364 457.426636 -160.558105
811.029053 856.983948 -231.858612
1407.348877 429.668304 3.275354
1385.271851 657.085571 126.266640
686.362610 887.356384 -52.902817
1310.942749 553.323303 -371.828339
691.949036 905.675842 5.716873
1360.625000 666.590637 37.981525
1409.376099 639.665955 108.275299
941.188232 644.481384 118.425522
1417.929077 469.380829 -221.270111
1388.876465 539.817444 -311.570038
915.839722 743.360413 -274.403168
957.418579 678.467712 -111.001961
1376.712769 540.228760 -434.344421
1442.797485 841.041321 -29.758787
908.814209 581.962280 -293.939178
1451.496948 1080.450928 6.585633
1390.575317 404.053406 -154.256897
1433.713501 510.426147 31.322660
937.579468 517.709351 -54.534904
1431.504028 594.917053 -53.931618
637.737732 919.882996 39.415279
772.735229 863.689087 -258.926117
1440.344482 621.036438 146.354263
692.143799 901.940918 -71.190926
961.846497 483.513306 68.463318
708.092712 892.387024 55.639538
724.369873 883.756348 -110.510361
1395.008301 448.402557 -182.492859
733.270081 883.256042 4.496075
1395.469116 342.792084 -155.707779
668.106506 890.442383 -230.403824
1387.901978 514.095825 -309.787598
1357.155762 656.703308 -205.684433
1382.616943 459.382141 -326.850677
945.255493 718.899536 -135.282227
1389.577148 479.507843 -276.534790
939.423401 588.677734 8.861834
1413.514282 945.683228 -17.973610
942.064880 585.544617 -177.471878
956.181580 793.933105 -109.997734
830.946594 855.269287 -200.548523
1443.851929 505.059784 109.043419
711.750183 887.719910 -172.457535
1433.313354 458.572388 -16.089035
1327.205200 472.631439 -85.066231
1382.506958 615.060425 -277.011902
925.745422 522.749451 -47.751724
961.167419 458.574921 -64.782677
1404.042114 485.429810 -15.437750
944.025757 691.510620 -170.716141
1379.506226 372.643494 -141.521545
1312.154907 558.469971 -423.919464
930.220642 616.239258 -317.740601
1398.649536 834.135620 -340.604553
1438.433228 586.317505 -67.324364
1381.174683 459.542572 -316.772339
1418.130249 885.023926 -72.648209
740.761780 875.845093 -186.561554
1431.061646 639.360962 -63.607796
945.545837 806.901489 -208.204575
1396.385254 711.519958 106.413673
1378.283691 712.175598 13.138433
1398.631592 641.340088 -225.423676
967.877258 465.054199 -6.128559
1376.738647 475.005096 -355.264984
733.277832 891.226257 40.651108
1434.255371 521.916443 -6.066385
1409.438721 605.524292 -29.085569
1353.435303 514.113403 -449.317749
1265.047119 635.465149 -135.540665
1382.012939 605.634277 -252.743088
960.035706 489.990906 36.839760
926.137451 454.214783 -131.506577
635.212402 903.999329 -160.323303
731.526855 884.038147 77.167625
1395.467407 648.065002 -243.396851
1408.235352 417.144135 29.672478
949.610474 643.168457 -19.244930
1388.506104 603.469971 -315.060333
802.102844 871.156494 26.536266
946.274902 710.527161 -126.946381
1349.999268 649.780212 -108.875786
1367.352051 600.304321 -413.814056
1425.844849 470.342560 7.817348
1380.580444 564.158630 -258.688568
1336.164795 591.011292 -321.245667
698.714172 887.404663 -88.990707
850.511169 878.158997 -82.715637
1462.154541 639.469238 178.305832
1396.077515 372.982910 -137.496246
983.831543 422.534973 -81.461037
1429.146118 790.669128 10.635472
656.539063 895.153259 -4.965851
1417.938965 747.463257 -5.533568
1399.296387 325.924011 -115.328041
1409.531250 451.246674 -185.563416
951.493042 633.346313 -41.068043
788.478455 871.513611 12.723960
1393.861328 775.306763 -146.401215
802.476074 870.148071 -42.943031
1402.305298 442.841064 -146.851669
916.923828 524.619019 -280.789093
924.437256 550.223267 -170.349411
931.796631 684.777771 -106.932312
1372.820190 684.242737 -412.701569
1391.680542 470.124817 -341.960785
931.891235 455.742645 -270.312225
1445.355835 559.056152 55.908752
1418.941772 443.965790 -6.517191
1333.288086 542.782959 -437.111176
1405.940308 640.893555 102.909950
959.090393 450.531891 18.977945
701.970520 882.691833 -115.727119
1388.474976 466.766754 -261.848633
784.743103 882.818420 -137.862442
824.389771 858.188171 20.186449
961.188110 728.644531 -70.476402
