ply
format ascii 1.0
element vertex 1385
property float x
property float y
property float z
end_header
358.855011 654.049133 -815.259460
329.224976 678.950989 -822.541260
627.179260 104.017296 -1432.231079
347.496094 387.421448 -1101.119385
576.439636 216.176422 -1436.935791
188.146332 170.821854 -1035.158936
195.110687 272.789734 -1567.353638
349.784912 292.138458 -1035.589722
294.838379 564.108215 -1005.762451
593.903320 47.615223 -1427.883911
603.200073 484.379242 -1560.906372
259.141815 394.583466 -1593.306885
321.222321 695.082397 -783.521790
430.143555 586.608521 -901.735291
237.097855 104.863388 -1020.646362
401.902954 65.851616 -1445.214600
381.726898 250.541351 -1013.006470
308.228302 153.960480 -1506.898071
290.537170 -93.990044 -1405.676392
415.788727 259.140381 -1008.454407
520.944031 133.026169 -1453.160156
403.108704 -105.796715 -1384.582886
392.089355 614.295166 -872.155579
286.506836 13.920541 -1470.861572
362.789307 -127.347847 -1393.922974
471.784637 592.961792 -871.961365
436.290466 302.250610 -1031.857910
561.744324 -17.359201 -1399.137573
206.892258 257.340668 -1032.670654
432.528839 113.450836 -1466.625366
203.270630 592.727234 -1006.252441
458.001526 651.440430 -806.441528
326.753723 583.125000 -979.287170
594.134583 368.967010 -1518.962036
257.453033 217.439713 -1019.018860
667.551453 108.139740 -1411.148560
347.350494 561.592773 -1017.391602
174.941315 158.780228 -1023.219666
684.633850 113.962875 -1409.928711
454.117401 523.023804 -991.919617
240.583344 198.397659 -1002.617981
479.952209 177.007095 -969.337280
555.365479 17.398201 -1408.457153
191.029892 304.059357 -1591.386475
307.712616 -111.775108 -1398.790283
401.920258 249.547760 -1373.291748
368.999329 325.226959 -1045.734375
288.280182 232.904495 -1020.355286
409.044678 557.752686 -1000.940247
678.162598 156.114090 -1437.286377
192.492752 59.683640 -1486.127808
220.185242 -57.749111 -1418.090088
412.717773 108.663383 -986.662476
310.213989 353.205109 -1066.951660
327.164917 316.327728 -1044.404175
460.458893 45.809048 -1451.847412
167.878998 188.856079 -1033.011353
516.449219 152.391510 -1464.857300
188.584869 329.334686 -1095.788330
355.068420 634.667725 -871.747314
245.203690 646.854919 -889.229126
349.383881 649.023743 -841.144592
386.924255 392.290558 -1069.167236
439.041199 209.486786 -992.759399
241.404755 610.975403 -970.750671
604.545593 497.530945 -1586.355469
267.673279 689.211304 -844.067627
383.856476 641.265869 -818.951904
443.088562 593.470459 -874.193604
455.751129 391.882233 -1065.512451
232.094452 444.490662 -1152.493774
309.476440 170.326965 -993.595703
629.163452 19.812979 -1411.374756
186.872421 180.937439 -1024.877319
616.072815 129.871124 -1439.166016
434.753693 608.546692 -834.109680
144.463730 423.620575 -1106.514893
459.785217 299.080292 -1022.320740
309.553650 67.147919 -1473.923828
581.822266 55.705696 -1420.075073
184.469223 626.477356 -969.705872
236.017029 114.556244 -1491.557495
344.030640 378.676361 -1080.924927
381.604462 -42.908138 -1351.119507
336.620819 148.167358 -989.103088
592.305420 0.279290 -1382.887451
358.336914 -88.088974 -1387.096558
297.654266 -81.144981 -1396.000244
404.017639 640.749817 -814.986877
232.086502 374.542450 -1611.687378
220.285477 170.243805 -1008.080078
158.762695 220.574783 -1042.127563
356.788544 592.321899 -949.505859
579.123718 200.681641 -1450.106812
391.912628 590.682190 -933.161621
346.825104 307.081329 -1038.418701
347.240295 285.686646 -1042.964111
276.366638 124.205582 -1003.475952
593.406067 159.494461 -1378.633179
119.686661 93.564995 -1488.052612
552.940857 514.336548 -1573.442871
267.665253 194.445175 -1011.305359
391.060974 98.383804 -1028.454102
440.283417 1.202712 -1425.221191
368.286896 680.107544 -789.730103
416.271729 643.395203 -800.579590
190.131073 583.654724 -1032.287354
456.927094 601.760010 -868.926514
451.286743 85.272438 -1440.287354
238.478210 196.514343 -1451.278320
204.931854 56.699684 -1467.584473
201.243591 172.204758 -1022.164429
293.827606 -63.720722 -1403.458496
284.409454 -73.801254 -1429.857910
467.853760 -91.572624 -1391.002808
260.585999 139.033081 -1519.167847
378.060822 152.676743 -982.699097
371.155273 238.426147 -1349.969971
421.548004 0.449633 -1428.143555
484.513397 139.269424 -1461.794800
81.811897 336.977448 -1117.352661
218.385147 216.734634 -1047.740601
378.107178 662.114319 -812.448181
396.474213 52.176117 -1358.811890
408.261200 81.954330 -1451.588257
606.866333 52.581642 -1427.921631
556.518127 520.791016 -1580.572998
475.383545 39.787552 -1434.521851
298.218109 640.043030 -867.477051
175.381744 665.488098 -898.277405
377.477692 180.902313 -987.265564
237.904846 125.577225 -1488.686523
701.230957 131.806900 -1398.520386
358.163544 154.133118 -977.374390
410.305695 567.130249 -952.310608
406.699463 267.944275 -1010.583008
475.232819 575.330566 -907.325745
394.846161 561.041565 -988.192810
161.157486 324.987274 -1096.561035
202.246506 157.896942 -1408.956055
180.415710 202.322174 -1527.123901
259.646820 -60.227470 -1430.556885
191.939590 627.698059 -949.937195
262.386139 638.368408 -922.403625
573.213562 5.635880 -1387.198730
367.993683 665.906982 -813.184692
299.899200 -113.765266 -1397.100586
409.551697 -120.465111 -1382.083252
275.923981 -55.704765 -1429.796021
586.688293 526.747437 -1600.872681
319.463165 226.865326 -998.520081
599.222534 118.736389 -1443.107666
389.784576 296.708954 -1019.792480
530.669250 103.844650 -1458.375610
276.705078 143.624069 -1490.556519
454.672455 202.729767 -985.438232
370.596405 -4.924078 -1375.160889
420.148407 -114.394333 -1386.041992
494.450989 403.549957 -1068.796875
178.708282 365.384766 -1094.768677
434.023102 179.533981 -978.446167
249.582352 147.189896 -1010.927551
199.070953 145.840103 -1496.068481
543.342224 287.461792 -1537.904297
140.827744 149.730637 -1479.994385
455.067535 616.254395 -837.509033
232.254456 170.617050 -1006.893677
394.277191 242.935059 -1004.216797
417.665161 10.762266 -1432.599609
208.494217 635.509705 -922.590698
229.736130 579.982056 -1027.061157
222.314545 683.165710 -843.067566
438.931976 229.519547 -999.560791
391.613708 667.389038 -782.946167
159.164993 403.656067 -1120.261230
205.677155 162.544785 -1026.868164
422.172302 200.809998 -990.863342
530.543823 170.278275 -1434.358643
612.347717 7.809124 -1407.457764
481.429504 20.975786 -1408.011597
319.028290 209.053482 -1005.121094
505.269440 207.420227 -1471.845947
375.250885 251.138672 -1003.247314
398.606781 114.771698 -994.714172
167.299942 366.107819 -1080.911377
596.552612 49.571484 -1413.357056
574.810120 30.174540 -1411.170654
437.189331 568.528809 -954.224915
213.178726 21.650633 -1468.711426
419.831879 607.569031 -852.788574
441.189606 566.061401 -912.536682
552.937805 145.205261 -1456.815186
359.272644 67.240829 -1312.758545
250.069702 337.974030 -1579.913818
437.213867 622.987427 -826.183411
435.353729 206.642227 -1001.449463
191.887497 359.737274 -1097.797729
462.859314 73.994873 -1462.603882
317.412415 565.244141 -1039.159302
363.383423 50.400871 -1414.636719
330.779907 460.412018 -1123.603271
372.527588 666.463440 -800.805115
263.570648 99.009102 -1473.942261
330.993195 185.961075 -997.495178
411.449493 -131.511154 -1370.594238
477.649475 84.790459 -1439.172119
83.021217 117.519310 -1513.103149
342.676117 589.835938 -978.987183
270.788971 257.442108 -1023.932190
290.663849 671.704590 -827.494080
218.132278 250.010483 -1040.304199
530.692566 325.839355 -891.428406
337.911224 545.997253 -1002.267578
395.258179 639.575195 -828.694824
326.293457 530.084839 -1033.485596
506.437622 12.837478 -1427.183228
364.799866 -131.495163 -1382.517822
340.173920 173.846222 -983.187988
626.631104 85.969269 -1417.481689
458.333740 -74.458206 -1387.538696
219.138260 30.176273 -1466.453857
215.742203 596.377991 -997.470886
257.394714 606.523865 -949.355591
370.278442 157.676910 -981.991394
251.378464 114.803169 -1498.408081
324.007965 627.058167 -924.774292
223.830307 308.825531 -1047.933594
296.367523 -100.401085 -1407.463989
276.769592 430.092896 -1111.350220
376.942657 643.879456 -835.175354
251.498062 657.108337 -863.162720
505.916351 229.189377 -1417.445313
263.235474 64.070396 -1460.711792
268.592621 268.584564 -1052.676392
659.656250 72.604820 -1405.111084
615.929626 89.428520 -1433.736816
509.617645 555.475403 -1597.620483
332.843109 39.970333 -1452.608032
440.757233 237.529968 -997.020203
198.850296 668.463318 -886.426575
316.101715 154.893509 -1009.783752
371.235962 208.998535 -1013.695801
468.671143 598.635010 -833.920288
204.783783 665.865051 -867.388062
369.292725 185.593582 -1397.945801
582.811462 32.856747 -1410.538330
342.022827 -21.248049 -1402.626465
165.990341 316.622467 -1094.882324
219.876297 111.160614 -1493.333374
285.665375 620.706848 -924.424622
447.257172 97.492744 -1472.518555
553.591858 154.894379 -1438.893799
266.750580 688.083679 -830.605408
283.890198 -4.342559 -1446.869751
645.246826 168.067093 -1385.786743
575.925781 15.761652 -1405.449097
466.816925 119.094261 -1470.935059
291.858063 -69.297035 -1417.351563
154.012756 223.830612 -1027.518311
283.415253 183.687988 -992.090637
324.478027 250.825226 -1044.289429
471.933716 213.435181 -980.425171
519.748657 -21.830008 -1385.804199
410.118713 233.970413 -1454.582886
331.796906 192.558777 -1009.734497
237.063171 575.047058 -1021.279297
496.471191 201.726181 -977.781738
557.507446 23.104073 -1418.365601
384.677399 646.265076 -812.353455
418.243042 233.506561 -1011.511658
349.011505 130.582718 -990.839905
567.243469 224.882599 -1453.247681
153.455154 314.330200 -1106.545654
161.625427 154.462051 -1442.559937
689.247070 94.492538 -1407.918091
205.912048 171.567825 -1022.432922
390.859131 278.294342 -1021.010315
454.564850 132.806335 -1000.761963
170.415390 178.890823 -1042.994263
394.983276 342.862305 -1045.865356
228.772034 118.644135 -1501.687012
632.480896 540.963806 -1576.270020
331.123840 287.170258 -1040.570068
614.036743 42.418781 -1392.368286
219.848572 21.519810 -1468.149780
432.329224 660.433594 -798.532654
535.986267 315.622314 -1012.070374
256.476563 -17.974398 -1429.944336
626.550537 54.310566 -1422.697266
453.802521 641.347717 -805.812561
466.183289 81.005470 -1455.016602
408.783203 269.689453 -1009.620300
597.482666 451.193726 -1541.998047
184.141479 154.735596 -1042.997681
191.006653 272.083435 -1056.297485
255.076340 368.071777 -1601.575439
425.333893 -28.265087 -1416.285522
268.210510 699.028687 -850.187195
523.905396 125.571213 -1465.318359
372.441772 591.322876 -955.215393
164.588776 168.631439 -1495.719482
599.719421 335.748535 -1507.349487
219.999878 657.863159 -888.643738
430.158447 297.749268 -1443.310791
197.878342 259.479584 -1544.468628
178.516571 96.378860 -1496.553345
424.626740 -114.059204 -1377.508911
539.350525 106.021561 -1457.232178
438.811218 225.340302 -1432.434448
398.735260 -116.618965 -1376.241455
210.939194 26.275539 -1469.821899
350.287506 477.823334 -1115.677124
537.545593 545.338379 -1586.726074
378.933411 9.714097 -1439.147949
304.274048 328.578583 -1063.886963
367.846191 331.096130 -1060.884888
468.288910 579.708069 -865.407593
653.215759 139.480911 -1422.954468
499.788574 406.605530 -1506.556152
382.326385 398.419189 -1072.895874
442.586029 143.284256 -1482.532227
400.686066 6.095813 -1395.250854
521.172180 -0.561485 -1408.762207
399.508392 198.160217 -994.654480
191.667404 84.229820 -1493.400024
185.957886 192.975296 -1032.840698
317.801300 674.088684 -836.334961
350.075531 366.124573 -1077.618042
441.009094 212.924225 -1381.682129
230.558182 358.449738 -1100.682007
527.025452 213.551682 -1447.928101
502.768799 242.222168 -1006.738586
213.276291 -14.194841 -1451.536011
200.676910 136.580566 -1511.645142
295.759949 620.878296 -916.065674
472.347992 -66.434639 -1398.150757
451.580444 107.301262 -1470.267822
243.803543 125.683968 -1486.798706
394.575775 264.652130 -1010.689575
406.551727 653.424500 -792.917053
336.423706 537.105896 -1030.288574
415.362122 149.420197 -975.135681
382.882202 543.099854 -1148.046753
574.373230 40.654778 -1416.269653
255.377182 360.841461 -1078.342529
301.615570 -102.485374 -1403.635132
476.053802 314.066925 -1532.293335
528.740112 86.321846 -1458.415405
310.622406 65.273018 -1467.331909
441.294464 552.235962 -971.638550
161.200470 143.285172 -1433.522949
170.950882 246.636047 -1049.746460
324.620880 195.539185 -1509.786255
245.099640 644.358704 -906.619385
244.609283 -12.338168 -1466.420166
726.156311 106.586037 -1423.171753
469.092163 159.314209 -978.041687
386.855316 588.419678 -906.981079
317.048035 608.727051 -958.520020
221.487000 588.933289 -1004.253357
424.802155 642.130981 -810.681702
394.122131 166.771622 -975.326721
358.242493 660.946655 -824.967346
317.869873 627.341125 -877.590271
396.073944 -122.844009 -1398.195923
243.485931 231.489075 -1042.832153
149.227005 255.707138 -1060.000854
279.008240 628.774475 -911.248047
222.729950 140.606949 -1507.886108
472.636139 129.962784 -1451.699097
620.710938 85.690742 -1417.847046
432.432007 266.465851 -1004.027588
131.044281 197.760483 -1548.004517
385.338806 390.277283 -1065.982178
205.600891 147.208740 -1519.425537
296.210083 417.191223 -1083.138062
385.445190 263.778931 -1017.681274
359.137451 206.051178 -999.720093
420.639862 233.851440 -995.711670
299.663025 666.253296 -829.501343
573.162476 277.316315 -1502.159302
389.159576 424.208038 -1081.354492
323.123383 162.090759 -991.903564
318.133026 637.133606 -874.623962
346.424591 86.449226 -1011.271545
235.148514 647.471375 -943.617798
290.321228 -0.540727 -1445.872925
475.137329 48.908833 -1440.721191
631.251038 227.448227 -1463.126221
405.857208 195.957474 -987.964539
228.095276 641.645264 -932.082642
403.299469 23.715418 -1423.962769
187.466064 287.199554 -1059.189331
542.400635 362.167236 -1527.138794
463.397614 275.104797 -1018.337097
193.577881 349.878845 -1105.578003
252.430496 579.248718 -1025.368774
598.828308 305.917816 -1499.965820
381.047485 204.342117 -982.962830
317.084137 -7.390720 -1452.131348
295.988556 572.754578 -1033.871338
331.907562 -5.452623 -1458.020020
190.967178 314.058929 -1075.008911
287.527191 364.569885 -1073.961792
243.323730 -1.253270 -1457.362793
607.032593 46.970741 -1419.088623
383.253418 581.635498 -939.339355
269.558136 113.301735 -1000.751404
448.879700 289.752075 -1018.498169
396.754608 609.795410 -884.431641
446.281647 598.157166 -850.542847
624.578491 126.123482 -1443.276001
615.899719 458.844879 -1565.995483
240.793594 137.923538 -995.934021
355.454712 198.418839 -1516.643066
240.809845 704.876709 -845.700562
362.068481 474.448059 -1113.167725
240.539948 608.413940 -985.393494
248.018738 286.682800 -1047.343872
288.574951 37.045479 -1445.038452
521.327576 302.391815 -969.874695
456.590240 322.120667 -1018.279053
551.501221 284.467194 -1501.391113
459.431854 399.586975 -1064.121704
558.237122 196.927200 -1397.030273
427.038574 285.511322 -1024.294678
391.983551 25.111889 -1429.159668
474.648834 197.529510 -1450.350098
658.262329 79.232162 -1417.143921
348.220520 481.273926 -1118.786011
435.778809 643.883240 -809.136230
239.788498 232.267227 -1028.524292
421.196472 -126.326630 -1377.683594
323.292358 93.448967 -1464.602783
223.689987 125.489944 -1028.250366
262.256470 718.525879 -820.421143
183.657562 242.607590 -1045.249512
383.132538 -89.960793 -1378.602661
263.850311 232.369751 -1024.342285
413.577148 310.683746 -1047.952393
316.120422 635.217590 -881.811523
210.325409 618.816895 -972.642761
368.143036 187.686096 -990.252930
424.492157 305.034637 -1042.966187
493.665253 42.034203 -1432.397949
440.315063 637.456238 -807.243225
548.424988 291.434082 -817.706116
38.358963 336.025116 -957.583191
483.072327 200.246765 -978.930603
225.938248 338.231720 -1063.079956
380.237366 629.292664 -843.199158
479.250549 587.836304 -870.703369
306.036591 316.049469 -1050.278809
265.444550 209.424698 -1447.479370
427.216156 227.319427 -1431.660278
647.928162 461.487885 -1563.483765
506.930695 312.954712 -830.951050
206.328094 200.934174 -1449.448242
352.304443 117.198372 -1499.039429
123.863083 306.997284 -1079.323853
250.252716 673.014404 -843.748901
373.229034 642.827576 -834.323730
312.758820 -52.241104 -1416.009888
426.893402 212.919281 -989.118042
121.390747 135.402588 -1534.351685
461.706696 125.655838 -983.403687
448.057831 22.717142 -1442.894775
111.271942 83.947502 -1490.524658
334.477692 -60.370003 -1398.380371
568.869019 412.815338 -1514.691406
454.990570 547.240906 -986.855896
275.034149 -13.550381 -1426.617432
167.080475 665.160156 -901.625854
520.897339 -50.112782 -1398.658081
294.746185 -113.780884 -1386.893677
335.183228 174.179245 -1503.963013
83.035568 100.685890 -1500.416260
454.777130 193.515366 -988.313538
555.017700 298.283234 -981.494019
346.301544 561.166443 -1043.987061
235.222122 730.491211 -830.983154
204.252472 173.171677 -1040.614258
346.205292 300.342682 -1043.946533
441.524841 524.543701 -993.520386
395.359863 370.153381 -1068.238037
625.164124 197.307785 -1439.077148
425.034515 23.039797 -1442.532227
463.337952 155.740112 -1000.836182
530.032898 277.224884 -991.281372
302.572998 672.394592 -829.770691
285.285278 674.824402 -867.318909
217.798233 275.564362 -1050.017212
230.896332 58.285774 -1461.996216
410.657043 604.943726 -889.511230
447.126221 279.980591 -1010.293884
319.665192 -48.957603 -1419.959839
299.924133 211.281555 -1439.510620
450.263458 255.692932 -1007.028259
320.491058 232.265350 -1017.479553
409.115326 652.054626 -791.270142
246.588943 396.829926 -1117.956665
486.833374 573.661499 -911.609802
609.476746 34.938377 -1421.081177
605.946960 226.529633 -1434.414063
338.950104 -1.114129 -1456.225830
524.023010 293.357544 -1531.679077
457.939423 118.277557 -986.973267
223.450867 588.609131 -1016.242065
564.348083 9.074699 -1402.788086
405.368591 56.662514 -1437.494019
360.015442 555.161194 -1022.828430
416.862976 216.396088 -1003.381958
330.983917 -16.556522 -1455.113037
282.342133 656.371033 -853.171814
486.917053 201.118942 -1411.224487
304.509521 221.397522 -1433.473389
395.169464 103.939354 -1016.603699
421.678772 112.520142 -1010.843994
428.590973 588.887329 -893.721375
530.124695 344.774658 -1539.803467
228.111557 169.677505 -1016.669006
149.977310 192.493240 -1484.209229
162.182190 393.101898 -1111.570313
265.725433 186.218704 -1012.114319
483.704285 284.967163 -1018.786377
346.908447 28.225632 -1357.028687
303.175568 435.751190 -1088.823730
555.413940 78.312431 -1449.354858
314.003998 -117.210114 -1383.581421
352.142700 449.079102 -1103.557983
357.667816 -91.665451 -1417.348267
451.939911 578.392029 -909.212036
400.791534 197.296371 -978.526062
430.269989 307.913330 -1511.767334
539.616150 382.239532 -1526.907837
375.196472 163.805511 -975.943176
335.736694 194.085587 -1507.703979
423.209564 -78.445175 -1396.552368
325.492340 152.435715 -1475.952759
409.113220 647.040100 -828.393616
340.548767 574.519836 -1004.983215
235.543655 579.485962 -1005.032776
405.901520 411.838623 -1072.928833
376.753876 396.859680 -1099.114380
281.715729 611.128967 -928.142395
406.057587 -133.927124 -1372.855347
629.837891 81.383385 -1403.615967
348.228302 306.403503 -1040.140503
594.664734 147.978790 -1446.933960
139.315720 202.011810 -1044.764771
391.263336 553.305603 -1033.951538
299.145935 185.710144 -1513.776611
386.325226 168.626282 -983.566772
314.121643 450.549194 -1110.537720
402.534271 12.996194 -1419.972290
437.528381 622.369019 -822.808228
351.025055 244.360718 -1019.104919
324.398407 312.879517 -1053.878052
638.552979 130.850021 -1405.808228
232.071289 114.471649 -1495.706177
205.163971 30.085526 -1471.837402
552.218079 97.067482 -1425.996948
256.255524 625.226746 -930.218811
490.380249 560.050110 -945.155701
526.873474 360.681549 -992.713440
508.167480 349.776855 -1527.579468
249.454239 635.024658 -903.184021
99.728142 199.464096 -1054.228760
259.113861 328.120911 -1070.212891
322.997620 411.800812 -1098.234497
478.761169 290.166748 -983.486389
649.739197 110.255501 -1405.287720
403.042572 137.478729 -1354.198975
531.380371 -44.186981 -1387.971191
311.551025 267.859802 -1018.537170
311.976501 713.542603 -786.544983
325.932526 670.922668 -812.558411
174.131241 644.574707 -934.036560
172.147980 115.040947 -1489.982178
232.975510 -20.244825 -1447.072388
319.162720 158.778336 -1504.058960
597.327087 76.769608 -1424.591797
457.700439 196.364243 -988.642517
179.872757 619.501953 -960.247803
206.612350 283.199280 -1039.751343
423.439636 687.911865 -784.408691
236.344711 378.824402 -1587.000610
157.126480 153.784363 -1042.883911
670.806152 150.781158 -1433.657837
298.571808 207.522308 -1031.892334
549.110962 21.315159 -1424.361206
164.093155 603.848267 -1035.062622
306.245148 123.966248 -997.264465
481.327087 526.069214 -988.128723
420.102783 561.871460 -974.664368
475.286377 522.996155 -999.791565
397.142517 85.921921 -1416.056030
443.125824 -13.462440 -1401.306152
284.886749 707.881592 -810.908325
161.986023 629.657043 -971.024475
411.571838 -69.612152 -1382.402710
247.001572 129.165176 -1019.232178
416.044922 -3.237086 -1417.304810
294.009216 192.434006 -998.241394
249.005249 263.978790 -1042.687866
398.867493 -80.175575 -1392.982178
382.259033 -105.864357 -1372.323486
309.830475 126.969040 -1013.915466
553.870178 5.173534 -1405.011475
241.120270 209.467896 -1005.730103
378.753845 -91.259964 -1409.494019
336.559784 86.862221 -1476.787842
341.300171 166.327942 -989.630249
469.862946 567.133545 -915.205872
243.844147 136.633469 -1014.591064
459.917297 63.753986 -1431.083496
308.989563 128.448471 -1493.455444
283.272125 18.393532 -1454.182129
277.460297 186.915390 -1004.859619
443.570923 203.702332 -1476.231689
323.861847 441.493073 -1120.804565
185.882126 124.543900 -1490.088623
354.838867 -105.400368 -1393.494507
169.172165 324.273285 -1062.897949
538.562439 34.133366 -1428.010742
421.471008 474.482147 -1115.278320
270.165253 599.301880 -952.153198
204.210602 -25.480492 -1432.588867
454.523193 618.849121 -832.450378
381.503937 573.821960 -956.794373
326.956268 236.697906 -1496.404419
313.728851 267.699860 -1512.994873
507.585999 -30.132950 -1384.911743
492.911621 528.282288 -950.955322
370.895813 561.954834 -968.436646
573.208801 -27.918690 -1397.882568
255.989426 165.291794 -1025.793701
401.422546 563.833313 -940.727844
376.994781 460.705078 -1104.265869
515.007202 275.997864 -997.580750
370.342560 645.951233 -816.349915
212.985016 396.916351 -1102.390991
452.352509 256.200012 -991.163208
339.592804 -13.300909 -1426.963745
382.824371 -68.259087 -1386.864868
242.409882 112.068306 -1498.445068
465.815186 56.701561 -1440.064087
304.043152 634.326477 -907.809082
310.979034 683.510925 -829.372559
271.691010 435.512115 -1131.199829
697.093140 219.326553 -1447.920166
286.383331 576.958191 -1011.842957
378.466095 275.067017 -1437.618896
465.709808 175.775818 -975.965576
615.283386 90.590088 -1407.674072
371.449402 566.008911 -982.684082
350.283722 678.387329 -779.441406
456.529816 524.882874 -1019.774963
471.669800 50.755791 -1445.698242
344.229187 289.008606 -1032.361328
606.621765 376.808105 -1505.348999
565.255859 43.682438 -1433.143433
136.363510 247.491333 -1037.121582
399.529175 32.405453 -1365.883789
591.047729 92.781372 -1443.393921
312.294098 590.560181 -977.807129
374.318726 216.945206 -1434.001465
467.288116 42.648499 -1436.620605
175.862198 379.693787 -1107.472534
333.114410 145.376389 -1262.025024
162.408203 118.458496 -1492.802124
534.546387 106.893265 -1457.917236
393.556244 272.398834 -1016.445313
314.645447 596.118835 -974.292358
87.347076 151.887558 -1494.201294
355.289734 268.811401 -1444.871582
421.426788 424.599945 -1067.978149
355.752716 -92.867233 -1407.842896
444.284332 22.359455 -1417.802368
146.496811 150.665970 -1503.140015
258.585632 249.418121 -1036.564941
508.642914 113.582085 -1462.489624
379.805573 109.511765 -1413.411743
483.087952 -52.515667 -1411.819580
366.778290 99.035179 -1007.283508
446.321930 74.088158 -1456.357910
251.874634 677.714783 -865.221802
515.451721 204.947784 -1407.632690
302.214966 -125.389450 -1382.325806
384.620514 589.936523 -923.221985
464.055267 525.060303 -985.986145
333.808105 195.336563 -1007.212036
388.681091 31.427790 -1424.679199
368.596558 186.694687 -979.833191
272.524994 -30.561131 -1434.985352
286.125305 630.282654 -915.288635
459.534302 355.684875 -1039.110718
320.281036 131.808105 -988.744324
157.115845 154.403534 -1022.964783
251.276321 115.551964 -1481.922119
484.704346 265.338745 -996.683044
369.828735 64.271202 -1355.682251
369.070526 645.162476 -815.731750
454.400360 286.712860 -1010.957886
146.233597 102.841293 -1474.630859
329.974701 448.304718 -1102.625977
270.903900 570.821106 -1030.475220
336.140320 181.924881 -1504.378662
475.505646 559.169617 -925.450073
445.429962 85.347023 -1468.475220
452.086884 -33.266819 -1416.105469
294.719696 -34.456749 -1429.038574
306.578857 676.950867 -812.576599
312.203491 149.500900 -992.611694
221.799225 129.661255 -1020.690613
599.843079 0.643032 -1406.967285
350.102173 230.370987 -1478.359009
263.528900 161.262817 -1504.406982
533.290710 351.616791 -1493.124878
335.164673 140.634262 -995.802917
175.550110 598.757996 -1003.822021
337.283447 565.006226 -1061.462402
343.429901 565.559937 -1027.015015
503.774567 340.118652 -1028.593140
229.003571 674.976563 -876.536255
254.476440 290.408539 -1047.899414
478.981476 581.750183 -872.854065
469.152863 -63.982979 -1394.676270
271.027832 114.993797 -1004.433655
276.023285 598.852966 -952.221313
413.963501 543.713623 -992.532043
499.896027 285.540527 -999.723816
501.194275 -12.269463 -1409.167236
398.735107 571.236694 -977.119751
384.815125 382.182617 -1080.998657
140.439606 80.111618 -1483.343018
513.183472 169.635025 -1426.757202
429.099274 211.655136 -995.026917
506.890991 291.277466 -849.205139
128.124146 140.688385 -1472.935913
235.706680 665.934814 -886.862244
149.121689 300.414612 -1058.909058
278.277405 172.953827 -1509.226685
426.491058 577.099304 -918.336182
256.125183 694.224915 -824.996643
634.277649 137.094818 -1414.318115
243.625656 119.488411 -1033.729126
290.094421 277.987091 -1058.148315
231.437500 350.237915 -1580.043945
628.352905 451.150818 -1561.062988
339.004944 657.721863 -819.558044
343.023346 -20.810638 -1420.182129
406.904785 580.541687 -933.717834
637.849609 445.520874 -1569.106689
479.703583 575.319092 -894.582947
628.441895 122.220741 -1374.113525
369.987885 208.226852 -1010.002991
238.714554 638.058289 -916.654053
192.147629 68.407486 -1470.780273
299.677338 130.321487 -1015.659912
313.498291 38.287560 -1458.592285
361.026764 251.693512 -1361.609253
176.410690 35.067047 -1459.990356
380.555664 449.389313 -1101.390137
484.074646 86.578651 -1464.435181
283.011322 160.937317 -1496.016724
318.868195 567.342896 -1041.722656
339.006073 164.483002 -1391.581665
253.371780 421.686005 -1109.677368
420.326904 316.598541 -1043.900513
431.392975 301.352234 -1031.182739
509.414764 351.553009 -1524.462646
355.282379 173.845840 -1000.323303
519.700134 317.179657 -1008.557129
202.310745 623.879822 -939.425354
493.564850 33.615784 -1428.281128
312.583984 235.006012 -1511.875488
521.779968 51.188690 -1442.782104
287.036621 -67.047241 -1417.297485
168.742157 213.514267 -1036.483032
325.143524 640.267700 -901.148315
553.272278 -46.383068 -1395.961304
252.842987 287.596069 -1064.040405
333.466156 263.525269 -1470.362793
506.040466 531.446838 -947.527283
202.795624 566.690430 -1059.039429
449.541840 353.089905 -1046.529907
193.844254 196.057358 -1489.246704
184.886230 318.626862 -1585.500732
272.100800 320.451630 -1577.187378
380.429352 531.489014 -1019.162964
454.362701 141.568283 -987.890259
359.846832 258.753906 -1014.624268
308.882874 332.741943 -1573.810303
321.671783 473.439880 -1102.188477
295.475616 327.056793 -1056.361450
725.646851 177.666428 -1428.254883
633.144104 118.921440 -1417.704712
565.706055 393.525055 -1524.516846
426.395477 620.522949 -846.632874
707.590515 179.279144 -1440.075439
587.242920 26.334702 -1390.440186
340.566956 681.232239 -792.564758
277.275696 693.185974 -832.145935
311.549988 68.330833 -1485.974609
297.076324 -48.943848 -1425.785767
519.634949 528.459106 -961.360474
271.428558 422.250549 -1114.308594
128.535568 231.050507 -1055.224976
334.819489 480.561951 -1114.066406
705.633911 117.609924 -1428.519775
300.101929 576.304871 -981.235657
328.493683 589.051636 -979.667542
407.183838 -5.877021 -1424.086060
221.468094 587.826294 -1001.409058
310.845917 -72.570389 -1425.176270
362.968658 586.139709 -959.259216
384.781769 448.986389 -1109.355957
275.480896 -14.757429 -1444.927612
216.577103 139.195541 -1507.780640
414.889740 173.464432 -995.256653
506.178040 303.356110 -1481.359131
630.230469 139.676590 -1409.147339
370.572418 261.178162 -1003.740234
530.711792 180.516068 -1445.509888
565.669373 555.340332 -1592.505249
568.573364 164.897476 -1421.804810
698.859436 74.432678 -1415.085938
412.579102 -134.084518 -1380.900513
345.785034 196.571121 -987.301880
540.708557 285.525696 -1518.012085
285.240509 205.014420 -997.052368
347.107086 644.070557 -840.278748
320.915253 -21.269053 -1449.817871
281.553986 272.027313 -1040.451172
408.736053 655.988647 -798.544128
434.240479 596.389465 -888.513123
554.141052 366.899658 -1562.362671
334.710327 215.519516 -992.759644
182.480347 638.589050 -940.493286
308.034058 193.976013 -1510.107666
483.550262 589.987915 -882.096741
429.244568 236.507614 -1010.655640
302.671539 193.649963 -1479.827271
508.463318 341.007996 -1027.965454
395.278748 533.275635 -1004.116211
136.301147 173.530396 -1042.945801
586.802551 443.330750 -1542.800781
179.907791 243.906754 -1048.101196
607.672913 408.977539 -1532.345947
415.923462 593.102295 -879.182068
465.975067 5.996758 -1433.671021
244.907379 617.713562 -948.496887
260.126068 602.947327 -981.982056
309.961060 190.167679 -990.737976
672.619934 198.785736 -1446.261475
269.720215 612.785706 -961.163391
435.290436 115.276695 -1014.323120
488.993164 281.344727 -956.340881
299.170837 298.937714 -1553.995850
467.560974 608.321289 -834.898743
253.521698 -48.668301 -1433.851440
486.653168 26.806747 -1428.000732
611.366333 559.235291 -1606.010132
504.010498 425.322479 -1515.084595
345.168762 587.057495 -949.830078
546.299377 98.515022 -1455.579224
340.718170 609.430176 -911.554626
232.617249 219.734222 -1028.752075
478.807678 633.575562 -813.223083
241.816422 705.880493 -826.615112
240.603149 672.684692 -905.623047
400.208435 293.122559 -1012.242981
511.770660 565.283691 -858.117188
458.967560 -87.890106 -1383.432129
362.344971 320.891357 -1468.566772
437.330353 -59.058018 -1385.243896
562.591003 -6.300816 -1407.225952
375.252045 422.877319 -1075.552124
193.481567 609.778320 -968.568542
90.729988 119.129890 -1520.567627
272.006195 352.972656 -1565.187134
372.797852 554.828308 -1047.585083
219.190704 592.313049 -995.176819
461.896667 601.036926 -864.491699
462.798615 555.760986 -944.559509
423.076660 142.612549 -1475.627930
475.796906 39.228786 -1434.636597
378.538696 -110.728134 -1395.157471
260.862640 649.125916 -891.639526
502.694946 -69.200279 -1392.012329
455.741852 156.611160 -1480.479370
137.023666 165.991577 -1514.298828
239.583405 120.562157 -1502.175049
186.367584 129.977554 -1039.408081
549.185059 -26.077858 -1408.218262
271.896912 116.466057 -1008.218079
306.428741 370.649048 -1090.436523
318.121857 192.533615 -993.812500
223.882431 579.703552 -1018.701050
498.930389 288.419006 -940.174744
280.175751 156.938232 -1503.425171
371.190247 -103.360596 -1374.912231
446.137299 408.718170 -1079.697998
239.375931 107.684723 -1507.027832
224.789047 2.404185 -1458.899780
420.735870 -36.606670 -1385.429932
218.961502 298.789429 -1416.189697
199.823624 185.587280 -1022.651611
183.998444 159.330414 -1030.677612
188.303604 296.932251 -1048.592285
370.909637 -36.990055 -1424.695923
224.209610 571.486023 -1049.743042
210.580780 312.019196 -1594.745483
446.120239 528.487244 -978.132446
160.871521 622.584717 -971.874451
430.968201 596.992676 -883.799133
177.634827 262.809357 -1035.987549
370.165161 137.937637 -993.568542
380.455353 192.856400 -1006.282104
388.848755 331.760773 -1034.954224
518.030029 202.522842 -1442.423218
438.937408 264.958252 -1418.571045
555.414917 339.612152 -1536.446167
533.155029 307.466705 -974.956360
138.726944 69.074249 -1495.878662
300.104004 365.677826 -1080.895996
356.887299 -83.996552 -1384.542358
696.955811 96.647339 -1420.982544
112.070541 172.560577 -1052.071533
327.537872 118.424950 -993.748840
332.375122 605.190063 -934.140015
287.385620 174.945419 -1008.979370
524.072876 -28.719908 -1395.915527
346.056122 617.603455 -911.859070
351.523499 -75.376526 -1413.357666
339.926514 674.368591 -820.880493
237.036469 573.598816 -1011.979797
358.594391 629.216858 -859.343384
436.603516 668.648926 -788.513977
636.186523 153.254257 -1446.772827
165.231827 674.619690 -895.961609
570.049072 41.197819 -1417.148315
270.511230 691.818909 -854.147156
565.279053 188.454468 -1437.336182
333.369781 186.587616 -995.936096
225.395111 -29.387754 -1430.667969
250.550705 100.727310 -1024.796875
282.609009 426.955750 -1090.203003
514.164856 366.766449 -840.339294
192.061752 186.737030 -1047.037109
185.722046 220.737045 -1031.316040
305.192078 627.247803 -899.335388
187.693054 31.953144 -1476.570068
356.903809 620.698364 -879.648743
416.980164 153.691696 -987.898254
560.443542 212.341019 -1408.922363
354.140411 116.306999 -997.565613
135.266144 166.440247 -1047.743286
263.216034 98.787506 -1488.661865
277.468506 114.466988 -1028.304565
381.463593 324.869934 -1051.007568
142.221985 263.365295 -1041.072021
707.752625 113.659470 -1426.812500
480.231018 206.625214 -1407.719849
285.790955 592.850708 -967.326782
193.073578 328.289246 -1061.626099
640.264954 178.502533 -1440.172241
456.370972 626.585205 -811.147339
569.849182 368.018860 -1521.442017
214.148712 110.925629 -1501.785767
311.073242 220.630493 -1012.558472
203.336960 247.618134 -1539.305542
181.184921 157.107498 -1444.495605
313.532745 247.583099 -1026.345825
238.878662 692.534302 -850.392883
394.385101 40.265213 -1342.740601
372.297821 576.680603 -991.614807
440.647247 612.532410 -863.308044
532.737427 -49.185398 -1372.634155
211.034439 157.432541 -1014.834045
159.126007 65.442444 -1497.231812
424.768616 176.504669 -992.626282
306.599396 72.654037 -1476.991577
204.768997 251.158112 -1550.276001
275.788513 121.868301 -1499.262939
294.786774 71.946648 -1478.050537
241.236359 585.012939 -1015.334229
527.417297 -36.737255 -1391.927246
273.323700 132.702713 -1514.980713
394.371796 162.076080 -979.537781
583.132690 18.004583 -1405.316650
331.595551 204.516785 -1013.913208
407.468903 569.524536 -951.232666
492.761566 306.424286 -1539.252197
284.273865 114.918488 -1011.712830
305.814758 584.015869 -962.443909
492.509460 311.928955 -1008.433167
387.867645 293.001740 -1038.771851
424.965515 573.963623 -917.483337
364.231293 139.110886 -984.379089
404.797546 207.251450 -991.937134
545.627869 281.815765 -1526.224243
343.447357 464.122467 -1113.134277
181.409103 331.572174 -1084.647827
294.003723 593.923462 -980.237366
675.128967 214.833099 -1453.604736
287.643677 187.918594 -1003.638123
408.558563 369.017761 -1055.808228
566.929443 171.400803 -1430.315552
429.532776 219.916077 -983.560303
511.394806 99.404037 -1434.485474
309.979309 202.416611 -1513.109375
640.033020 172.195679 -1423.419434
687.876526 93.176964 -1414.092041
543.710449 278.834717 -1019.423767
484.877625 -80.547073 -1384.725342
234.105545 672.194580 -872.450684
316.928162 143.696899 -990.719360
332.801849 -95.515984 -1394.730957
208.477936 341.792603 -1078.926025
513.665833 247.676849 -994.528320
582.718262 291.028625 -1532.056763
121.808182 162.109528 -1505.997681
422.405975 158.359283 -980.822083
506.802185 399.944305 -1531.397095
611.105225 482.519714 -1581.596558
216.312195 371.510376 -1078.330444
319.077850 -54.930473 -1415.747192
529.218506 147.993591 -1449.264160
472.311218 530.723511 -983.474792
460.551056 547.356384 -947.816162
280.958771 63.769379 -1474.386719
354.872894 238.230957 -1008.602051
572.091797 315.699982 -1527.476440
395.271118 116.796898 -980.468018
170.680283 327.950531 -1108.554688
309.248047 215.612259 -1032.952271
355.059662 241.385010 -1012.846985
192.833954 95.467316 -1500.661743
385.209412 297.079651 -1404.486816
101.799431 329.984680 -1073.104980
605.982117 161.092728 -1413.755371
334.528290 688.437073 -806.987061
203.407654 379.732025 -1082.947266
174.485245 682.298157 -902.746460
296.886597 638.161743 -883.500000
435.824249 568.374329 -912.066895
453.315643 581.144104 -912.229126
263.850220 645.305847 -876.489685
458.300537 2.480398 -1433.012451
457.273041 157.271896 -1475.034302
187.428391 431.661713 -1118.343262
272.783691 203.842224 -1000.623657
307.051392 629.621033 -895.744690
162.221405 249.853439 -1565.172729
573.920410 183.155090 -1403.942627
425.633209 610.481445 -851.530762
180.065414 640.005005 -921.943298
279.279297 109.167862 -1489.070435
323.631042 62.501659 -1482.045410
249.657944 145.904495 -1504.846558
342.504852 121.035942 -998.240173
246.023758 413.952667 -1126.364868
339.223328 652.806152 -840.718384
320.642090 -119.277092 -1401.863159
328.815887 629.431702 -886.461426
414.914368 -21.874449 -1418.318970
407.961090 558.984131 -957.691956
495.326080 171.068069 -1474.685791
465.824677 186.064117 -988.997314
528.273804 193.888596 -1421.073975
236.382782 102.792908 -1034.235962
221.757370 22.366816 -1453.536621
418.747711 317.829346 -1019.679443
191.330750 707.949768 -847.116821
634.191589 155.826050 -1406.194946
415.446686 578.471741 -946.783569
219.750305 622.640686 -934.551270
265.373962 -56.637150 -1425.597534
347.455750 96.222816 -987.025085
489.939331 167.321106 -989.937378
261.672089 139.757462 -1503.995117
720.008728 116.771675 -1430.399170
366.217499 592.880249 -931.102478
336.033508 65.761017 -1478.638306
241.668015 361.553833 -1094.560181
244.103668 241.857864 -1045.382568
259.749023 55.713333 -1487.286011
258.502777 653.609375 -885.417053
195.304459 671.732605 -884.909973
234.821259 611.570740 -955.884216
317.030853 232.714661 -1034.260742
447.974823 197.446335 -982.807800
640.051208 106.579269 -1413.070679
321.537231 488.582062 -1124.686157
293.511780 9.112898 -1446.720703
445.122131 581.397461 -881.111511
351.069641 141.464661 -1508.616699
524.611755 46.024372 -1443.038208
537.962585 329.037231 -816.026917
340.641998 -10.839358 -1435.027588
256.187469 52.371105 -1473.836914
176.140930 147.156616 -1463.893799
352.731323 45.441666 -1378.734009
344.851440 293.796570 -1041.565430
375.775024 453.150330 -1124.537354
288.509766 32.756134 -1457.637451
423.401276 261.339020 -1007.860840
431.996643 619.352539 -837.692139
191.191711 181.536880 -1519.047729
116.125198 186.087555 -1042.734009
304.284973 618.733459 -948.968384
210.475327 591.908386 -997.393982
590.944885 124.403549 -1448.424927
532.078613 523.858154 -974.915405
390.345886 394.804443 -1071.152222
237.767517 95.034508 -1000.507568
355.449707 -128.298203 -1380.899536
419.834442 228.970993 -1397.047974
414.126038 150.566193 -984.350708
176.332932 603.126221 -1019.567993
508.939392 527.253845 -953.649780
356.754242 571.429932 -991.671509
126.901299 359.135834 -1077.332520
569.780579 514.660339 -1575.772339
416.493347 292.479370 -1009.279358
368.860718 106.913513 -1287.701050
204.864975 264.442047 -1063.953857
421.377441 176.899170 -990.388794
418.721527 566.071228 -948.478760
328.111847 335.241272 -1053.728516
431.756561 -45.103554 -1412.937744
226.632721 655.382751 -905.087769
537.727783 309.493805 -801.891052
634.631042 160.642349 -1439.911499
242.852798 125.284119 -1007.628784
646.132507 164.838745 -1405.590942
373.038208 -25.670120 -1427.262695
458.849182 110.086632 -1475.573730
354.329712 34.716209 -1349.038696
185.765305 255.028259 -1558.412109
374.773560 -52.128548 -1419.276855
309.230103 625.101257 -886.199768
396.089752 102.544090 -984.118164
530.459656 10.434750 -1420.096436
587.736389 37.789558 -1423.590698
460.975433 242.504562 -1007.869202
393.513275 52.117825 -1408.573120
253.178833 668.792053 -859.450867
315.008972 -108.772766 -1415.850220
455.413422 -42.629974 -1420.817139
281.229919 569.323059 -1032.431885
338.731720 206.627609 -1495.709595
249.701584 -84.388908 -1406.754883
421.844116 395.845459 -1081.626587
504.200134 75.006950 -1443.994995
414.263763 243.237198 -1445.240112
414.780029 -56.720554 -1390.883789
712.295593 170.449051 -1427.056030
166.355957 128.428665 -1062.102783
362.744507 263.527527 -1490.669312
182.577667 227.869080 -1063.808838
255.453720 166.885529 -1016.655701
355.454926 148.172684 -995.039734
353.917664 88.803329 -1404.741333
630.585632 42.744808 -1406.726929
443.128021 542.509644 -993.439758
322.479858 571.030151 -1029.387085
223.615555 628.541077 -955.581299
131.327423 93.357506 -1512.652222
494.337341 178.889221 -986.253784
193.594208 623.021973 -964.384216
631.401489 26.480230 -1395.998291
527.126099 263.717041 -1532.711304
418.472351 120.413551 -976.842407
128.414200 254.190674 -1059.812622
540.465027 -32.159119 -1402.598755
175.267441 399.660339 -1120.739380
367.041382 573.748230 -968.898376
233.181671 599.949707 -995.597778
374.349396 246.342514 -1028.063354
309.321381 -83.822556 -1393.013916
364.742920 697.269714 -769.258240
383.268280 -110.751114 -1383.627930
421.416016 168.980438 -989.441345
542.369751 145.034119 -1459.914429
134.484116 128.623718 -1500.339233
341.751007 27.070585 -1341.152466
378.694763 335.583893 -1041.836304
426.149963 92.901840 -1448.776978
598.293396 38.587158 -1418.642822
319.611176 185.007004 -1515.395386
635.308899 426.763580 -1550.289429
146.804550 305.704742 -1056.038696
413.907928 602.487488 -883.088196
151.821884 393.194000 -1127.586914
308.095612 120.014290 -1007.125122
355.913666 204.081985 -988.125488
162.321838 163.452835 -1055.746704
316.293274 705.695862 -782.392456
594.415283 166.328293 -1393.086304
237.859558 113.742432 -1500.330811
488.828583 4.149776 -1402.569092
471.857117 175.254822 -1474.278564
610.199341 166.363632 -1395.670166
140.173325 161.098022 -1496.282471
222.104126 661.215210 -937.763062
60.337654 479.052368 -928.462097
331.279541 691.019897 -783.799622
198.414597 695.604187 -848.496643
170.732239 600.320557 -998.805542
239.834839 377.932556 -1091.264771
248.296326 324.098145 -1066.420044
488.288147 53.040615 -1422.117676
278.833496 214.403214 -1013.864136
621.209900 380.829224 -1527.681641
321.190643 487.065399 -1107.203735
412.013916 15.832392 -1403.028320
157.618927 263.570221 -1054.388306
444.565704 603.108887 -854.346680
278.801361 654.785339 -881.884644
474.947540 228.549088 -984.148010
341.083282 43.829304 -1459.400269
559.821838 77.974655 -1433.279907
337.192444 586.081604 -970.607544
332.171570 649.058289 -836.198303
409.982544 324.754822 -1049.575928
499.582062 -11.761651 -1425.054321
714.913757 105.567497 -1413.393555
313.318695 121.003036 -999.168823
415.890350 241.258163 -1024.055542
538.418579 55.537888 -1428.337891
558.382629 212.594208 -1428.759033
598.600769 44.763298 -1419.901611
555.729980 264.025360 -1490.462158
359.492737 44.826435 -1343.368896
312.279572 65.536064 -1488.880737
151.636398 51.822083 -1484.619629
286.383301 190.237793 -1003.560181
506.175171 257.163483 -971.422485
463.422211 254.764847 -1019.459167
189.066864 307.174072 -1055.774780
511.671997 270.247742 -938.642151
407.549591 159.618484 -974.425232
518.549622 121.558029 -1463.472046
405.181061 648.078552 -800.660339
210.120453 166.583771 -1037.809204
304.701202 141.149429 -1001.335693
318.018188 -29.003273 -1415.892944
164.895416 238.919662 -1551.133789
273.075836 659.706543 -847.286560
436.396576 585.252808 -897.832947
591.317383 145.582504 -1431.061035
183.048782 342.901062 -1085.384766
416.371887 25.767912 -1436.417480
393.795929 637.435608 -832.604004
329.480560 682.102905 -814.216675
310.521393 498.058777 -1125.643799
211.575485 213.665390 -1015.719788
282.767426 274.922760 -1050.877441
537.655945 316.857574 -1540.905518
746.255981 143.017838 -1410.302368
255.770782 169.014740 -1488.639648
442.705231 445.635834 -1076.975830
147.192184 151.446411 -1049.572632
453.988495 251.559036 -1004.520813
572.605103 88.562042 -1444.927124
224.184875 254.233749 -1541.444702
247.544678 242.026382 -1513.098877
282.744904 66.369568 -1457.407715
509.767822 221.083954 -1447.523315
262.367340 179.157135 -1519.989624
439.892639 -29.870590 -1397.004761
547.149780 193.945724 -1400.116821
272.962921 581.186157 -986.371704
237.613922 597.616760 -980.230042
442.815399 595.963318 -893.469788
259.950104 139.447937 -1010.983398
621.477844 460.475006 -1585.736450
345.867706 655.427795 -821.040649
464.799744 530.102905 -970.159058
262.131012 364.705353 -1078.802734
190.460464 146.899979 -1043.849609
244.905121 153.334671 -1492.891357
338.401672 547.151001 -1042.951660
513.202148 -25.796059 -1397.884521
212.572449 225.409393 -1522.058472
370.719727 -25.965834 -1366.067749
442.587891 120.983719 -1471.975586
397.902710 563.854187 -968.015442
435.164001 438.290039 -1079.158447
279.765656 467.676514 -1106.838623
351.719543 226.482330 -993.733276
240.614746 572.790955 -1040.904541
438.662384 151.310287 -1478.705078
235.258926 117.364380 -1011.251038
494.767487 -80.557274 -1379.439453
210.657440 126.449631 -1019.638123
120.320236 229.681641 -1047.283447
256.351135 15.386143 -1455.515869
655.051941 75.674629 -1422.669922
474.761780 624.852478 -817.600525
476.691895 223.462280 -1006.428589
560.855286 393.073822 -1519.551758
279.635651 -98.510330 -1406.197144
250.110504 683.318726 -825.849060
452.637268 246.938263 -1018.911865
143.462662 178.821182 -1494.379150
153.331070 374.919250 -1100.979858
493.855560 553.200928 -949.114380
443.282715 122.226868 -993.530151
210.957260 693.962402 -835.074890
339.866211 -42.945251 -1412.146362
380.508362 651.940186 -805.540283
505.014526 49.388767 -1444.578857
617.775330 18.081785 -1403.837280
452.119720 426.401001 -1075.502563
433.901367 -50.116295 -1409.551758
311.387573 215.686813 -1010.689514
413.747498 215.026642 -991.013184
623.905701 475.417603 -1589.575684
210.048416 213.382996 -1030.785889
387.014587 -91.804352 -1392.413940
722.891174 95.887932 -1420.156982
382.145081 424.113525 -1092.094238
563.269409 312.624786 -1530.497070
445.786377 285.691162 -1407.149658
363.272797 -56.283100 -1366.933472
352.253357 -49.979031 -1390.502808
282.717590 0.850436 -1450.771973
357.453552 243.122574 -1014.911133
392.024750 401.458313 -1087.490356
135.681793 219.909103 -1527.084839
253.965393 598.242188 -995.431458
418.054382 -65.685577 -1383.000977
299.378784 595.363647 -990.096252
397.612793 -32.220970 -1403.363892
642.386963 213.698776 -1422.083374
392.566742 79.120644 -1380.224854
369.789368 139.409866 -1378.318237
345.868744 669.650635 -805.943054
618.160889 196.411743 -1407.115479
250.213852 27.012634 -1462.159790
220.441254 218.219147 -1469.106812
516.491333 -63.128403 -1381.813232
564.916443 166.354614 -1431.874756
280.453613 36.656784 -1462.689453
368.696442 667.266846 -791.241577
224.980103 669.058044 -886.608398
567.206177 325.182831 -1515.017822
440.064423 276.215088 -1023.462891
210.258331 425.538483 -1122.460449
425.336517 156.544769 -975.614136
161.373962 664.281372 -911.804260
484.786743 362.223572 -1031.788696
270.490967 103.561569 -1473.384277
284.303467 22.448885 -1467.983521
211.524673 674.487488 -873.271240
213.751572 634.721863 -928.236267
516.941650 253.583237 -990.293030
400.869751 172.771515 -982.422363
295.203430 429.435913 -1117.945435
400.356750 591.096558 -891.621948
348.977478 637.915833 -889.456909
482.079163 272.234741 -1497.854736
443.644684 -73.881020 -1401.724854
176.437057 427.038513 -1139.346191
430.860504 125.752716 -1473.635986
520.001831 -46.086617 -1388.024536
215.142914 619.085938 -945.820923
268.666046 433.196625 -1124.819336
280.126862 319.288574 -1084.340576
298.735168 647.083862 -906.203979
213.952454 73.653671 -1501.046021
394.461914 289.086945 -1011.354187
437.302216 405.848175 -1063.627808
291.984833 660.863342 -886.526306
701.841064 129.978668 -1416.159180
207.199554 562.906921 -1047.710693
353.146027 610.063721 -918.596436
215.623413 -39.687519 -1425.556763
255.209061 89.190102 -1504.793823
487.939026 261.153320 -967.344482
234.293228 234.114105 -1028.512573
