ply
format ascii 1.0
element vertex 1346
property float x
property float y
property float z
end_header
233.743210 -838.324768 -1254.115356
322.563660 -375.138550 -1121.469116
272.301147 -940.489258 -1075.482056
433.547943 -714.677002 -1426.736938
-39.905575 -312.664978 -940.964966
328.596222 -7.316528 -1058.674072
95.825096 -821.035583 -1277.670898
168.745682 -548.220093 -899.873657
264.892731 -801.206848 -1203.490112
511.505035 -813.604858 -1221.950317
108.227287 -926.866394 -1091.788208
402.006500 -833.761414 -1213.419556
180.505692 -519.318176 -890.962891
387.769318 -915.565430 -1121.583496
360.562958 -913.343933 -1116.930786
131.591858 -462.371063 -975.625427
328.518982 -201.912735 -1141.487915
235.656509 -732.134827 -1306.724243
506.146057 -631.677368 -1523.817993
154.384903 -896.689697 -1211.202393
59.817577 -513.623840 -922.366028
161.654312 -745.159729 -1275.384521
194.301193 -41.852913 -1105.338501
84.176155 -403.264191 -1078.165039
396.331024 -408.185303 -1001.360046
456.259613 -850.259583 -1178.226563
350.669281 -936.431213 -1095.632202
421.261780 -922.613464 -1102.542480
245.652740 -529.035339 -864.587708
349.647980 -327.435242 -1207.231079
161.998581 -117.162643 -1152.671631
252.816025 -392.698944 -1045.944336
266.741943 -421.177002 -1044.927490
203.063522 -466.563965 -986.198303
219.649063 -61.244175 -1110.554810
409.018799 -422.793213 -1018.306396
42.734192 -442.706818 -1023.056335
237.406052 -754.053223 -1323.045288
321.608917 -960.637634 -1041.621582
444.575165 -824.656860 -1248.195313
229.179962 -703.444580 -1430.851807
214.775772 -928.890503 -1077.632568
314.599335 -471.702271 -924.160950
286.599762 -405.716309 -1057.442871
380.661957 8.753083 -1056.290649
331.416077 -560.416931 -881.197021
400.202332 -916.729065 -1102.679688
326.185944 -227.975677 -1159.282593
78.361298 -421.717743 -1046.823486
243.828674 -346.217896 -1163.341309
128.713760 -395.598328 -1088.573853
401.216949 -171.108871 -1098.747314
411.180481 -189.882614 -1099.098633
121.444809 -153.212143 -1165.077637
312.976135 -954.689575 -1061.486450
358.724335 -322.372406 -1249.932983
285.791077 -164.801773 -1151.589722
347.605255 -951.040833 -1061.299194
247.523285 -868.834717 -1162.578003
218.930527 -313.197906 -1191.326172
34.769688 -822.842407 -1267.627197
307.756531 -560.996765 -867.956604
557.939026 -803.689270 -1248.028564
190.173126 -485.781647 -918.894958
230.273727 -57.708546 -1117.535645
177.093597 -364.764374 -1109.969849
225.639679 -879.021057 -1177.814697
120.718788 -14.910556 -1113.775269
421.129547 -473.569824 -920.751099
-6.899219 -830.403992 -1264.323242
218.172546 -171.424622 -1165.544922
257.356903 -370.441101 -1126.785400
84.615013 -439.537109 -1018.181213
318.492401 -361.649658 -1134.258301
411.723175 -112.456696 -1076.734497
448.055054 -900.769531 -1088.102905
580.612732 -823.562622 -1202.534424
382.377014 -116.196121 -1083.673950
189.997665 -727.402954 -1444.241577
138.491241 -877.898499 -1173.896362
403.225250 1.187479 -1053.318481
560.940063 -812.166199 -1187.472656
419.173096 -770.743896 -1274.998657
42.155415 -818.603027 -1262.241577
326.054932 -510.134766 -886.121277
297.441498 -888.656921 -1138.251221
294.536957 -547.158752 -854.804077
356.337311 -520.526062 -891.703613
165.300354 -871.186035 -1235.872192
252.198502 -843.427979 -1231.425049
152.452301 -450.765350 -991.230225
219.186661 -104.259712 -1120.990234
212.284317 -863.505737 -1242.953735
525.123108 -830.488708 -1189.616211
171.023117 -514.844177 -894.578186
300.185455 -972.777832 -1031.821655
326.372284 40.980072 -1062.444702
300.914429 -29.637299 -1072.357666
332.972809 -957.145813 -1068.606201
219.834717 -530.128784 -880.413574
174.103012 -939.000549 -1069.306152
237.861389 -168.204453 -1154.244263
291.325409 -164.093231 -1141.897827
130.814011 -480.682373 -949.063232
401.684387 -789.004761 -1294.418945
545.677002 -840.533203 -1188.782104
295.035126 -421.400848 -1026.016479
417.551086 -87.788597 -1062.205078
324.416229 -679.016296 -1412.923828
481.249176 -420.411713 -1007.213989
397.039185 -826.368591 -1244.049927
290.187195 -511.451691 -893.322632
318.491333 -540.575623 -874.795776
234.719421 -7.635705 -1079.474243
387.482849 -38.211494 -1044.198120
432.595795 -86.263039 -1068.635132
108.878380 -885.137451 -1161.282715
129.285553 -519.878784 -913.249756
439.792999 -853.576660 -1217.019287
435.113800 -708.748169 -1439.438599
368.617096 -923.539124 -1114.405762
581.606262 -851.714294 -1197.162842
264.357086 -965.620178 -1036.605835
454.813477 -803.987976 -1283.937378
259.884277 -872.138245 -1110.429199
484.587982 -429.952148 -938.142151
389.346130 -425.163727 -965.086182
140.035248 -539.587158 -901.558655
177.793335 -943.935486 -1101.177734
256.475159 -198.648682 -1166.875122
260.842560 -73.958344 -1099.896240
423.582916 -454.405853 -915.503235
107.851128 -510.108582 -910.818420
298.881561 -183.116165 -1150.276855
232.119507 -127.669418 -1143.935913
344.494904 -436.042969 -1011.690125
-26.793161 -386.270691 -968.475647
330.575806 -53.427338 -1077.888184
355.898438 -739.673767 -1272.839600
376.132263 -124.512161 -1081.374878
258.421509 -927.026550 -1067.674438
404.033752 -355.381683 -1124.201416
252.196838 -459.715820 -978.245239
214.520004 -750.172485 -1307.099976
408.625854 -713.136597 -1347.661743
263.365326 -881.499573 -1107.523071
193.816574 -55.312664 -1140.179810
175.892685 -109.383377 -1136.653564
121.194733 -868.563110 -1222.048584
424.067200 -144.948975 -1089.909790
403.867279 -937.042236 -1088.058716
127.674507 -865.618042 -1225.841919
205.281769 -496.300323 -910.593506
170.782288 -883.048096 -1224.932861
297.826294 -548.513855 -861.619324
40.909313 -466.161346 -968.032654
353.595795 -455.762634 -964.637817
222.729965 -372.529053 -1126.022827
383.482941 -921.449707 -1070.308350
351.709198 -524.221924 -876.837769
287.463074 62.302765 -1067.857178
166.483292 -486.655396 -906.023376
183.421082 -558.335388 -868.936035
370.036530 -373.527435 -1063.839111
372.081177 -940.752686 -1083.282837
339.649017 -813.007263 -1247.586670
329.974731 2.336360 -1053.767090
63.239662 -406.559448 -1092.651489
356.687073 -709.963684 -1290.402100
361.648834 -856.863464 -1183.586548
192.026428 -415.432495 -1019.348206
186.558777 -179.914200 -1173.666504
470.723206 -810.879761 -1252.988037
421.569489 -71.792435 -1050.645386
240.083145 -950.091248 -1057.732056
230.859299 -181.693161 -1168.287354
425.083801 -685.211304 -1419.417603
378.483978 -485.953186 -919.525146
555.509827 -846.116638 -1201.622559
406.439209 -751.056946 -1394.831421
402.024811 -110.723549 -1077.262573
466.523926 -806.070313 -1264.033569
454.939514 -425.328186 -955.455505
218.090576 -94.533318 -1122.949463
261.179169 -950.514282 -1037.171021
285.063385 -24.816732 -1080.773193
168.381439 -44.869732 -1108.119873
148.400345 -356.190704 -1213.060791
244.725266 -455.908051 -958.426453
369.544830 -917.130005 -1137.165527
348.532471 -810.699036 -1236.913940
298.952972 -961.245544 -1038.580322
338.109131 -476.350616 -921.186829
256.817596 4.568299 -1085.516113
482.679047 -873.662354 -1130.105713
302.673370 -136.456345 -1121.124390
163.131302 -133.128860 -1155.715454
203.949844 -540.793274 -876.502991
235.572708 -873.220764 -1185.001221
289.233734 -431.026459 -972.011047
378.691101 -428.556854 -1009.905212
116.452972 -778.640747 -1292.295898
594.270142 -769.549866 -1306.253906
157.655167 -44.956326 -1124.669800
589.647888 -802.638611 -1263.471802
472.312714 -374.478851 -852.935486
282.869446 -394.693634 -1092.608032
291.867065 -816.597778 -1119.940063
157.083191 -777.833313 -1285.726685
404.307220 -83.905113 -1067.248047
33.057846 -833.648376 -1276.670288
274.174683 -931.581909 -1069.300781
125.943993 -492.086853 -928.534912
326.637482 -193.669846 -1138.855469
267.891876 -173.176407 -1135.884888
339.755798 -462.776642 -937.498779
202.288528 -964.631348 -1023.130188
277.483887 -566.100952 -861.664063
320.631897 -88.843864 -1083.194214
223.433594 -475.698425 -931.048584
432.517548 -466.116821 -944.192078
228.288254 -10.823180 -1110.898071
265.519348 -446.565613 -948.594177
463.278503 -373.658508 -1091.239868
328.063843 -519.177063 -896.288208
209.241455 -779.320679 -1336.710571
277.083496 -378.732819 -1094.572388
307.932159 -492.800568 -897.966553
373.146454 -948.776123 -1053.866577
368.192444 -509.902771 -879.716553
567.192261 -847.798157 -1186.457153
184.015396 -172.763184 -1155.880127
264.412018 -511.537354 -878.862000
112.861595 -408.548004 -1075.472534
82.191360 -888.594360 -1158.218018
451.548370 -193.502579 -1091.823242
336.591919 -199.430038 -1131.991455
426.649597 -61.189709 -1056.853394
248.506531 -326.000580 -1221.411865
181.417648 -468.791534 -950.839722
317.261566 -563.669250 -861.527527
278.191742 -866.901306 -1176.726563
507.080933 -788.940796 -1222.258667
262.623352 -82.782974 -1115.850342
187.271423 -201.961945 -1170.791626
327.105164 -396.894897 -1026.516113
476.507538 -768.247192 -1220.281494
49.776848 -769.707581 -1330.465698
211.661896 -801.482178 -1309.444336
211.151520 -776.678711 -1320.826538
74.167183 -359.087921 -1125.316528
54.111408 -875.077576 -1187.198975
240.149948 -932.379883 -1079.732422
114.375008 -198.525818 -1196.206299
417.707123 -815.203918 -1250.573486
172.404724 -762.841980 -1347.114624
329.235779 -142.769226 -1119.092651
100.986664 -354.881897 -1167.094238
203.123337 -888.101257 -1175.880737
398.335754 -231.794846 -1134.566650
128.695084 -22.587004 -1124.313599
310.852203 -13.233150 -1061.868530
247.883331 -494.750488 -901.863708
232.914185 -418.770874 -1050.828003
127.817215 -907.684326 -1152.774536
116.548370 -478.298645 -947.162720
125.874184 -919.081421 -1107.016113
400.239166 -809.878479 -1288.097046
305.527435 -509.531494 -894.651428
152.392517 -794.097229 -1309.095703
402.323334 -855.563049 -1209.217407
294.982300 -328.384491 -1188.770996
337.940094 -484.945740 -895.680481
141.779175 -27.017935 -1112.317017
362.054321 -92.841156 -1084.720459
323.748047 -95.631454 -1095.643555
356.294403 -336.750488 -1186.515625
495.297577 -800.656189 -1249.659058
140.172562 -201.761002 -1182.777466
349.562347 -453.389526 -946.208374
234.479904 -217.087997 -1157.524658
329.680359 -757.068176 -1288.447144
433.889221 -436.059845 -946.554749
153.724838 -187.773087 -1174.014893
390.874359 -90.365646 -1066.596558
301.501526 -820.874756 -1246.791748
224.167679 -5.919479 -1101.008545
292.229431 -398.112030 -1060.476685
428.023651 -861.241760 -1193.735229
304.652802 -968.073792 -1029.312866
455.272491 -884.556641 -1147.758545
169.757385 -494.571899 -912.585876
130.898621 -467.934357 -969.082397
154.541840 -565.662659 -886.843750
284.363312 -777.356934 -1121.866333
390.338318 -191.474060 -1107.919922
164.322311 -870.790894 -1208.386353
39.100979 -806.807861 -1266.043213
340.561615 -933.533630 -1082.598633
500.247009 -853.981506 -1192.022949
86.482994 -454.001038 -1021.639526
385.351288 -723.475525 -1410.031616
349.905701 -802.439880 -1303.885742
481.348633 -727.852722 -1380.674927
551.579712 -765.993530 -1221.401978
241.996643 -957.763428 -1055.433960
322.342926 -916.714050 -1099.442017
409.033508 -345.798950 -1136.192505
243.211624 -871.670715 -1165.973633
310.712006 -200.083450 -1152.588989
338.075500 -71.744255 -1076.264771
230.095215 -27.169985 -1087.431641
218.136032 -201.165726 -1175.195190
97.183342 -834.786682 -1273.315674
166.790558 -744.624084 -1362.441650
386.597961 -739.264282 -1292.295044
234.905777 -182.729675 -1166.534790
130.130707 -339.703766 -1156.374878
568.852234 -805.007446 -1262.249878
147.749939 -841.300659 -1255.140503
278.873962 -825.823669 -1189.836670
222.592621 -130.519485 -1148.228149
182.674805 -362.114441 -1113.812988
58.382221 -800.312073 -1286.464478
119.842110 -12.160116 -1113.203003
163.208847 -731.156921 -1261.782227
182.583298 -512.011353 -907.061096
64.731262 -413.437531 -1073.144043
155.498779 -533.950134 -909.665283
183.747391 -962.976257 -1040.393066
192.946793 -934.457947 -1120.044678
176.954376 -455.297333 -951.719299
401.956940 -432.214478 -958.980347
377.413757 29.043661 -1052.763306
337.540344 -466.887848 -969.557983
335.408966 -353.257263 -1158.398438
221.944641 -314.275421 -1182.138550
219.164734 -423.902222 -1025.946533
384.301208 -344.003357 -1149.508423
261.385834 -853.545593 -1100.895386
109.067070 -39.645256 -1128.681885
15.370823 -834.390015 -1241.669312
306.144409 26.272020 -1054.127075
209.946365 -954.534790 -1056.592896
118.582405 -903.898071 -1158.271729
367.161530 -860.011047 -1204.309082
283.978394 -333.862915 -1179.668701
464.929321 -592.989746 -1461.671387
334.733887 -835.574585 -1251.865356
52.559666 -825.023499 -1270.036743
378.117462 -653.124207 -1473.013794
387.657471 -803.079590 -1288.448853
55.081985 -880.817383 -1228.734985
270.485962 -824.891663 -1171.321533
416.736633 -866.416077 -1214.770386
416.859619 -692.989014 -1406.851196
209.152206 -33.262310 -1109.502563
10.127804 -827.599915 -1271.017334
414.975281 -803.339783 -1254.942017
400.184326 -704.579590 -1376.963501
412.613831 -463.363861 -947.635986
194.659256 -133.830246 -1150.607544
368.649658 -787.535339 -1288.712402
357.028046 -12.995145 -1058.749146
119.847450 -507.764374 -903.358215
259.207184 -771.574829 -1262.039795
127.181015 -382.349396 -1132.373047
425.303467 -747.507629 -1303.895630
109.927330 -140.865616 -1159.735229
210.078964 -99.558762 -1124.970825
498.036438 -826.676270 -1219.720947
449.643250 -762.670776 -1249.034668
191.495880 17.456940 -1105.235596
345.392395 -218.221649 -1145.534546
183.104904 10.185466 -1107.533569
51.470558 -520.748840 -931.675232
319.870850 -788.741028 -1311.213623
392.778137 -865.205566 -1215.962158
46.979664 -836.439026 -1275.185059
276.117676 52.406071 -1062.891357
391.550476 -182.057785 -1114.457520
370.307465 -42.579426 -1063.543457
463.061737 -767.810120 -1252.982910
442.933868 -891.368774 -1115.840942
238.266098 -962.849854 -1043.643799
416.760193 -212.046646 -1103.916260
176.164932 -89.149857 -1136.449219
331.226105 -847.662109 -1234.338013
387.372681 -159.155701 -1108.350830
278.956604 -511.591095 -882.609680
208.385590 -885.268494 -1216.747437
337.398987 -855.260681 -1216.426392
303.343445 -8.566094 -1086.852051
170.464584 -441.485016 -1006.405640
214.576187 -515.250183 -911.251343
107.826698 -891.592468 -1150.486084
281.596924 -778.692566 -1271.404053
210.057983 -86.041359 -1124.128662
214.333252 -816.767212 -1216.036255
337.775970 -570.238220 -862.602661
244.462646 -77.444633 -1120.689697
321.031464 -411.111847 -1073.425415
217.670334 -853.935486 -1233.461304
562.926331 -791.301880 -1254.044434
506.829132 -627.105713 -1531.252930
275.353760 -404.049042 -1020.855225
122.338646 -436.078918 -1045.412842
409.801453 -918.425110 -1094.413818
101.105034 -501.826294 -949.932251
262.809631 -976.194885 -1016.070007
300.947876 -890.346252 -1093.299805
106.586037 -544.617981 -894.104919
319.011719 -698.887573 -1232.279419
349.560516 -426.679840 -989.963135
199.939087 -201.971008 -1176.306152
315.654541 -132.617630 -1117.717651
42.241947 -831.062500 -1257.937622
354.434418 -14.595781 -1052.230469
202.753281 -784.172546 -1321.770264
218.529663 -10.204235 -1098.636475
23.279011 -800.827515 -1307.242676
12.438748 -818.412109 -1304.309204
181.473145 -879.686157 -1193.286621
566.170288 -818.369629 -1200.210449
138.056702 -165.937744 -1162.225952
284.827332 -336.284546 -1190.655029
281.722198 -969.380737 -1004.201111
350.723328 -156.159470 -1113.504883
393.176941 -740.475281 -1301.392456
300.339874 -412.305603 -1045.622803
266.444641 -523.939941 -896.682434
125.542160 -491.560730 -959.616699
132.785065 -471.035583 -955.789551
229.910767 -144.940720 -1155.096558
164.295410 -109.286758 -1146.797852
273.892273 -896.314392 -1120.306763
305.044281 -943.947815 -1067.421265
542.595947 -852.948425 -1186.094116
427.792694 -708.984985 -1414.749146
237.684433 -380.536041 -1077.157471
232.344833 -952.042603 -1038.671509
352.834320 -914.762024 -1133.672241
465.905457 -849.359497 -1220.366943
282.172607 -464.171783 -963.327576
337.843353 -849.909119 -1220.482544
425.052307 -159.913681 -1085.851807
254.136581 -900.955933 -1063.791504
358.060425 -721.649536 -1377.185547
140.966888 -866.377502 -1251.802490
437.555634 -120.842278 -1058.832031
296.033478 -7.481267 -1070.896606
449.024323 -704.718628 -1399.785400
192.696365 29.077911 -1091.075928
516.125488 -864.051575 -1191.619873
284.652618 -898.761902 -1120.402344
360.827576 26.423758 -1062.779053
295.513306 72.159927 -1055.567871
192.888474 41.032990 -1077.383545
300.582397 -129.912064 -1118.260864
193.085327 -769.774841 -1344.145508
514.216248 -800.216797 -1241.234497
174.115875 -870.659363 -1209.622803
146.424774 -816.810608 -1271.081421
173.882614 -164.437973 -1153.723999
204.002289 -486.745483 -909.323364
209.208191 -456.257721 -940.736755
422.708527 -919.920105 -1115.013062
222.577408 -114.895432 -1136.909790
44.819561 -527.511719 -920.553162
250.947021 -856.003418 -1184.488281
263.035828 -563.614929 -882.242920
271.156952 -456.537537 -952.190430
431.148102 -457.814789 -927.888977
421.058990 -702.471008 -1422.099121
251.823074 2.932007 -1079.255127
146.120895 -454.495667 -976.651978
122.962212 -417.980591 -1078.185059
258.047333 -803.066101 -1139.559204
484.667175 -843.786011 -1186.571533
494.367798 -786.865112 -1253.576782
362.325470 -784.857666 -1323.893677
342.459900 -367.552246 -1094.853516
445.134796 -804.959717 -1282.716187
317.927002 -62.919315 -1089.846680
428.730438 -455.228394 -938.113464
191.753738 -418.881134 -1035.134277
290.525879 -956.043274 -1052.691772
73.641640 -411.867279 -1070.998901
281.414001 -40.171238 -1088.272217
475.251251 -246.156219 -922.371704
101.589462 -808.555054 -1284.987183
59.662945 -772.937561 -1339.363159
368.348572 -443.063965 -962.927856
-22.549215 -831.695251 -1283.592163
368.397491 -476.581482 -947.972717
373.161835 -925.758240 -1088.233521
435.035553 -887.374756 -1168.237427
359.698730 -140.901718 -1104.347412
132.968719 -918.898804 -1137.041992
307.677490 -862.233643 -1179.257202
273.142303 -968.741394 -1005.772766
53.362148 -862.238647 -1208.387695
386.343567 -444.747040 -998.098999
216.906006 -727.207031 -1352.319824
438.678192 -915.559265 -1117.781372
379.577515 -938.712158 -1085.385010
440.473328 -892.264648 -1161.731445
87.245293 -548.664246 -910.239563
137.451843 -558.458130 -907.740051
266.319275 -222.113388 -1161.791626
228.405884 -908.828003 -1139.000000
228.271378 -550.973938 -886.961548
433.475586 -458.990234 -955.035522
339.108948 -505.314728 -884.923462
419.626373 -741.341919 -1357.347046
460.739349 -802.891907 -1282.365112
148.865433 -816.582825 -1284.040649
248.996017 -684.331116 -1257.808594
261.931183 -352.783142 -1152.439697
213.187073 -396.529144 -1067.960571
294.635620 -103.577934 -1117.019653
71.833290 -896.458008 -1178.731567
254.556274 -958.405273 -1025.494995
461.666138 -873.558289 -1178.541382
141.017548 -341.411255 -1176.345215
181.516479 -354.976685 -1126.166748
396.022125 -723.980042 -1333.981934
196.660156 -844.827332 -1260.117554
471.815491 -608.902039 -1561.595093
218.535873 -390.953552 -1081.020752
409.095459 -49.623318 -1056.624512
97.589256 -113.843826 -1157.740967
231.787262 -955.965088 -1073.996582
195.646286 -406.121582 -1063.914063
464.609985 -799.238037 -1239.198364
139.276840 -887.905090 -1189.023193
337.609467 -87.612038 -1082.468384
395.012543 -920.894043 -1116.767578
262.187714 -774.381042 -1203.266846
458.782593 -736.412598 -1394.406982
393.474152 -839.131653 -1245.908203
209.132767 -951.211914 -1043.557617
290.439819 -376.022949 -1145.187378
609.585144 -837.479675 -1227.046753
472.319489 -665.098450 -1458.163086
294.363647 -894.660461 -1073.673340
310.065643 -449.128296 -987.419373
276.466125 -902.104858 -1111.473755
250.236435 -417.610260 -1031.335083
261.843781 -493.080109 -909.570862
99.566299 -831.610474 -1255.637085
494.446899 -844.652466 -1209.606934
306.520782 -875.754700 -1152.903931
34.562641 -469.328491 -966.610352
129.007599 -782.131836 -1290.629761
216.259537 -205.233826 -1183.276001
133.325851 -921.005249 -1122.607056
304.043823 -847.198486 -1176.177979
141.103256 -917.132751 -1134.475952
216.725571 -932.887024 -1084.005493
154.755112 -892.326477 -1199.151001
72.799400 -835.450317 -1267.933960
179.489426 -965.358521 -1042.842651
404.316833 -470.149109 -926.382507
160.707428 -914.303772 -1143.965088
387.488098 -476.779907 -911.149109
546.461182 -774.662048 -1291.116455
418.787842 -501.460541 -898.174011
195.196594 -69.970047 -1120.950195
404.639893 -399.742340 -1033.539063
91.666550 -884.317566 -1172.785034
347.957916 -433.909637 -1005.940552
95.805435 -895.666443 -1182.190918
475.264221 -830.100220 -1221.477905
389.733856 -939.398071 -1058.577148
253.003937 -786.908752 -1195.504395
311.345917 -80.038887 -1082.925903
256.028625 -933.035950 -1108.190674
264.738800 -138.334824 -1121.610107
325.585114 2.488731 -1077.836426
38.511887 -458.664917 -993.934814
423.839020 -455.215790 -948.052551
424.933563 -903.727112 -1117.964844
305.896759 -979.253967 -1038.094360
255.830429 -27.927055 -1080.204224
172.737656 -83.161652 -1155.483887
349.943787 -70.979202 -1080.200928
55.745667 -806.776794 -1233.117188
98.802010 -507.040833 -949.255066
264.694275 -500.914886 -909.888489
109.710648 -715.841675 -1491.947632
77.737747 -393.860107 -1102.703735
134.678009 -449.559082 -998.343750
167.564148 -154.637695 -1169.664185
353.996643 -779.162109 -1280.558838
420.110229 -878.565063 -1167.078735
403.868439 -384.755005 -1061.980347
205.425629 -847.662781 -1271.657837
360.152313 -68.756233 -1069.297119
438.534546 -372.231964 -1082.417114
325.991028 -553.040649 -858.060120
363.922302 -708.971375 -1279.122681
432.660980 -457.332336 -953.295288
428.918823 -424.638580 -989.491150
278.714417 -350.361328 -1161.052734
585.385925 -845.514648 -1186.786621
317.724731 -63.851158 -1083.855225
165.376999 -9.765918 -1103.375366
194.320160 -826.166382 -1238.415405
270.948212 -869.287903 -1165.703003
318.167603 -870.694336 -1125.244507
398.965271 -203.547928 -1120.074219
270.142181 -839.187927 -1100.360718
391.108307 -454.943970 -942.083801
187.016403 -713.472473 -1444.505249
348.832397 -853.264648 -1204.933960
195.697311 -917.920471 -1125.898560
343.174835 -896.832703 -1155.047241
296.216064 -513.025513 -885.359497
404.470703 -799.961975 -1259.265015
430.672211 -867.614197 -1195.388428
120.322433 -761.148071 -1313.484375
145.069672 -148.573929 -1159.403564
369.047485 -368.011780 -1095.268311
142.339218 -919.982422 -1132.001099
192.452347 -912.811218 -1101.630615
242.071304 -942.743103 -1072.918579
254.794479 -444.489777 -953.173889
404.806580 -422.707458 -981.025940
151.392029 -835.328735 -1287.873535
369.882324 -133.325989 -1098.277344
264.393555 -905.586792 -1147.789185
191.762527 -912.410645 -1160.236328
163.747849 -313.356232 -1191.873169
300.028961 -63.887745 -1099.125244
463.116791 -727.272217 -1420.025024
295.478912 -91.278725 -1108.400635
119.870636 -755.858643 -1327.665161
448.614258 -127.434471 -1083.536499
319.290192 -158.573608 -1129.602661
280.788422 -59.199211 -1111.862183
420.953033 -689.739563 -1373.664917
134.872757 -91.854485 -1140.528442
327.151276 -114.785263 -1097.105835
347.438446 -495.267059 -891.225891
173.483917 -417.274628 -1040.259277
233.840775 -123.747749 -1148.112183
573.824280 -841.201782 -1204.281128
103.230743 -436.108368 -996.954224
240.763458 -37.184040 -1088.617554
422.553894 -410.657532 -944.466492
368.152893 -546.845581 -889.704651
461.824707 -167.004028 -1092.412964
320.234131 -203.432877 -1144.261108
240.376740 -157.947098 -1143.291382
238.200592 -722.802551 -1479.252930
235.072739 -916.236267 -1090.100342
114.037010 -429.384888 -1021.145874
152.323517 -419.521942 -1071.266724
236.925278 -353.369202 -1155.156372
139.073517 -476.089783 -969.817627
200.931824 3.172205 -1100.092773
328.150391 -498.007416 -893.660339
150.259491 -85.323730 -1145.559692
156.295547 -542.382019 -891.275391
590.678406 -793.036255 -1253.774780
413.158966 -206.233093 -1105.472168
386.280640 -796.440186 -1266.668213
170.483765 -514.495544 -901.275146
354.658936 -371.855072 -1084.664917
244.342926 -385.800751 -1086.462402
428.665375 -43.229187 -1043.210693
342.319702 -247.249878 -1165.760620
372.801575 -673.455933 -1447.426880
254.914383 -39.195152 -1088.949951
181.047928 -514.039368 -920.917908
16.476645 -838.575134 -1253.457520
210.486832 -11.594478 -1101.671753
332.775574 -153.685776 -1119.974731
567.370239 -795.135437 -1199.873779
537.594971 -636.008301 -1539.276611
153.515701 -903.150940 -1157.387329
206.550339 -486.490234 -941.049133
396.710327 -807.815857 -1269.187012
268.742950 -897.588867 -1131.710693
410.600464 -915.050415 -1097.629028
161.381104 -847.816711 -1220.084595
276.716034 -536.797729 -873.365540
489.704315 -700.030334 -1421.587769
413.633453 -226.165466 -1116.516235
197.928024 -519.286621 -870.118530
404.180939 -914.351807 -1127.574829
328.535431 -850.971191 -1220.462158
312.744507 -808.846802 -1239.023193
440.106903 -754.595459 -1279.824707
397.449890 -809.079590 -1257.096558
539.391968 -605.713318 -1591.911499
294.679199 -429.285889 -1000.477051
403.680969 -217.931229 -1123.433105
510.712646 -759.016174 -1231.434082
158.396637 -37.784519 -1105.671997
252.830170 -215.989090 -1163.717285
337.913391 -940.867981 -1076.658081
209.529755 -57.173454 -1112.286743
320.107727 -342.111847 -1166.271118
374.628448 -233.417679 -1153.895752
255.194153 -187.033203 -1170.609741
220.945435 -383.437103 -1122.039429
177.286865 -382.326019 -1134.216187
301.908020 -398.421783 -1035.224365
362.520752 -138.113815 -1105.403442
506.235107 -876.248596 -1163.805176
395.429932 -506.400848 -898.103455
437.491089 -830.798584 -1209.238525
440.573700 -836.286499 -1224.175415
213.251083 -522.018127 -885.502502
113.802551 -361.169861 -1169.181641
12.933509 -790.926636 -1261.799072
251.087234 -790.557739 -1273.656250
176.829620 -875.698669 -1205.556152
306.574615 -910.372192 -1133.433716
472.551178 -328.952972 -833.451660
61.652912 -781.267456 -1321.813110
177.627518 -146.170425 -1148.239868
100.798126 -378.759674 -1118.882080
227.137085 -650.144104 -1380.104736
95.525253 -861.400696 -1226.093750
413.398621 -184.375565 -1103.377686
144.004593 -876.267883 -1199.873047
97.900215 -439.087006 -1020.254700
266.233276 -341.874237 -1163.383545
115.786484 -473.677307 -955.312561
309.730194 -373.887726 -1114.760132
236.647537 -165.543518 -1157.689697
507.605133 -812.676025 -1224.608765
173.211166 -451.783264 -1027.598022
189.013245 -354.356598 -1180.601685
353.484894 -404.096832 -1036.237671
545.955872 -813.823486 -1206.318848
132.133377 -916.440918 -1110.419189
209.532990 -847.103882 -1182.904541
409.027008 -111.842018 -1075.090698
590.957458 -814.624695 -1216.544067
382.066681 -780.776978 -1276.279053
324.921814 -73.955170 -1089.290649
150.414063 -801.866089 -1302.406616
351.009613 -219.621521 -1132.293335
78.045952 -894.815369 -1182.360107
297.197418 -38.335754 -1075.484497
270.574799 -215.753265 -1174.666382
148.621399 -131.459900 -1153.076172
38.351158 -815.650330 -1294.570801
221.559967 -177.226364 -1165.748291
313.816589 27.358030 -1061.535889
442.783936 -448.425385 -957.674316
269.206909 -910.694580 -1075.984131
382.506866 -383.446686 -1049.886719
390.327240 -229.516876 -1155.087524
283.366852 -900.765076 -1063.911865
420.369019 -921.563965 -1116.957397
407.480682 -386.001007 -1062.374268
233.912598 -50.686657 -1105.209961
106.516045 -448.248566 -1026.554810
258.024292 -416.031403 -1032.646973
407.661438 -482.801605 -910.237671
257.196777 28.662031 -1072.340210
354.598206 -253.966446 -1183.096802
208.824829 -93.951233 -1119.145630
343.649231 -795.078552 -1285.152588
294.089813 -897.493408 -1099.123901
174.952271 -463.535889 -934.270325
58.230045 -512.190552 -939.878052
37.323654 -460.556976 -993.339966
322.915497 -62.906063 -1078.358276
354.944733 -930.305969 -1106.641724
269.911835 -212.490723 -1176.874023
209.044434 -717.503601 -1274.663818
486.307068 -683.907715 -1444.947021
228.659943 -192.748978 -1172.162598
253.419373 -916.213196 -1127.848267
476.474304 -792.908142 -1238.754028
560.324341 -840.804871 -1174.306519
518.698975 -844.786133 -1171.920410
104.472221 -389.354431 -1116.433838
252.841248 -334.810120 -1177.699585
214.158401 -197.448914 -1181.033203
411.968292 -598.076233 -1527.588989
407.859222 -514.393982 -911.563354
564.288757 -839.984253 -1184.517212
521.381470 -859.397400 -1173.165039
128.241394 -919.461243 -1171.861328
30.112455 -422.550201 -1080.076416
273.472015 -178.339523 -1133.089844
266.822357 -201.605713 -1180.519897
97.645370 -513.620483 -923.532898
109.639771 -904.762939 -1157.746338
270.508118 -173.391495 -1156.229126
132.798645 -386.588989 -1141.784302
431.308960 -785.277588 -1293.364502
442.683502 -748.749329 -1245.197388
206.151031 -825.015381 -1275.945801
309.203339 -844.271179 -1213.553833
168.877441 -765.407166 -1309.980591
375.875244 -469.609772 -918.670837
282.558655 19.987875 -1063.123901
267.920715 -493.720703 -889.263611
193.307739 -893.540955 -1213.727295
234.291321 5.904510 -1082.865356
217.702026 -788.872864 -1328.083740
69.906326 -434.840790 -1096.103149
288.518951 -935.836548 -1067.991211
191.210846 -131.002884 -1160.252075
147.709122 33.508495 -1095.960205
236.713654 -349.124573 -1162.270630
284.753815 11.192983 -1063.411621
134.539322 -33.564007 -1119.002563
345.209381 -37.496868 -1061.314331
209.918488 -510.566833 -917.430847
114.183083 -370.105438 -1151.926514
153.001480 -144.290390 -1162.807861
244.230133 -413.708191 -1063.951050
273.544586 -893.957397 -1052.405518
117.426430 -37.545460 -1126.092529
120.723724 -839.018494 -1288.770874
23.539490 -802.083862 -1305.813599
117.983627 -807.040771 -1313.831665
233.140533 -463.716217 -955.514343
188.177597 -106.561920 -1136.958008
321.345398 -424.180481 -1048.824219
425.876801 -88.607170 -1066.873779
198.930573 -807.694580 -1313.197266
170.696167 -117.452927 -1162.406738
107.733620 -431.580231 -1077.128906
300.505585 51.059917 -1057.121460
264.300720 -887.026733 -1128.236572
382.318939 -52.482910 -1056.542358
144.576309 -447.594482 -989.572937
29.543016 -784.796570 -1309.894165
411.739899 -893.635254 -1105.840576
203.580536 -571.968018 -893.149475
363.155762 -163.885040 -1119.567261
134.849777 -847.696960 -1248.060303
304.869415 -66.095734 -1092.713623
142.118698 17.280106 -1120.687256
154.553696 -361.707977 -1143.870117
105.693687 -848.943909 -1250.500977
425.216827 -192.987457 -1104.972290
285.101654 -404.639130 -1080.849243
398.384186 -149.401230 -1095.055908
410.334412 -503.445557 -890.423462
255.967041 -458.554657 -989.487732
186.342438 -445.225555 -1025.933472
432.031586 -813.159851 -1280.041382
304.479218 -835.321350 -1237.103516
211.373322 -420.263428 -1066.376709
124.471245 -440.479126 -1001.988220
258.504761 -121.372528 -1122.712524
323.881683 -404.120178 -1060.248657
121.392899 -457.069397 -986.354858
31.434763 -873.942810 -1196.179688
189.694946 -889.815308 -1149.700317
277.612885 -502.254883 -889.382690
411.985809 -838.528442 -1247.984741
82.137688 -850.236145 -1247.327515
393.495026 -512.290466 -904.568115
148.842224 -20.903284 -1109.910278
202.196213 -149.503845 -1153.278076
415.742065 -878.503540 -1192.166992
237.491425 -393.718964 -1069.721558
52.100552 -862.318848 -1227.577271
379.875488 -177.161972 -1110.400269
246.676224 -460.606689 -963.810303
235.780579 -914.317261 -1142.964111
415.729767 -234.503525 -1135.027588
404.893616 -497.412292 -907.977112
283.603302 -779.406067 -1085.476196
368.085327 -213.612518 -1135.739868
181.906860 -697.488953 -1458.120117
468.212433 -657.502319 -1459.240234
405.588867 -67.533920 -1061.159668
373.408539 -343.604645 -1138.577515
312.103058 -421.235046 -1025.828491
413.849579 -785.161987 -1281.261230
325.610016 -125.446381 -1098.054932
352.568726 -21.614597 -1062.618042
126.628967 -53.312061 -1123.641968
197.320480 -412.982941 -1022.922119
233.737717 -181.953400 -1161.159058
402.453827 -865.975159 -1214.203003
368.521637 -548.079407 -873.584167
142.420074 -834.959290 -1272.851685
326.448425 -76.616638 -1101.939697
241.867355 -516.777466 -904.442810
156.163895 -725.153503 -1447.856812
260.747131 -127.534401 -1142.617432
486.881470 -762.542725 -1300.708618
94.782440 -558.885742 -918.183533
165.489838 -3.835363 -1111.709473
195.324921 -214.271408 -1169.025635
72.877655 -864.972778 -1226.408447
479.932373 -773.931946 -1302.493286
345.904144 -658.230408 -1320.867554
263.753876 -448.200562 -969.586426
472.497772 -738.145386 -1365.215454
299.341858 -337.917023 -1137.210815
504.574463 -868.540955 -1161.420288
147.480576 -934.140686 -1099.010742
376.566040 -771.180176 -1311.818237
435.679840 -710.516479 -1387.274902
552.108765 -803.233704 -1237.847656
295.394501 -344.174408 -1183.130493
213.319733 -524.393860 -903.936523
411.321869 -191.515091 -1115.159912
94.140114 -480.403961 -954.369385
156.617615 -68.287231 -1125.821533
550.655212 -765.138611 -1207.747559
357.916992 -505.453583 -894.469910
364.724701 -86.180908 -1083.805176
191.464081 -7.128912 -1097.666870
600.725525 -840.636353 -1196.342773
106.607307 -342.829865 -1151.303589
172.744598 -500.560547 -905.479126
317.160095 -76.586235 -1093.205200
130.179916 -117.991463 -1159.812012
264.422150 -681.174255 -1355.919189
334.576630 -384.200897 -1063.899658
353.077301 -476.259949 -937.612305
173.289017 -850.431335 -1240.575928
166.087540 -332.483398 -1194.402832
112.729530 -876.252808 -1179.812866
269.074280 -722.756470 -1234.551758
422.327362 -352.026733 -1139.882080
392.160156 -423.197083 -1022.583862
428.780548 -230.924545 -1141.640381
-14.505894 -849.033142 -1252.692871
96.715797 -433.910156 -1033.047974
231.323730 54.353424 -1064.591919
352.535248 -776.448730 -1278.591431
44.717594 -753.705444 -1379.938599
124.913986 -551.406982 -871.446655
227.931366 -472.478729 -944.435425
428.527557 -933.338074 -1094.466064
466.999207 -323.845825 -849.205872
362.549530 -928.180786 -1108.668335
49.144558 -425.358093 -1052.710815
316.246582 -865.597778 -1187.702393
275.471436 -9.276575 -1088.013306
231.577347 23.738293 -1080.702393
162.348099 -38.759399 -1120.433960
522.813782 -860.710754 -1193.992432
187.783554 27.005785 -1096.519653
166.534576 -460.067810 -967.126831
144.340683 -781.977295 -1327.390015
287.884521 -168.091217 -1139.412109
212.825394 -787.850952 -1328.064941
253.145096 -914.748657 -1133.995361
94.036240 -860.404907 -1238.280273
392.635468 -346.994904 -1122.752441
26.530287 -760.473633 -1378.574341
224.338043 -848.700989 -1186.952271
171.114212 -535.328369 -891.913574
291.866608 -425.137329 -1007.021545
153.740082 -921.522644 -1166.574341
315.861969 -555.863892 -856.509338
25.482271 -841.464722 -1247.136719
290.903137 -507.294678 -875.387939
311.894745 -918.125061 -1095.430176
241.591812 -500.109375 -890.377197
90.018600 -426.499878 -1036.546753
484.041412 -739.917358 -1374.961060
324.210968 -894.133606 -1151.488647
25.889898 -477.493134 -942.916687
150.485489 -361.517548 -1145.659546
228.265945 -126.758423 -1139.793457
529.620728 -655.696411 -1542.725830
250.577835 -454.013245 -998.879333
601.633789 -797.382935 -1244.167725
187.485107 -437.737579 -997.220276
489.498840 -269.471558 -894.263306
247.019028 -506.242798 -887.970764
108.717911 -714.355530 -1495.249878
73.388023 -844.352478 -1250.995483
284.052460 -659.732239 -1300.622314
467.681671 -871.023315 -1192.885620
345.704193 -837.793274 -1256.676270
-11.984910 -776.833679 -1284.606079
327.811554 -925.132935 -1095.909180
155.231598 -553.772461 -858.261841
166.469620 -917.139648 -1100.284668
265.020508 -958.697021 -1051.566040
406.981171 -153.680298 -1089.243896
1.751974 -812.648499 -1300.995483
290.252228 -829.719116 -1222.617676
335.218506 -902.368958 -1155.336548
512.753357 -773.756897 -1220.669067
158.900192 -845.224915 -1255.583008
320.379669 -917.932068 -1100.718140
180.551682 -485.197540 -923.636963
404.368073 -392.732910 -1044.463501
255.689911 -353.747101 -1153.775513
459.629700 -892.015564 -1130.627930
345.046600 -509.642700 -874.888489
347.200714 -877.447632 -1181.331665
240.673004 -541.070435 -874.233887
189.689865 -863.626221 -1220.058472
211.202744 40.433903 -1072.535645
326.938812 -862.866211 -1194.600220
130.865860 -538.644043 -908.335266
293.174438 -145.375885 -1130.486084
255.079132 -456.627228 -957.477661
252.231232 -44.781029 -1107.090210
363.437164 -519.078796 -877.817932
290.365204 -98.618767 -1102.102783
501.600616 -700.413818 -1402.793335
263.733826 -350.486694 -1200.402466
247.294357 -328.496429 -1192.734375
453.775787 -675.521790 -1452.852539
383.409180 -333.967072 -1159.429443
181.842178 -509.118744 -924.977356
224.029251 -797.242432 -1332.683105
83.245270 -63.004391 -1153.223267
230.038147 -460.132599 -966.510010
515.486572 -865.622070 -1192.676147
174.692200 -412.707489 -1086.220581
302.413940 -319.720856 -1197.569458
331.477417 -226.284607 -1144.537354
216.416275 -19.914593 -1098.469849
416.134094 -837.075989 -1244.257568
173.994873 42.098118 -1097.795654
223.117767 -27.479359 -1118.058105
406.375977 -914.310669 -1102.330688
111.879692 -910.870300 -1151.281128
247.845657 -454.105316 -943.255249
150.972122 -449.978058 -994.321167
119.913116 -873.377014 -1214.704712
514.232910 -651.424133 -1519.623169
339.594666 -482.679413 -912.608337
120.017975 -382.348907 -1152.153931
221.105530 -356.597443 -1150.966309
377.933929 -492.056152 -893.861816
387.386749 -702.919373 -1371.571289
419.809998 -859.752258 -1164.646606
193.772797 10.175729 -1105.524048
134.991470 -56.966934 -1126.849121
208.906158 -543.313599 -875.624695
138.202240 -482.587097 -937.119385
361.526184 -188.174881 -1135.255371
114.657768 -817.556213 -1295.502563
283.029907 -45.321102 -1079.361694
312.143524 -702.343262 -1225.125854
379.567352 -158.333755 -1112.133545
142.384918 -19.168083 -1127.744751
165.090515 -389.622681 -1093.207642
65.815094 -871.618408 -1221.447632
306.404175 -2.446140 -1075.642334
397.833862 -18.938412 -1040.089355
204.756073 -874.833801 -1203.331299
404.502563 -115.114128 -1080.386963
222.148773 -740.569763 -1317.851563
155.674545 -847.587952 -1275.797241
83.836685 -480.936615 -952.950317
20.784002 -469.127655 -986.611633
207.185608 -15.939445 -1092.349731
165.798233 6.305388 -1102.988037
55.658165 -448.790283 -994.737183
455.944763 -705.036621 -1415.506714
396.609985 -892.114807 -1168.219238
122.198387 -830.164734 -1297.256470
138.643539 -377.666992 -1177.294189
131.755692 -130.894943 -1160.961548
107.583946 -71.482391 -1144.508911
258.959229 -457.695923 -980.589905
418.100830 -763.127747 -1274.506836
200.837708 -645.910828 -1358.521851
156.559952 -918.163757 -1105.780884
394.556854 -438.672516 -959.105713
316.250397 -831.594482 -1248.306763
313.118225 -488.475616 -903.695007
455.046539 -696.242249 -1453.942749
-1.571614 -790.225952 -1266.180786
307.594116 -871.606201 -1194.975098
232.782333 -782.981445 -1169.024780
591.161438 -831.897339 -1207.572754
215.955612 -419.352844 -1041.185791
402.936249 -481.058594 -913.741699
325.890015 -442.499817 -965.797852
149.479156 -521.137878 -900.927795
131.450897 -172.663544 -1175.907715
276.016571 -38.759903 -1090.143066
521.447998 -784.190857 -1230.947388
445.415680 -413.712982 -1003.808472
285.535706 17.912779 -1067.884888
599.306396 -765.453003 -1295.827881
532.238159 -848.515686 -1201.892578
156.168610 -820.687012 -1293.967163
456.240173 -829.744690 -1228.929688
287.096527 -125.090088 -1120.331665
402.058167 -836.847473 -1233.626587
202.883682 50.054222 -1083.324219
359.789185 -535.403748 -871.947388
198.800079 -456.093262 -967.382874
164.900879 38.994633 -1088.259766
226.008453 -838.705078 -1250.414795
439.022797 -379.102295 -1039.503174
108.148849 -714.833740 -1475.566528
156.216614 -890.235779 -1179.323730
129.599243 -723.039490 -1473.320435
65.895370 -814.744324 -1278.232544
446.303528 -744.341980 -1419.466553
253.261368 -224.088470 -1179.207397
390.028442 -826.680054 -1268.091553
498.757416 -755.265015 -1299.704224
142.886063 -868.032654 -1257.990112
414.770447 -872.170166 -1143.773804
492.626678 -791.690369 -1247.808594
465.534149 -831.400208 -1237.660156
126.728569 -116.653908 -1143.301025
474.375977 -801.591248 -1262.892334
169.691818 -503.848602 -903.024841
188.331863 -324.824982 -1202.125366
207.422958 -967.961060 -1075.771362
197.533783 -166.996964 -1162.901245
333.360535 -21.169237 -1059.091553
52.079144 -482.648926 -960.201233
209.555695 -215.494095 -1190.376709
181.849213 -155.261703 -1148.523193
321.874847 -531.768555 -872.868591
104.228981 -456.571594 -987.730713
332.657501 -543.950989 -863.083130
261.055023 -25.585871 -1088.625732
113.499527 -849.292725 -1273.353760
283.027344 -380.663513 -1063.198730
61.809631 -873.454346 -1220.866943
313.959167 -945.908875 -1072.726807
432.044373 -631.950256 -1471.670166
359.306854 -96.827423 -1086.761963
239.118591 -12.074162 -1079.602539
340.257629 -880.680542 -1141.417725
258.194733 -418.462982 -1021.203552
480.944427 -584.943970 -1636.318604
162.030457 -130.311646 -1158.787476
28.181870 -853.468811 -1242.351563
213.496246 -35.012470 -1095.268433
160.978531 -161.564346 -1161.230713
346.777252 -402.067871 -1017.219788
137.145828 -771.931763 -1285.129395
416.734192 -130.279541 -1080.254028
173.671585 -438.948242 -1006.815979
222.849823 -43.515614 -1096.527954
227.516327 -182.979630 -1161.229614
426.230652 -500.523407 -903.009338
342.453735 -408.130646 -1024.785034
428.391266 -375.606537 -1087.326660
129.973282 -497.189941 -945.369873
199.312576 -497.706238 -905.398865
411.013947 -89.186981 -1072.458618
72.548187 -769.567200 -1267.961060
301.511993 -509.015472 -896.793457
224.730759 -805.890381 -1293.493164
346.092102 -327.113037 -1182.576904
104.030373 -768.362122 -1309.994385
62.155468 -473.074188 -968.607361
176.703995 -44.011391 -1125.191895
14.707040 -829.533447 -1309.784668
340.860199 -424.156982 -1034.253296
445.196198 -745.793701 -1390.744019
139.161041 -931.236511 -1108.176025
363.488831 -534.938293 -875.517334
100.768768 -357.029327 -1170.239380
166.949066 -904.241150 -1197.355591
251.319672 -932.976501 -1070.837891
262.535156 -502.009369 -894.745605
284.661804 -650.468079 -1305.788940
477.900146 -735.455811 -1297.570557
393.559662 -635.519348 -1466.279419
268.705963 -831.201294 -1099.783325
361.691010 -519.270630 -882.659607
305.149811 -897.415771 -1132.865967
181.362045 -8.228429 -1099.146606
197.826645 -123.047874 -1137.300659
277.522430 -117.458496 -1119.405273
496.168243 -834.248352 -1212.051025
169.082367 -940.240845 -1088.381104
137.408951 -912.185913 -1148.185303
139.755447 -451.999054 -976.159241
399.286285 -115.058136 -1079.274292
467.677490 -231.350327 -1125.571045
437.754242 -823.543335 -1254.196167
234.084625 -478.562531 -924.581848
388.708221 -26.873238 -1044.776489
144.459427 -209.120621 -1196.319946
590.451172 -770.112915 -1291.279419
334.326630 -410.926636 -1002.978271
325.011597 -718.801453 -1396.335449
386.582306 -179.185852 -1119.630249
317.854401 -120.014809 -1105.969727
143.462845 -25.060553 -1112.375488
118.402161 -451.889313 -1018.206238
535.276550 -830.111389 -1185.755981
117.312859 -450.164246 -991.607605
325.046936 -936.362793 -1077.561279
329.771027 -392.673584 -1048.609375
120.176994 -433.341766 -1073.004395
86.201744 -388.886017 -1107.105835
397.918701 -889.063477 -1152.355103
329.208893 9.330114 -1061.872925
273.411560 -973.234497 -1048.294678
398.551483 -785.545715 -1299.565186
421.312103 -199.058594 -1100.650146
362.688049 -906.291992 -1124.700928
344.736542 -386.542145 -1093.223022
127.413147 -869.355225 -1219.825317
133.880035 -449.253204 -993.598694
418.465332 -86.097176 -1057.009644
226.983780 -946.019470 -1101.510742
120.781921 -472.081909 -988.201538
557.249695 -866.463013 -1170.107056
-14.955173 -837.913391 -1285.697876
197.103027 -836.186035 -1289.164795
25.168159 -493.478546 -961.073547
474.282898 -876.665283 -1179.591797
367.628448 -715.629272 -1417.897949
195.865860 -556.729858 -868.227295
278.853027 -659.383545 -1170.139160
161.483368 -733.592896 -1428.931885
202.651718 24.988976 -1090.670776
323.310333 39.604149 -1042.779785
118.026527 -63.435345 -1132.566040
116.240875 -553.560181 -913.213074
121.310158 -515.484131 -893.101135
226.094986 -12.096478 -1088.433594
369.746429 -492.862183 -891.982300
393.258392 -445.434174 -961.227417
467.883423 -852.170288 -1198.096313
47.115932 -819.845032 -1273.629150
204.825272 -374.365479 -1115.497314
363.216675 -122.710503 -1097.829834
240.377136 -436.070435 -994.271301
311.552368 -35.151886 -1076.292480
235.030228 -933.574036 -1062.334717
364.782318 -80.882530 -1073.276001
335.544861 -921.884766 -1109.331299
520.277954 -860.730286 -1151.317749
375.491211 -918.836670 -1097.158691
174.370712 -879.815857 -1163.509155
201.434555 -488.064819 -901.006042
382.000793 -467.779907 -921.910400
271.054810 -98.108376 -1111.940308
427.623474 -497.748169 -912.521851
449.816193 -788.448181 -1247.781616
220.894180 -110.144516 -1121.077148
254.503204 -842.790466 -1206.644043
144.433853 -737.529541 -1391.613037
250.355743 -544.319702 -869.437195
428.483887 -363.608154 -1081.780151
419.139374 -886.458313 -1122.773804
361.229218 -196.028534 -1128.549194
324.307556 -893.407349 -1140.419678
344.707245 41.586937 -1045.433716
214.806305 -19.737570 -1095.795410
268.250244 -534.470764 -869.094177
155.709534 -341.815277 -1150.370605
285.199707 -511.540649 -880.660828
135.611893 -882.575745 -1198.422729
512.062622 -672.479736 -1448.481689
95.294594 -741.559204 -1217.412720
279.035706 -415.228546 -1023.265198
210.468399 -145.921997 -1150.355469
354.117371 -554.850037 -858.539490
549.885925 -838.908081 -1177.402222
182.959808 -440.362213 -1047.689575
97.383484 -434.181122 -1022.469299
136.633362 -765.795471 -1356.914185
167.137604 -401.996582 -1075.139038
157.933060 -417.237335 -1056.468140
352.420074 -473.409241 -929.240723
490.590088 -756.978943 -1307.465698
131.540894 -466.282898 -960.783875
406.345795 -395.956604 -1031.945190
361.573792 -445.628540 -973.220947
61.163998 -745.699890 -1434.119629
321.066437 -188.848145 -1143.288452
396.145172 -387.874054 -1076.010498
388.592316 -238.550308 -1168.174683
378.709320 -739.914490 -1283.842041
72.420502 -887.458374 -1198.898071
413.311493 -17.518837 -1053.248047
81.905434 -755.416565 -1411.282104
373.833008 -149.288330 -1101.531006
307.504211 -318.652069 -1180.257935
338.699951 -208.602905 -1142.034180
370.099060 -430.384918 -963.736511
-16.088928 -330.113007 -971.227173
384.224457 -150.257141 -1104.363403
405.916046 -743.372803 -1298.067139
382.891754 -163.022705 -1101.085449
105.068321 -510.777313 -922.483398
5.318378 -837.603333 -1254.791260
240.584213 -126.777084 -1122.564819
402.382294 -518.974365 -881.129517
412.308167 -112.648109 -1084.093994
381.822144 -90.295532 -1067.934937
281.883270 -333.307373 -1179.266846
430.093658 -919.447571 -1104.546875
329.740356 -943.723816 -1059.394165
197.672195 -963.240784 -1043.822144
419.411438 -723.613831 -1436.413940
108.052223 -404.919159 -1047.684326
154.146988 -926.234009 -1116.070801
482.008209 -824.003784 -1249.569946
148.850784 -473.089325 -949.344299
60.506100 -401.481537 -1073.555420
141.782867 -520.810486 -902.989319
108.740402 -556.564575 -898.413696
109.950111 -421.657990 -1013.507446
275.185181 -885.132141 -1071.265259
400.192047 -846.605347 -1232.879761
172.801666 -73.821976 -1131.434082
228.788116 -53.849953 -1114.999268
335.227051 -572.679688 -886.520020
139.622742 -413.766571 -1058.372314
418.823883 -493.401337 -912.848755
134.498444 -891.468323 -1202.570068
86.398308 -499.021484 -961.899963
14.085448 -795.911804 -1318.198486
338.498016 -395.525726 -1075.271484
255.679565 -425.625305 -990.855286
276.534180 -868.007813 -1171.540405
194.768097 -927.481934 -1111.953369
245.567200 -910.299438 -1097.968262
247.379105 -355.452362 -1151.933838
247.795212 -329.893188 -1182.391846
192.863327 -201.750198 -1183.919556
190.146591 -946.773926 -1047.301147
297.136047 -500.227203 -898.448975
208.272842 -956.761230 -1095.752563
485.524506 -809.005432 -1256.550049
342.275787 -727.507019 -1376.914795
582.961121 -788.430481 -1267.945923
404.854889 -160.064758 -1102.559937
562.641296 -803.457458 -1200.767212
474.273926 -733.012878 -1309.733765
428.999451 -901.824280 -1138.485962
391.809753 -146.943710 -1105.100220
240.503555 59.559910 -1075.677490
117.374802 -535.485046 -906.468445
