ply
format ascii 1.0
element vertex 1404
property float x
property float y
property float z
end_header
916.293396 -187.695526 1233.685547
1022.915466 -26.845922 581.320740
962.022034 -380.389496 1067.436035
1008.388184 55.034878 566.472168
786.449585 -203.297180 758.480591
837.897034 -24.658670 1364.358887
747.217896 -425.466644 1192.072876
998.189636 38.939747 503.598053
871.815857 -192.052521 1284.226929
677.393982 -233.486877 1300.110718
713.131104 -334.435150 1189.095337
634.865662 -133.916718 830.179382
658.752136 -200.971207 800.658691
951.082153 174.958099 641.818115
976.808044 149.160370 513.750061
932.444092 -159.649963 750.193481
782.252136 -418.117462 1188.626343
828.412109 -506.343719 1117.375977
776.418640 -441.270599 1179.075684
942.108154 -379.856262 1086.580078
964.396240 133.670731 594.482666
947.034546 -419.392792 1144.231812
889.190613 -83.207504 1327.032837
630.629028 -255.054321 818.197876
750.363770 -329.352692 700.072815
722.018555 40.090496 871.233521
729.550293 -321.664948 718.515015
905.560974 -219.582047 1197.619385
864.677917 -546.295898 1118.534912
829.589478 -205.245239 749.778442
819.546204 -93.289886 1344.409058
676.228760 -72.111732 847.745483
714.775574 -85.097595 817.224976
681.938293 -389.289337 1200.161377
745.542419 -216.084030 1305.289551
721.372314 -272.954193 1289.599731
899.201660 -165.518265 1222.138184
744.339661 99.395988 825.552734
892.161621 -519.166504 1041.271729
860.655518 -528.864136 1121.241577
712.379578 -55.176617 833.278381
982.923645 156.897690 460.139893
972.164001 109.849045 622.354431
935.375244 -176.377167 1236.591431
920.457642 -119.631668 770.803040
1025.418945 -28.234520 481.348938
744.361694 -185.848206 1325.861572
1023.912598 11.885095 431.050934
940.497498 -240.009567 707.709961
838.260437 -187.808762 1273.769531
1002.140320 -32.954914 817.481140
962.932861 195.433029 529.101318
676.101624 -443.574677 1219.835205
1043.031616 -104.548454 501.796051
1006.393555 -21.370739 564.415344
764.437256 5.719840 858.120972
743.542603 -227.674622 777.316528
1034.074219 -122.936188 516.795410
795.857971 -67.681206 819.182739
951.999756 133.743866 681.099121
971.913513 -264.179626 698.578064
883.325500 -488.876770 1154.417603
776.230347 -320.964996 684.967285
739.282104 -285.055145 728.437317
812.686096 -239.088959 738.665649
1030.131348 -112.436905 616.134949
1024.085571 -14.310805 461.722870
772.271118 -215.363312 1302.088013
840.155151 -50.024349 832.759583
1020.725525 26.872286 427.553314
754.147522 -148.183640 1311.750122
795.460510 -94.954033 1343.145874
961.484863 102.283661 740.034851
712.431885 -486.149963 1152.634888
904.653137 -488.249634 1119.930542
1049.658813 -209.861832 1215.193726
999.535339 5.283170 702.035034
997.970581 138.040756 477.250427
868.014099 -477.774292 1142.066528
800.100769 -198.544617 1295.177002
961.332336 195.357895 519.149658
669.588806 -227.416687 785.356323
1023.072998 -2.639958 576.207642
977.507019 77.820801 660.064209
1027.699585 -111.502518 626.536072
681.131287 -379.565155 1205.718994
649.325500 -186.888901 796.694153
820.788513 -276.068848 738.801392
999.614014 2.954968 714.360474
947.549011 156.518158 722.082031
988.810669 2.692898 653.851807
749.724121 -241.717300 1301.722290
1014.823914 -44.580837 554.281921
688.271484 -327.910736 1265.857178
693.493469 -275.354828 1279.698608
999.011047 159.920731 459.608368
970.135742 82.312935 742.814819
705.808472 -322.287659 1263.108521
639.052246 -287.448029 790.586853
702.002319 -331.994263 1265.139160
870.361694 -451.746674 1175.997070
636.461609 -187.716492 819.612793
1039.955444 -50.451473 486.467621
719.090637 -21.163441 861.478271
894.707520 -97.121742 1308.805054
868.566345 -48.148205 812.564392
740.185730 -379.120026 1179.544434
1012.209900 -142.802856 750.744568
785.990723 -191.809952 1302.031128
1029.009888 -72.140656 627.688477
800.351257 -228.296799 754.942688
886.954224 -457.095062 1166.083008
652.321228 -283.054169 791.670227
996.749573 -43.123653 783.804932
875.002380 -167.729187 1238.832031
664.396606 -307.259644 1259.176147
865.915771 -361.162018 1182.942261
1072.889771 -186.572540 1225.143677
834.344666 -185.331711 754.260498
739.963440 -359.765411 707.389221
703.726929 11.319300 874.070251
804.673889 -162.726288 1323.758911
669.669739 -413.788239 1198.262817
822.938293 -104.152885 1322.859131
1044.520386 -61.558094 467.749176
688.410339 -38.810295 865.232788
1195.518677 -95.108101 1237.768066
918.608704 -289.144440 692.713684
713.808960 -329.120667 712.639038
910.034790 -241.558304 1113.169678
980.850037 121.167625 531.841187
971.318359 107.418152 666.155579
969.514648 183.394211 528.170532
901.735779 -284.254944 1173.344971
800.772339 10.218390 870.863281
711.363708 -87.642647 832.809692
946.658997 -484.900482 1093.143433
985.857910 169.624741 486.904694
888.476196 -363.200012 1047.578735
884.448608 -223.535446 1271.971191
878.914124 -498.062561 1123.410767
943.061279 -265.681763 1215.916382
998.645508 83.421890 524.348389
672.748474 -40.017773 876.272888
719.282166 -176.009552 786.607361
612.600830 -130.841599 897.036255
1008.367126 -6.486486 591.995850
609.557739 -378.468658 1241.871338
691.957458 -192.970367 774.531738
689.861267 -104.925247 841.204834
779.154419 -218.613663 753.747070
737.294617 -335.008484 700.016663
1075.292114 -206.515869 1226.325439
899.963989 -525.917175 1099.340454
736.362427 -330.649353 1240.195313
787.615356 -320.026978 701.046631
782.041321 -191.791473 782.300049
896.112183 -493.837494 1142.652344
866.845398 -532.584656 1115.946289
657.210938 -257.727173 772.502075
650.376343 -392.384705 1222.663330
1035.985596 -4.308192 407.665497
771.323303 -303.804413 1125.317017
905.450134 -4.395326 838.863159
725.460266 -50.235123 831.979858
883.843262 -423.012695 1183.086670
852.143982 -37.945099 1355.803101
987.819824 -168.945999 748.529419
972.241455 82.876717 589.872559
818.031250 -213.908035 732.039124
1142.221558 -80.937073 1247.504150
749.589783 -139.384644 1317.090576
1041.927246 -101.294449 559.138550
859.671875 -196.044312 1270.140137
634.800903 -427.860260 1202.080566
766.802124 -234.092377 1293.293091
1006.852112 14.396494 540.167358
997.545471 75.439507 499.206787
986.612427 57.703510 691.033142
814.611877 -1.995479 862.103943
918.709290 198.907227 658.960510
974.586914 -477.948761 1104.154297
1003.785461 23.592392 512.192261
845.691528 -526.334045 1122.256104
706.244019 -340.401642 1230.708740
905.444580 -514.516418 1093.168213
1054.736694 -216.000092 1212.562134
757.588440 -147.907394 785.824097
1038.534668 29.172932 465.149231
1025.198853 -119.235481 630.451294
764.580078 -205.485046 1298.354004
682.602539 -159.798615 800.366516
1011.006042 -18.153070 612.211060
837.850586 -128.937164 1303.645508
987.077026 -28.893082 692.168152
1009.185669 154.744370 480.829102
625.834839 -173.440002 853.640503
1274.538696 -88.616844 1222.632324
715.906128 -190.811417 774.808533
736.969849 -212.600998 1286.661621
820.392822 -404.513306 1192.590820
1008.504761 8.737969 578.183533
718.295837 -287.006927 1271.473145
643.442383 -51.181896 888.268311
994.519104 22.604391 683.881531
640.981506 -218.101913 800.519592
1052.212158 -206.072540 1205.017212
958.528870 123.169174 605.896057
906.361572 -489.087799 1121.953857
696.611816 -102.316406 821.243774
852.120056 -33.318462 1349.482666
680.369812 -281.204742 752.894226
1001.314819 19.764565 698.076660
716.279541 -187.382614 1303.002319
918.180664 -178.158081 775.780762
1006.579773 19.798828 625.404785
970.444946 154.296234 499.128479
810.426819 -209.123962 768.504517
725.760986 -337.061523 708.002014
626.643799 -195.999359 855.235046
663.217651 -211.222580 792.581787
1149.815063 -423.246765 1097.638184
790.024109 -228.239975 1286.285156
678.536621 -333.715363 1253.710938
857.207031 -65.796738 801.052490
608.085144 -80.723877 882.552856
744.768555 -64.264671 822.922974
1011.633057 92.861298 422.573151
796.007263 -150.851440 1319.664185
1032.282471 -44.575306 495.335632
977.003723 152.349594 515.575012
906.273254 -201.531982 1268.866211
1007.931152 -16.775194 631.706055
956.625427 176.441605 583.930664
621.449707 -129.773041 872.097717
658.369080 -208.961365 787.187683
957.894958 110.269417 687.339905
997.264648 -40.300846 815.597961
1160.156860 -111.056458 1214.813721
757.971497 -497.315918 1155.396606
865.423157 -516.939087 1114.053223
729.286316 -335.654877 723.073181
980.105713 73.365715 783.002075
1029.330933 29.719454 408.200378
835.365051 -319.272827 683.840454
666.276917 -406.368683 1201.719604
714.310913 -240.357864 755.804321
796.529419 -103.465271 821.549255
720.478455 -213.335678 1286.250000
789.851196 -225.118286 745.703735
952.893127 -231.815552 1213.857056
937.778687 -478.779022 1111.927246
993.245056 100.547127 561.830139
880.119263 -141.060883 1251.864990
746.417847 -343.657196 1158.036377
651.571045 -20.397345 917.777832
686.070007 -417.956512 1206.050659
1044.439819 -44.297897 464.337402
876.891602 -333.166992 1118.692261
916.681946 -534.712952 1017.235474
792.882507 -109.375542 1331.964478
1028.488892 -221.028961 1244.676636
711.685608 -248.412567 1270.827271
627.620300 -98.588455 859.281006
1001.492615 5.030285 682.159973
982.034546 87.136528 616.442688
889.921814 -255.546082 720.613586
844.386841 -285.855682 704.925659
870.172791 -225.561371 1271.434448
962.107056 104.433350 690.700745
985.912659 52.596424 654.439758
687.040344 -136.676392 814.233582
673.989929 -129.645905 821.897949
849.708008 -39.335709 823.923889
865.390625 -119.965279 771.701355
876.572510 -505.287323 1129.098145
734.355103 -221.516556 1309.041138
964.729126 -422.437775 1137.594116
860.207092 -251.163376 748.267517
1027.395996 -102.620728 568.661926
857.278015 -228.017365 1270.001343
744.799011 -34.175358 859.055054
1243.594238 -130.877136 1180.789185
934.003113 -143.106705 1245.374634
777.059753 -377.288147 1209.805420
701.469604 -224.391647 1300.390381
951.490540 -5.954601 840.677856
864.415344 15.016009 862.599915
723.139709 -269.105255 740.947205
740.409058 -22.888329 847.567871
696.002075 -335.522247 1232.520630
946.557373 167.074554 689.517883
650.283630 -139.012283 844.690247
758.993530 -507.134857 1151.334351
986.975708 74.651711 568.182495
931.920227 -21.393826 832.456482
776.532104 -277.852692 1263.005615
962.601440 111.259300 682.884583
895.989441 -12.789004 825.890564
707.321960 -24.587620 865.304749
963.397827 81.066330 651.684448
1107.812256 -210.194153 1212.908691
1097.641113 -200.850510 1208.661133
747.558228 -391.641327 1178.259399
972.173523 62.122608 639.786438
679.522583 -25.359676 896.275940
623.795410 -118.007256 845.202759
738.359436 -293.765656 1117.175903
659.521667 -293.533203 1279.815430
633.276611 -79.203697 877.593689
977.785522 72.656494 702.691711
997.951721 66.030075 534.760193
843.609985 -181.474396 1297.867798
837.574890 -544.393738 1116.739868
725.019104 -316.538177 1258.698486
610.675781 -89.278809 904.616394
819.728455 -530.550537 1121.014404
965.749573 161.624405 509.234894
1038.705078 71.680603 446.001892
1018.111877 20.098244 449.487427
881.650696 -188.280304 1250.117554
959.556458 220.822403 543.437805
801.581787 -390.690613 1192.442871
1021.293762 -74.495430 538.924622
847.204468 11.846419 863.429871
869.292542 -304.316711 1100.547607
774.037842 -531.542053 1118.588501
1016.607483 -15.592639 495.902069
957.120483 156.256393 593.043945
1043.477173 -135.514877 558.935913
642.632324 -317.274536 1258.545654
884.368408 -138.622162 1302.402954
855.578369 -130.941147 1240.322266
952.953064 175.762070 584.203979
769.371826 -395.243744 1198.522583
651.067139 -131.858704 824.048096
750.207947 -145.626617 1336.350098
750.617249 -327.463165 1136.874512
751.424072 -202.750351 1303.221680
831.289124 -252.875885 1279.230713
655.890320 -304.490356 1285.689209
846.292664 12.181014 850.052185
722.808044 -288.767822 1279.819458
981.756165 -578.196899 1057.675903
662.642151 -428.112976 1220.420532
677.027222 -351.906769 1242.972900
667.857056 -23.758993 904.443604
981.855225 85.756401 601.210815
738.464905 20.093740 879.679138
669.115234 -39.800056 878.144775
976.529907 95.748764 644.057800
822.280823 -532.749634 1122.140625
903.951477 -509.172058 1094.664063
690.407959 -353.242340 1170.644165
869.807068 -274.785004 1241.411865
643.516785 -107.063721 839.801758
767.756958 -121.907806 1322.059814
1119.005005 -127.157387 1244.161865
702.262817 -46.298313 864.444397
1068.150391 -149.268875 1222.141479
893.194092 -53.050674 835.206543
809.721802 -324.286926 679.602417
995.001953 34.155819 714.226929
934.264526 110.527809 758.425537
1020.909607 -49.068478 462.566986
714.859314 -110.125511 820.405396
821.315979 -534.841187 1141.384644
998.889099 54.492352 539.486328
644.186401 -361.797424 1245.558838
653.332336 -274.092468 801.214539
838.704590 -52.828968 1366.635010
986.321960 132.414368 509.774933
862.861084 -207.981842 748.733826
720.555481 -321.240875 1252.932617
1005.426392 -495.134460 1054.489990
780.414734 -372.121857 1180.804199
916.261780 -421.280579 1172.076782
636.277039 -204.842987 818.500122
1003.133789 11.517526 521.564331
954.553894 171.879120 553.692566
919.028931 -332.639954 1089.972046
1033.553955 -43.457634 458.384308
689.261841 -294.137939 1253.967285
964.191223 -143.779755 1250.528442
1122.859497 -161.633728 1215.335571
939.217651 -34.893585 806.229431
726.242615 -215.340164 1287.397583
970.491516 -404.298737 1133.445435
744.041016 -50.401722 830.046509
643.713867 -394.996216 1237.589233
688.019470 -38.386791 876.048035
992.717041 12.933201 592.494690
886.323364 -272.343262 733.259766
607.964539 -157.984055 847.027100
826.504395 -117.491074 1311.822998
802.367249 -404.298065 1169.518188
630.113831 -370.931885 1241.281372
767.920959 -231.578262 760.830017
1151.004028 -84.063957 1252.868774
722.182068 -293.578613 733.634888
694.829773 -84.342125 835.694885
882.231018 -172.095993 1206.655396
721.035400 -465.783478 1191.364380
850.179443 -38.357288 1357.333374
693.292053 -388.266266 1203.325195
664.009460 -392.419464 1221.189941
629.653198 -96.214523 865.055908
771.593323 -117.675636 823.948303
877.542542 -596.862061 1066.675049
757.460632 -327.435120 698.442078
1047.994507 -157.811356 1283.845459
992.593811 66.713181 597.508606
944.977600 99.238052 763.968567
929.139648 -436.557892 1160.802979
638.715515 -232.056183 808.566345
920.409424 8.467916 833.558350
811.132385 -464.421906 1161.888794
929.225891 -238.078629 1241.438354
860.109009 -291.837189 700.975708
1039.049072 -59.012333 483.365540
823.458435 -311.810364 1189.812622
1015.114807 -4.268368 604.459778
941.848755 -244.246643 1216.499878
760.343140 -342.706390 1182.136597
822.271729 -147.513657 796.271790
876.784912 -302.121704 702.894409
864.913330 -434.521149 1144.693970
668.801575 -316.077393 1283.254517
972.844788 83.140480 607.368958
1037.604004 -38.945343 427.721954
1082.724243 -164.695343 1251.809326
838.204346 -137.645752 1299.645752
681.783020 -290.492065 740.217224
952.922546 -281.093262 699.480469
954.446472 156.666885 563.710266
986.460876 170.854324 506.044342
1027.381714 -24.863651 509.427094
924.166809 -483.084106 1113.132935
998.623291 -393.496857 1108.752808
901.784302 -35.554264 814.213013
1045.216187 -61.671444 443.482452
862.314209 -437.743713 1161.760254
1002.767029 -3.884165 645.738831
727.093323 -72.862854 819.774658
823.270691 -420.639832 1184.882690
773.174133 -210.100525 1309.763428
1005.256226 96.382317 440.868408
1009.864929 23.812294 565.844299
1000.052429 -80.930168 765.197144
923.982300 -544.079102 1029.011475
1044.168335 -156.492218 559.356995
796.593201 -541.341492 1121.086060
943.533569 180.312363 645.299377
929.237854 -304.790344 1189.477173
642.802490 -107.639198 852.208313
964.227783 87.262520 704.964294
714.968811 -241.901077 1273.302979
1019.618042 96.934471 451.402527
1011.025574 0.533955 626.470520
996.745850 1.818424 583.102783
666.922424 -169.538101 788.756714
871.669922 -314.165436 1169.836548
821.638977 -357.542542 1193.979248
688.632629 -331.783112 1255.551270
787.129944 -334.662811 1217.255005
692.902893 -185.136353 770.204285
941.575745 -224.058792 701.583618
988.210022 91.295135 537.217590
1108.435425 -176.844818 1216.341553
929.716919 -273.493896 1195.944580
911.969482 -581.334961 1069.113403
1062.183350 -492.329102 1099.411865
765.130310 -213.745163 1283.409180
1142.344604 -87.685181 1256.502319
863.344177 -240.125443 1262.727905
1004.878967 -4.525657 579.688721
646.760437 -359.464661 1261.541870
997.430420 22.866486 651.738647
899.037903 -188.394440 1271.089722
1022.251526 -42.782288 540.935608
707.790344 -429.308411 1198.836670
803.044250 -375.333862 1207.925537
838.206726 -214.737473 1284.364502
1184.358887 -407.602356 1093.631592
1141.218140 -171.363693 1152.295288
962.143250 139.186142 590.784851
1104.774170 -131.705475 1255.468262
833.049744 -176.357605 1310.060303
1037.052368 -28.882616 449.764160
992.171631 62.973171 572.719238
1019.378418 -98.876892 628.791016
984.422668 192.255829 516.132690
628.166382 -247.079346 828.212341
973.688293 119.467888 590.319092
823.504822 -130.083755 1309.429932
667.183838 -267.390839 1286.413818
627.014648 -357.036011 1250.804932
924.682068 -248.844772 1248.770996
1006.217590 23.634808 525.746033
686.474854 -148.334106 826.699524
1008.687500 -16.449968 535.910767
724.535217 -300.464325 730.046875
903.486877 -314.850159 1163.566650
1021.733398 37.088547 416.579102
642.967712 -236.529907 784.337158
1133.034180 -171.748260 1216.847534
778.303345 -333.539398 595.886475
1216.223511 -82.684799 1257.959106
900.569519 -180.988403 1287.911865
1008.187256 -333.633362 1120.239136
800.234314 -118.868835 813.693726
944.425720 217.341293 601.154968
676.023621 -405.768127 1209.006348
996.468750 147.372543 501.480652
991.352112 -210.710800 736.595764
1006.161316 -5.557087 586.331970
678.927246 -126.407455 827.710266
671.496033 -205.726868 770.029663
814.201599 -505.954468 1157.669434
928.038574 -35.525459 1333.157349
861.780151 -118.423805 1206.731934
902.962463 -30.446575 820.092407
1053.238647 -345.457245 1099.405151
1092.402832 -121.584297 1250.283569
958.964539 99.780418 726.954041
1005.863281 36.296070 517.163269
965.472656 127.408012 622.425537
692.910522 -249.360291 1290.799438
979.888184 64.773705 690.712830
1134.376099 -86.059990 1231.043335
709.532104 -295.488129 747.742798
644.845276 -388.644836 1211.504028
1127.200562 -428.227844 1120.907837
918.116455 -503.533386 1106.288818
978.217529 82.319221 714.416077
922.801941 -303.629486 1195.237183
785.981323 -124.779938 782.053467
769.979004 -148.947021 782.699402
686.021912 -44.114407 845.899841
964.433838 -124.537651 777.720276
858.084534 -571.308411 1095.023560
826.061523 -304.418793 1224.219116
1009.590942 12.752732 617.285828
910.028259 -266.009979 1217.214600
763.786011 -281.796753 1263.094482
965.453613 112.642555 707.798523
786.400818 -537.070984 1129.802734
828.690430 -237.791611 1281.643799
619.055969 -90.878159 908.449341
957.079651 -156.040070 1257.621094
833.722229 -226.859161 719.934570
814.965271 -130.065811 785.972839
712.549194 -51.926430 849.173279
1042.026733 -36.873722 451.395264
861.915771 -166.511200 1296.718628
991.850952 41.891354 537.456787
642.892273 -86.469452 871.516418
1029.868774 -72.188614 523.110596
1100.656372 -161.788025 1245.723389
669.131042 -183.901337 781.163391
991.941650 61.984840 495.257202
932.800232 -266.043854 679.389465
640.416870 -178.685715 804.785278
725.900269 -487.665192 1166.172607
1011.871765 -61.295715 688.045837
1029.705322 -206.643845 1229.880371
729.311523 -205.397018 1318.866211
1005.494629 49.991165 534.283630
964.846802 126.872963 623.022705
964.165344 128.141739 664.530701
1004.165955 29.054138 607.333557
797.684631 0.168846 851.869080
661.743774 -199.621170 811.764038
809.495667 -295.543610 1248.326416
808.792236 -90.070053 1330.103271
657.523987 -222.925537 782.842468
952.855286 -194.289230 764.058289
1030.973511 -26.680811 461.206085
751.239258 -11.260486 853.536926
930.455688 -209.058884 1246.625488
612.242737 -136.096481 869.084961
843.419189 -197.568939 735.688049
759.999817 -7.922178 855.744019
1010.345886 11.333301 543.225159
882.238342 -148.141617 1269.063965
699.302429 -227.744965 1302.290283
731.263000 -286.834442 1250.001465
808.954895 -344.834747 1166.163452
982.032715 129.103912 479.104401
982.543335 93.453079 553.163513
966.123291 136.971695 724.706848
785.825073 -111.373260 1349.739502
654.206787 -125.402870 815.492859
1028.553467 -71.673302 636.801331
641.096375 -379.296204 1241.661377
732.567139 -163.901169 1321.942017
712.326233 -322.915955 731.240967
821.987122 -55.549129 1374.814819
1090.326416 -331.195435 1122.879028
1021.942505 -70.749329 632.410950
981.713928 22.679770 704.014221
864.778076 -272.637299 717.378418
972.843506 73.591141 667.977661
712.484253 -65.833138 835.618042
894.851624 -100.348015 1287.815063
813.597046 -472.288635 1157.592529
1107.578003 -136.974030 1236.713745
762.937988 -404.715027 1214.085815
995.876221 131.473419 464.742554
933.247925 145.041519 737.710999
1249.437866 -103.323471 1208.701172
703.392212 -364.667572 1215.069336
887.850098 -74.372002 1336.633423
867.527649 -302.976563 1212.635376
992.407959 116.558067 459.571136
631.396667 -247.866119 811.059387
1044.085449 -77.038666 450.165466
1021.512085 -2.933010 536.678528
979.198242 -0.662998 693.949402
815.884766 -107.050201 1314.898804
1039.842163 -151.860977 1267.230713
825.604919 -115.082428 776.960388
910.069702 -574.519470 1084.368652
618.239929 -103.705002 877.416687
1007.770508 19.538807 545.270386
695.606812 -249.966003 761.066040
782.835999 -227.111694 1285.061401
667.351135 -308.586090 1275.843262
898.159851 -156.693954 1224.336670
1289.029907 -118.501259 1228.275513
1269.768555 -30.020815 1258.358276
894.889404 -141.475906 1294.962769
934.631531 -137.100845 747.344299
973.244873 105.449455 595.227173
794.176697 -50.254639 840.863159
1015.667480 21.276409 487.693542
799.812805 -283.500275 1256.719849
669.256042 -354.284790 1237.668823
1006.080994 -191.402054 702.899780
858.799561 -289.384735 1087.805908
780.818970 -205.436356 739.507751
642.243958 -132.373917 827.133667
701.529663 2.428380 890.004028
970.244019 98.143364 668.744141
907.112793 -156.314224 760.828125
778.936768 -188.412674 1305.347290
1029.169678 4.279336 455.141571
706.088440 -50.329628 860.462708
919.117493 -141.233109 1221.732300
834.307617 -325.540741 1212.786621
759.430542 -90.442375 829.421082
949.283142 -580.881653 1014.137451
1018.401855 -2.764051 490.546051
769.656982 -439.709473 1177.963379
663.733765 -307.873932 752.046875
667.374756 -405.483856 1227.504028
969.843201 84.291588 660.552551
641.301208 -392.482941 1247.217163
720.643127 -201.051239 1307.676270
703.482483 -284.045990 1255.884155
643.785950 -329.663971 1245.457031
1003.761353 64.200798 521.237000
723.350708 -482.839874 1155.124756
636.716064 -45.142380 890.106140
760.798584 -64.743889 835.053345
1124.201294 -190.736954 1172.687012
750.568848 -277.546204 1272.957764
963.795471 158.171555 517.770508
890.972717 -55.418968 805.492065
1074.709717 -134.936813 1248.889038
760.348511 -508.070160 1150.820435
695.214050 -274.709930 759.029724
1026.813721 -46.753967 587.540039
1003.574524 -29.976419 589.187317
690.333069 -131.519974 815.793762
1047.598022 -537.650085 1057.803589
718.768860 -375.033813 1203.977905
1011.890747 33.074413 449.135742
972.560425 113.902748 543.258118
693.677124 -337.620117 1228.250854
867.901733 -471.855774 1146.519775
777.340820 -129.791245 798.661377
833.443237 -138.112732 785.772461
801.329956 -145.646545 795.160522
890.592346 -284.223724 1227.783081
993.858154 36.169575 567.346191
661.833557 -257.525665 761.946228
754.479553 -240.915268 747.307068
809.586243 -112.552956 1328.052246
641.731934 -175.936447 812.591675
766.606018 -108.309799 829.380066
1098.134277 -469.965973 1098.769775
1012.600159 -6.764303 698.578979
663.772644 -231.183365 782.321716
918.940308 -170.994614 767.260925
907.920288 -419.243469 1178.950684
827.568054 -353.342163 1191.013306
918.964478 -431.101776 1149.465942
831.167725 -100.395218 1253.964722
912.936707 -98.465004 1301.253662
1017.187683 -47.147083 621.133850
950.640747 87.596909 714.285339
607.664429 -177.917694 841.743530
938.374878 -231.342407 725.310364
641.175537 -62.361965 866.942383
1075.436523 -169.153610 1216.519653
823.553833 -109.041962 1327.197998
612.618530 -112.654587 899.208191
796.412292 -542.711182 1104.936890
889.245789 -128.520157 1314.151123
856.485291 -129.038467 1285.917358
794.055176 -323.422211 1239.493286
730.690857 -382.035706 1216.138794
944.431519 -478.963928 1088.808838
959.863342 157.265137 542.367371
987.902466 -14.886003 687.482422
1027.295288 -56.359856 521.544434
634.876587 -363.347229 1247.768066
899.024902 -503.145966 1130.837280
723.552307 -187.087280 779.177612
910.112000 -120.300575 1269.865845
784.337708 177.490494 730.891724
806.278076 -339.074097 1175.287720
753.681335 -331.196838 1232.997681
1026.560425 -57.895767 504.649719
825.206238 -252.718201 1264.288086
947.350952 169.182480 655.894775
1029.295776 -62.528351 578.690430
796.617737 -503.543396 1145.604858
710.586792 -193.929077 1320.244751
799.143372 -303.229004 1085.862915
653.812317 136.771469 756.651306
1119.929443 -127.226372 1213.534912
934.246277 -506.537476 1114.988647
978.038452 112.333633 493.372131
807.874634 -325.630310 1182.139282
806.590454 -54.843761 821.679993
717.189209 -322.373047 1141.851318
964.438538 176.905045 502.295532
649.214355 -201.799347 803.538818
749.071777 -135.740646 800.435364
858.562195 -51.293419 822.761414
1040.517822 1.449568 490.868591
805.744751 -214.879715 1287.611084
650.905151 -108.969673 836.075378
656.452759 -119.429634 817.130920
837.255981 -124.089088 1199.310181
1007.328735 -51.247990 622.686218
978.421936 -208.758926 741.219727
615.659119 -98.689278 881.709167
1013.106140 -19.736116 483.094452
920.035217 -35.242962 820.897888
734.713318 -252.257904 1294.808350
708.767517 -141.755737 789.374146
902.378601 -228.342911 1211.221558
1022.875427 -48.451164 671.313965
803.500366 -369.142120 1190.274048
669.356140 -325.968536 1257.378540
766.651550 -282.289093 740.609070
970.889648 47.961685 695.823364
1033.775391 -95.515068 585.877563
976.979065 162.799164 516.303772
766.346130 -45.377197 852.580566
664.556335 -382.801483 1224.329102
865.362915 -201.208633 759.388428
946.974976 161.306946 624.430725
1021.551147 -20.633999 448.678741
812.038574 -243.873352 1254.470337
649.454651 -384.489655 1225.661377
635.685913 -342.986420 1270.080566
656.165894 -121.903862 826.989136
1007.604675 -94.491615 641.632080
1009.887268 -3.799504 575.033997
985.911194 21.427975 721.538635
1096.010010 -115.658897 1260.919678
1009.558716 57.618774 441.361603
850.228882 -149.560089 1228.133911
1066.410767 -25.960491 404.708130
872.263489 -192.868454 743.052124
864.000427 -146.197174 789.573425
791.168640 -305.885468 1252.659302
834.920166 -167.953217 1284.648804
840.430969 -80.833931 1297.431396
975.865906 104.612541 543.914307
763.701843 -496.109314 1158.900879
624.762756 -420.386688 1215.470703
1023.215576 -73.147812 590.854797
783.578308 -222.595078 1295.305298
813.342407 -406.078430 1198.596558
971.255371 -428.123260 1102.694702
911.749390 62.172649 870.873230
997.768494 -111.617210 775.713196
628.582642 -91.103073 873.053650
603.094604 -167.214691 838.369690
1059.199219 -16.735394 406.643951
811.816162 -126.401482 1316.650879
872.315613 -117.204559 1282.671143
959.909485 -162.445953 752.744751
689.254822 -363.767639 1227.031372
905.408386 -123.503113 1260.575806
1012.307495 -11.201775 567.472351
1028.271851 -38.535137 551.187744
963.621399 -292.968964 1131.861450
745.220642 -178.285873 1322.734985
688.237305 -389.540344 1200.595215
1064.311523 -192.764343 1246.168335
957.677490 153.495987 686.533875
960.560547 -55.071777 811.684631
622.705444 -212.343506 817.748779
959.046814 -353.973419 1141.258911
725.488220 -340.764038 723.861938
1008.971497 4.475972 495.889893
665.454712 -127.400574 810.913330
897.599243 -538.982117 1086.558594
1014.351563 -62.111462 575.152344
1172.226807 -109.230293 1199.996216
690.824829 -63.657215 850.531616
1023.804993 -40.880527 473.375610
984.648865 -133.778534 758.498108
930.216919 -75.985085 777.783020
889.069153 -290.529938 1238.709106
1032.802246 -106.430763 520.644348
1043.788208 -61.315647 418.750061
699.409302 -381.696594 1195.964600
869.997925 -560.849609 1076.934570
999.764404 -65.960373 667.041321
994.826721 159.192535 471.130798
970.135559 131.482910 620.704468
846.921753 -120.589149 1302.815063
906.344849 -486.319672 1144.719238
740.195740 -96.558426 818.825134
763.919556 -337.465424 1246.903320
931.003723 -85.627441 804.825623
649.701355 -42.841522 886.944641
750.001282 -137.359406 779.147949
1024.080566 -32.961178 502.005219
726.540710 -28.297777 849.262024
809.627930 -520.296814 1145.937012
734.389343 -488.539520 1182.532349
1038.632690 15.353762 422.496643
836.968445 -448.004730 1191.300049
670.958252 -363.854492 1222.522949
1020.825439 -47.254299 562.090454
836.995117 -129.937241 1291.408325
1083.410889 -119.425255 1264.187256
976.561401 205.718994 528.100281
859.303162 -295.517944 699.306213
664.366577 -454.585785 1182.597534
704.262878 -260.955719 748.791382
680.264771 -48.566730 847.310303
909.610657 -292.032440 1230.008423
750.247742 -324.454712 717.030945
926.771729 -73.597473 784.116150
1174.651489 -408.726318 1125.361694
904.030945 -104.634964 1314.275146
955.853149 132.728607 743.718323
1027.888916 -13.548012 420.472931
742.125366 -231.002731 750.637512
618.270142 -387.094147 1238.194092
690.968445 -296.645447 1269.341919
973.961914 137.983627 505.621887
1015.023132 69.099678 466.278015
979.178650 87.814087 561.668884
820.320190 -175.453278 765.356873
845.729614 -315.097961 1237.119019
730.020264 -111.313683 800.290344
962.031250 -431.148346 1123.360352
919.790161 -90.128685 787.890442
826.345459 -107.458511 1327.400879
788.369507 -446.947601 1176.437012
678.482727 -265.815491 762.359009
721.228027 -191.071960 1311.209839
1030.850952 -78.650917 505.747772
695.033081 -22.866848 853.835205
702.276733 -100.488213 826.406006
1004.327759 48.540283 480.363068
918.161011 -166.919708 765.677368
733.647888 -119.215454 807.391602
783.049805 -151.475006 1328.581177
702.856689 -170.404327 812.294922
680.033081 -248.201385 768.395752
974.641052 85.877937 661.738342
645.248596 133.940063 787.034058
651.418213 -242.664795 777.143860
945.894714 171.463486 611.396179
659.720276 -357.963898 1249.117554
1219.587891 -54.846985 1269.750732
934.135193 -449.296204 1124.175903
629.094238 -195.486969 825.215149
1156.446533 -155.724319 1161.654785
798.951599 -138.749619 786.869507
893.852600 -359.000610 1177.262329
889.518433 -266.108917 1239.062256
885.623596 -169.230179 1279.260742
818.123413 -497.027893 1126.918823
656.965698 -25.610134 881.400146
830.276611 -67.212982 799.931091
660.621765 -432.368866 1224.775635
1031.667114 15.279488 503.127319
716.904297 -473.699249 1185.867065
1034.913452 -91.384277 489.327881
892.526306 -289.876678 706.855469
1062.407349 -224.446106 1245.209961
880.797424 -542.855286 1100.426147
632.417297 -171.194305 807.122864
832.432007 -533.818359 1121.500610
804.363403 -100.792534 1322.712158
910.630676 -289.883301 688.895447
816.405945 -495.980103 1140.850952
631.705688 -402.054932 1221.789307
969.028931 203.546783 518.493408
1021.824524 -43.966644 584.225342
738.011353 -192.641571 769.142944
864.025635 -275.538635 685.608154
653.725769 -450.300720 1182.898193
684.353577 -302.238342 767.044922
880.718750 -269.686523 1231.579224
913.893738 -297.938538 1221.671997
707.399902 -264.939240 740.576416
811.917908 -304.632507 1159.557739
1019.442871 -34.820244 655.949768
758.586487 -173.386703 788.437256
653.902832 -387.296844 1238.712769
860.050781 -200.550735 752.481262
1015.683472 17.306435 475.326080
970.964600 162.715134 553.642273
910.952454 -171.279175 753.073853
991.334351 47.752022 562.578613
740.618958 -57.515636 838.932922
813.762512 -149.691345 1314.744385
878.761353 -185.554031 735.183838
876.332825 -533.942200 1112.032593
651.709778 -71.379761 854.035217
782.327637 -316.967255 704.574524
783.297546 -253.373322 1288.249268
1007.385498 134.222992 446.652588
703.948486 -137.067154 802.935486
797.909241 -116.400375 794.604553
777.036194 63.501354 874.436829
651.076050 -88.766174 846.362122
969.005127 214.379898 541.132263
756.657471 -356.815277 1170.232788
601.912048 -126.172241 848.524170
928.284607 -161.264832 1216.665283
1145.176758 -417.280823 1124.081055
818.161987 -117.173248 787.774170
875.086487 -494.653473 1115.302002
855.467712 -76.230240 803.513306
659.420532 -275.185394 760.396667
927.501587 -480.643066 1103.190796
1070.819336 -142.315689 1273.537842
975.087708 122.775475 547.300720
795.511963 -246.882339 1058.823853
814.200012 22.178879 844.362061
790.849060 -239.878815 1267.737671
930.974365 -526.691895 1058.377930
804.479980 -38.005524 831.793518
877.173523 -437.089600 1162.692017
903.446777 -469.220947 1086.601807
897.975464 -219.314743 1237.525024
990.769104 -124.582100 758.776917
628.193787 -118.968712 845.145935
707.189575 -427.593353 1210.128662
883.854126 -530.826965 1114.582397
833.265991 -349.601654 1137.955444
766.260925 -118.971672 1346.392578
791.158081 -306.347168 1247.378662
636.010986 -138.555588 837.946228
1004.757568 -10.415511 596.237854
609.716614 -53.439770 893.985596
680.280884 -307.336548 742.543152
1044.920898 48.164780 406.729614
950.682617 181.182755 641.927673
949.517273 -600.704895 1037.531494
614.700378 -392.150024 1236.053223
1006.789917 7.463659 568.221252
747.782104 -124.426910 803.879456
856.627747 -67.791344 834.005554
934.046692 -26.037952 812.322205
1074.527588 -241.540253 1209.879639
1003.905579 13.442245 722.327637
885.769653 -294.111084 701.489685
638.680725 -373.231323 1224.358032
1005.058777 -107.018211 644.940063
1019.847961 4.333197 453.778442
720.228027 -237.276367 752.789185
1071.938965 -512.129028 1065.747437
933.682251 -232.894409 1236.967407
1030.951782 -70.728645 489.401886
956.633240 212.818939 539.383057
653.999878 -427.355957 1211.549683
926.784119 -427.456604 1131.718262
866.845093 -74.378273 1341.986572
918.804443 -206.147812 1250.636108
837.990540 -87.780449 804.125427
946.984375 -415.869232 1148.138062
992.627136 87.276611 515.489197
952.564331 -189.536896 752.466370
1012.102539 -3.680956 610.117920
898.429382 -262.239990 1240.254761
796.259766 -47.071369 837.167480
858.864136 -76.677704 1326.906616
610.289795 -96.449699 875.896301
872.236572 -321.061279 1183.427979
1000.641357 2.366903 555.925293
775.363281 -50.772003 823.495605
626.735779 -390.415131 1220.394775
1043.420898 -134.261627 580.818054
848.705872 -437.999847 1164.733887
955.884949 -227.425400 746.567749
1028.234375 -33.034546 508.113495
830.571472 -279.040314 1265.611084
1030.153442 -22.513147 419.456085
924.947876 -495.752747 1099.694092
711.373779 -411.357117 1198.433716
653.611877 -425.940887 1223.183594
793.478882 -489.883911 1148.657227
859.898193 -95.831154 1268.305664
715.169800 -295.094055 754.578674
775.723938 -30.302498 849.332642
843.673950 -47.116726 1354.484619
963.734314 109.582512 769.855347
793.680786 -490.745605 1133.428589
732.149109 -140.433929 809.205627
1020.007690 35.466354 423.425415
1010.901672 -14.336926 711.865234
1029.334839 -52.727688 476.789490
674.852478 -19.112803 890.377075
855.600586 -208.966125 1283.432129
847.520264 -197.910629 1268.699463
837.144287 -293.243469 1047.145752
1045.448730 -141.760849 1258.014893
620.711121 -159.965561 840.568604
983.164001 34.073498 617.452454
735.124390 -376.502319 1191.754639
976.500732 -49.602924 812.564209
783.878540 -54.605049 820.135986
806.591980 -248.149200 1004.753113
649.007690 -264.611084 771.084290
658.880798 -455.691101 1214.049194
879.453064 -208.642136 1260.359741
665.549072 -321.626953 1262.727417
897.238647 -417.227631 1182.678833
809.674133 -94.981651 799.191467
984.140808 61.100403 579.763855
1085.154541 -211.993256 1218.808960
781.618469 -294.819183 1119.891846
963.084839 89.264023 634.806091
637.167542 -125.917648 849.346619
920.823853 -472.150360 1127.217896
788.023132 -293.835175 1244.786133
846.262085 -513.145813 1130.738403
1178.309204 -112.893631 1187.534424
748.675537 -328.072174 1244.534668
1019.522156 -23.977787 451.975189
711.169861 -186.782364 782.033997
877.121155 -142.860428 1287.737183
616.843567 -203.897018 836.288208
727.659668 -243.380005 1295.511597
882.401550 -45.347023 1328.260010
664.399414 -328.668457 1264.431152
1091.852295 -164.542084 1246.402466
653.646667 -128.211548 843.870605
776.918213 -139.445816 1311.162720
666.698486 -480.568634 1165.430176
1041.682983 -112.048576 528.553406
1011.449341 -8.798696 607.304260
698.358765 -311.117126 1267.214478
655.081177 -268.117249 777.358093
637.293640 -101.046646 873.724304
903.218933 -243.583496 1247.997314
665.064270 -97.029205 836.599487
709.495789 -218.024307 758.573425
1014.517151 -0.762647 442.864655
705.693665 -190.103058 1303.544312
836.110718 -94.068359 813.930115
985.721130 25.751333 653.448730
860.396545 -98.727486 818.911316
1028.753540 -4.121810 413.904602
959.943909 185.237793 554.743835
979.740784 30.775280 707.754822
639.689331 -199.821533 831.807190
882.312744 -536.589966 1079.026733
881.937195 -477.233368 1141.371582
856.222656 -233.001801 732.030884
1091.751099 -404.748047 1075.161499
994.357910 -157.924347 755.941772
973.638184 -446.325165 1096.104004
898.178162 -78.053383 1318.090576
982.864258 53.488213 696.712463
985.009460 75.689056 620.477417
968.070129 110.514778 627.499207
950.283325 153.937256 617.971924
831.762146 -233.534241 747.528931
721.860046 -145.021576 795.151245
633.695984 -199.081604 831.364319
1042.263184 -29.035404 395.294586
984.022644 97.047920 539.032898
622.349426 -403.964081 1216.293457
686.784546 -274.979248 1292.008911
994.807922 92.814262 487.999542
689.306213 -312.421539 747.263062
644.254761 -60.657646 878.917664
954.056519 112.240669 646.729248
968.122253 117.485405 628.670593
1080.052124 -231.036331 1196.519165
782.318970 -141.572617 774.865601
706.539795 -337.964874 1253.563843
941.936096 -131.668549 1261.007813
897.469604 -434.205994 1136.583496
974.610229 -125.520699 762.916321
1019.874084 -30.094503 488.178528
794.365051 -500.337219 1130.381714
809.281067 -85.870171 797.447266
765.185486 -354.533142 1179.819824
828.130920 -108.842575 1318.484863
1013.121216 -163.285324 1237.604614
997.224243 31.344639 592.404358
871.236389 -469.125366 1165.793823
754.158936 -252.284409 725.879517
653.975586 -462.496368 1190.902954
820.710815 -153.451004 780.074219
648.058228 -64.833572 863.327393
809.970581 -81.349632 1358.779785
966.174438 150.716599 565.109741
752.837463 -170.743439 1333.161255
655.082642 -265.205048 782.060059
691.718628 -10.122548 885.507690
867.889709 -181.591522 1273.417480
957.153320 122.587547 694.410645
793.301270 -178.932877 1305.958374
692.735962 -137.729248 806.883972
986.513367 84.255714 578.072021
833.269653 -228.369141 735.268921
1029.880127 -139.143356 1258.910522
845.778687 -74.936638 1347.960449
741.349731 -131.527786 804.158081
662.690796 -110.128922 843.305176
827.212708 -421.487091 1182.759399
835.835083 -295.719727 692.647156
713.093750 -232.501984 751.986877
801.749756 -136.116760 1335.232056
1016.297852 17.431715 487.072754
776.654907 -127.147293 818.479553
926.516418 -59.454205 816.668152
1038.619995 -54.693485 440.017181
808.556396 -183.255234 757.338806
688.506714 -158.908524 786.381592
635.118530 -208.667465 814.641663
899.013733 -572.755127 1063.569458
828.886475 -413.484741 1185.957031
648.412964 -303.379913 1273.508911
866.132141 -296.150452 1234.993774
862.123535 -132.963364 1307.000854
815.699402 -23.782858 853.936890
781.822876 -184.476898 750.057922
1156.039551 -457.824127 1074.926270
1033.217651 -260.467499 1190.211426
974.950806 79.734703 704.084717
993.338501 131.729141 442.748322
764.249573 -179.293228 795.954834
602.942078 -191.950226 850.745789
684.170837 -340.764862 1252.157593
1025.063843 -98.176788 607.860657
938.362061 -464.896118 1109.291626
723.690247 -122.372932 825.369873
857.457703 -107.753029 1288.593750
1232.197754 -189.294022 1189.018066
811.354614 -354.284088 1186.249146
940.436340 -225.941330 1236.500366
811.607300 -308.386169 686.075989
914.099182 -197.754807 1253.720581
870.094299 -260.071320 1138.422485
891.476379 -517.261658 1098.118652
1023.043701 -22.805746 605.852722
763.458740 -498.837036 1137.672852
852.162170 -107.244209 1288.534546
679.153503 94.676781 761.534607
885.199707 12.947875 847.917419
1006.710022 -26.345144 560.442383
804.707642 -75.702110 1362.196411
942.824402 185.555725 599.195679
1025.662354 -25.424065 697.143494
886.679688 -200.426453 1250.874756
951.847534 -74.262970 1308.356079
884.745178 -197.709930 744.633545
841.267456 -32.157314 822.959167
770.685791 -65.536034 812.846191
694.260437 -72.158493 845.367004
755.105164 -258.000183 1277.742676
1128.324463 -408.515503 1135.207153
868.549377 -151.164459 1223.454590
1086.795044 -130.163422 1235.320313
948.575684 -4.033713 825.205872
788.542114 -180.824310 1306.868286
1004.214111 22.095579 630.784668
978.010620 139.474182 487.637695
887.446533 -182.250626 751.246338
1288.535767 -51.718086 1257.119873
789.630249 -196.428772 1300.006348
962.354492 111.571907 734.154724
632.768005 -268.276672 790.233337
800.038635 -258.569641 1275.936401
1206.813965 -66.705116 1278.640991
778.219421 -15.742044 847.082153
734.052124 -186.526077 1329.192627
768.185913 -54.404354 838.541321
883.410645 -349.670227 1189.306885
1004.200562 33.633591 591.862488
1114.808716 -117.188782 1243.722168
629.429321 -110.274300 848.822388
950.864990 160.860535 628.569641
891.637512 -27.372992 819.712341
625.316345 -81.782623 879.358521
963.540161 127.715652 567.612488
1015.572815 -94.885788 640.541626
672.632263 -204.610275 784.633057
963.731079 119.871269 612.080200
956.778564 188.139160 555.759521
763.264954 -176.588684 771.582336
863.585754 7.176273 858.749207
1015.054504 -12.809357 576.438293
712.188538 -136.621735 791.136108
963.058533 151.830582 564.187134
844.617737 -494.576324 1137.258179
615.088562 -387.622284 1225.556030
933.922607 -46.365818 821.163635
683.208923 -198.281128 782.091553
968.426819 96.597679 701.490723
1000.635010 64.315239 475.415955
769.070740 26.491550 871.429382
672.936523 -146.547287 802.043213
838.831726 -409.101685 1196.917358
729.298401 -50.349586 864.161194
864.277283 -173.281097 1277.514893
1136.723022 -435.222595 1136.029785
937.162598 -296.284302 1070.669067
936.767700 -38.852688 815.872803
701.283875 -414.825653 1201.488892
780.409546 -239.134277 1296.994385
779.300354 -330.750275 1226.235840
973.770447 61.060081 658.289978
754.495422 -394.006653 1173.819824
748.124390 -329.829407 1207.894531
723.246399 46.081600 895.401917
937.881836 -293.964966 1155.890869
943.389771 -494.277222 1108.027222
919.326477 -290.474823 1219.864746
799.874573 -252.995468 1271.598633
1031.690674 -7.546588 539.895813
908.185120 -568.646851 1039.949097
737.622131 -166.163452 1308.963745
721.278809 -326.104340 721.848450
939.730408 -260.181000 1227.136963
1023.866150 -86.491653 543.773254
648.992737 -398.488342 1225.142578
832.128601 -167.799759 1313.218384
961.255310 -359.891541 1188.108765
820.156555 -37.085819 1352.742188
1098.188232 -434.429596 1114.431030
967.604797 104.819695 625.444885
1025.217041 -38.934803 568.327515
895.888672 -53.617428 1345.675537
821.674988 -38.030972 1353.241943
1028.234619 -63.910027 596.578796
849.234558 -189.428421 745.765137
758.978699 -332.710297 694.081848
1069.530396 -72.424690 432.778137
801.528198 -27.142942 855.025269
783.253662 58.949764 873.698425
974.195740 -139.726028 756.327026
799.059509 -189.073196 747.912842
1005.172729 11.710321 594.344482
849.463440 -272.669312 1233.610840
720.698914 -49.906498 843.319092
817.504517 -299.858215 501.022888
639.755981 -301.012878 760.248535
1028.581909 -31.947508 513.170715
835.180786 -272.299316 716.350647
1161.285034 -83.853645 1247.786499
798.740173 -441.131989 1172.634033
1170.474731 -103.829109 1255.556030
909.497437 -95.701454 775.852112
954.247559 139.961807 625.053711
995.191772 1.106227 692.861694
876.216248 -474.867188 1125.325439
705.377991 25.485249 879.817627
638.071960 -78.401726 862.371399
676.436951 -190.129868 783.868591
841.134460 -231.284546 1284.453735
740.138916 -46.536129 828.575928
748.383545 -297.825439 1269.390625
884.508850 -258.439087 1261.370239
974.799988 65.064377 689.375244
923.248779 -592.059875 1083.018677
986.146423 -478.184357 1085.662964
964.073975 56.929527 699.231201
995.070435 121.488922 488.778656
989.494263 95.554367 516.385864
949.474121 153.403656 650.728027
960.219543 -458.241760 1087.364624
1031.073853 -34.793663 490.109009
966.705750 109.361961 658.876831
1012.403259 36.154568 510.035126
683.421021 -9.831463 889.174561
981.294922 43.666183 608.218628
1006.848328 7.867188 552.934204
839.623047 -344.198914 1198.826538
824.168579 -571.901855 1086.429443
857.279053 -531.554260 1098.418091
626.661499 -169.863556 824.830017
718.687561 -452.568115 1186.948975
1036.772095 -134.821701 1266.621460
790.052979 -472.695190 1158.454346
768.812195 -288.979736 1093.835205
699.085083 -334.864868 1200.451294
785.050537 -407.687836 1197.092651
976.491516 55.756756 716.207581
677.292969 -428.687378 1189.901001
1052.214233 -248.582626 1239.900146
1007.659180 35.664459 547.542175
868.291504 -77.368256 1347.206909
1010.524109 -2.645929 641.163147
872.467224 -44.893761 1299.395142
1001.661011 -32.027908 682.912476
756.168945 -155.467712 1336.438232
634.669312 -387.459595 1234.426392
783.380249 -328.413391 689.582825
1002.812622 7.586977 613.643311
961.744141 55.518658 724.506104
637.000671 -344.047211 1256.313354
942.901245 178.796219 632.468140
675.220581 -1.111836 881.817078
824.413818 -16.908051 825.900696
990.314636 49.057194 636.420715
789.095825 -522.707092 1137.311157
679.561401 -41.408085 872.587402
662.444214 -279.504517 781.020630
994.878113 43.540470 578.615784
1069.171143 -147.703247 1252.580688
696.978455 -444.037079 1205.954346
874.356995 -220.597733 1275.009766
818.864319 -88.074097 1354.237305
615.287048 -158.413559 836.965942
728.947571 -432.748627 1189.519531
690.483704 -310.976807 1281.569336
976.278870 103.032089 548.619263
787.043762 -161.630173 772.005737
934.950806 -521.209839 1073.827637
1004.564758 -30.538786 601.679932
1265.442017 -91.339966 1245.799438
857.361877 -229.448914 734.796326
610.069885 -71.909149 896.006348
917.660461 -82.869705 1288.723389
845.553040 -153.857910 1294.617188
690.703857 -268.406647 1282.843872
1043.508301 -62.232365 465.843506
690.351074 -291.977661 1258.234009
841.479309 -44.653690 835.915894
804.089783 -176.879471 790.947021
825.551575 -95.429161 1273.027222
829.752625 -185.362991 1276.977051
710.288025 -247.216461 776.598999
717.995544 -165.931976 801.221069
701.980652 -460.993073 1197.345581
819.047180 -307.712738 1251.344116
646.976563 108.218445 794.936707
1047.502808 -78.216576 448.377014
809.377869 -332.366394 1214.105469
606.576355 -85.447227 887.903687
966.856995 31.111788 733.259216
840.469177 -512.590088 1127.185547
789.707092 -132.123276 1323.987793
933.955566 -477.550232 1091.462036
894.684509 -413.846161 1143.579346
1179.313232 -89.560799 1270.449829
878.112183 -96.316956 1317.211548
736.546082 -417.075134 1197.256836
765.350830 -121.671288 787.500427
657.659119 -254.086838 782.995422
953.881653 -522.870178 1069.657593
1002.724792 15.276137 648.270081
967.568298 -395.350037 1114.297241
1285.755859 -69.444664 1248.506470
970.321350 164.565659 484.573090
1040.879272 -105.583107 547.669678
984.236084 -158.750656 749.412415
740.207581 -490.973419 1144.174194
1012.648804 3.747337 493.981476
1033.547974 -127.533943 559.189392
856.648621 -268.496490 1233.842651
1017.644287 -57.144630 573.031189
751.742126 -379.442902 1190.895508
984.491760 129.375549 552.930969
740.981018 -195.189789 1321.694458
1001.848694 29.017225 557.664246
1001.743286 -59.418732 793.857422
994.249756 -34.825428 688.049866
631.927673 -192.907898 817.360291
972.728333 97.676872 574.170166
1026.896729 -99.038811 560.031128
961.323730 -246.315796 1200.341553
1035.820557 -39.432686 410.747101
786.676636 -431.711487 1181.164551
