ply
format ascii 1.0
element vertex 1352
property float x
property float y
property float z
end_header
-377.575500 -408.282013 971.556458
-770.869812 -469.456238 592.052795
-1131.240234 -783.108215 581.721619
-807.674072 -444.050598 620.927002
-741.014893 -502.543915 600.499268
-1116.652466 -787.421936 991.187134
-376.029602 -530.958191 911.380371
-1214.664063 -643.249390 850.153442
-1161.634521 -655.201172 771.227295
-1080.726807 -773.287415 490.927124
-1233.392700 -635.813477 719.382813
-1040.678589 -926.910156 721.579834
-463.216370 -563.183105 917.595215
-590.753906 -710.375793 631.287109
-685.194824 -602.724182 802.445190
-412.629578 -547.609741 921.159607
-565.582092 -432.340454 937.964233
-469.408813 -446.680969 948.281067
-334.191559 -511.572083 918.305603
-927.663574 -831.454285 753.298096
-1176.480835 -729.979004 543.375671
-337.090698 -565.570007 915.735168
-740.232178 -488.169342 871.893066
-767.944092 -441.527252 682.196533
-700.782410 -560.512085 529.595276
-1180.754150 -672.073425 541.363647
-738.663635 -502.820496 748.720032
-660.278503 -634.153564 818.344421
-608.556091 -685.080566 647.206604
-695.802368 -670.691650 476.946716
-986.568359 -972.348694 603.848022
-991.591614 -842.442871 948.607056
-405.881042 -683.361938 867.380554
-1223.745239 -630.348083 703.666687
-602.685181 -719.645569 700.016907
-1211.424805 -652.091919 680.674011
-761.583496 -456.153900 643.992004
-375.879333 -379.447815 959.040894
-427.195526 -688.798950 868.100220
-547.876404 -440.660919 926.365845
-936.034302 -1051.497437 578.156555
-760.200012 -428.128937 799.971680
-1157.821167 -681.523010 761.561707
-606.072510 -713.286865 741.555603
-1119.177490 -770.914368 493.858856
-787.689087 -450.912170 607.618103
-619.003723 -666.034485 551.871765
-732.122070 -532.726440 712.106689
-678.249023 -598.523804 731.719482
-1118.283447 -801.460449 426.314819
-578.717163 -384.137024 937.178894
-558.602417 -758.982300 643.104370
-638.694519 -643.759277 789.387451
-1158.011475 -711.088684 764.361267
-946.336609 -999.970337 599.650024
-967.814636 -1025.803101 572.739746
-1196.826172 -651.657837 653.819763
-694.428711 -550.270569 740.768311
-398.903259 -448.092773 948.620117
-938.516663 -1044.744873 856.572815
-649.230103 -658.857239 765.635498
-1188.942383 -701.052002 723.468323
-1084.109985 -752.302002 490.195007
-696.585876 -550.931396 628.285828
-744.312439 -518.896362 506.133453
-1072.128662 -862.621216 487.474945
-737.689758 -502.346527 684.354980
-1116.052368 -743.924561 831.320190
-355.317047 -570.774292 910.851807
-1210.885986 -653.432495 710.407349
-695.650269 -610.908630 656.939697
-1009.795471 -983.564270 598.589661
-1010.571960 -956.148499 562.019287
-772.830811 -509.940948 522.298401
-648.016968 -649.951782 604.614319
-675.532043 -587.403870 749.887268
-928.913635 -1016.200378 616.980896
-936.212891 -1051.804565 606.861572
-701.787048 -656.191467 474.387329
-766.816284 -453.006256 717.603821
-669.560120 -615.476685 790.794678
-649.805542 -638.053406 606.239807
-410.589081 -489.801727 920.239258
-752.460449 -477.407410 598.822815
-434.064545 -367.265472 963.456787
-719.581604 -531.260681 697.870544
-942.754700 -914.481506 695.017334
-433.660767 -356.893585 982.393066
-670.893921 -610.217468 661.314758
-1220.604736 -638.183044 655.946167
-437.015991 -374.364105 947.502502
-1196.467529 -698.184326 564.834961
-1110.766357 -753.816650 540.065735
-606.220459 -719.986267 570.409363
-1177.943604 -728.991394 637.594910
-601.745178 -436.110504 947.500610
-284.876953 -553.264160 917.817200
-349.392395 -530.740479 927.668213
-1139.248291 -780.800720 724.400940
-410.994537 -675.612305 879.955505
-633.779663 -282.787628 726.783936
-1167.737427 -721.331421 577.206055
-1070.777954 -852.304871 901.837585
-724.488770 -572.274475 539.448425
-520.544556 -528.246887 917.454712
-959.053162 -1010.843506 646.951660
-973.406860 -734.343384 582.781860
-1224.201050 -624.786804 762.035461
-492.073517 -465.986359 935.494568
-373.624969 -589.729980 895.121155
-959.941772 -1014.073669 542.684265
-514.250305 -550.991577 912.722900
-1168.986206 -720.262207 665.325317
-323.050873 -570.864014 918.699158
-1222.930786 -635.043640 657.769836
-350.155945 -410.812408 955.246399
-1184.488281 -684.959351 829.188416
-1128.574219 -671.063232 774.917542
-642.973206 -650.768677 613.153076
-791.981140 -476.476440 572.632385
-1121.373413 -786.728333 422.077728
-1223.734131 -648.286499 669.693542
-357.868561 -486.377747 932.532532
-1171.879395 -714.440002 597.187988
-917.184875 -1033.428467 571.280945
-561.671631 -541.382385 904.129578
-698.350342 -632.991882 478.685669
-416.402924 -400.150482 948.427063
-518.425720 -651.379089 893.729370
-935.256714 -917.546692 872.808960
-384.610352 -409.747925 947.750488
-984.833130 -985.843384 630.794373
-331.249847 -545.098572 921.249634
-1095.859497 -729.003662 791.518494
-426.937378 -551.708862 919.909668
-629.575989 -717.091858 579.854980
-816.406799 -442.700195 643.815125
-673.509827 -611.429199 816.754456
-415.512390 -417.357056 950.953247
-668.152222 -597.556885 607.353577
-801.744324 -426.964844 680.959656
-579.002502 -494.896820 931.989929
-411.873871 -516.907654 922.438782
-387.517303 -601.119446 900.624023
-748.046448 -500.483521 682.524475
-435.742706 -615.161682 897.107727
-1165.841064 -751.461426 630.736694
-469.496155 -400.520264 947.178162
-350.554016 -628.466248 884.368835
-335.613892 -539.746704 924.413757
-692.325134 -624.023682 817.608093
-484.513947 -499.970123 925.379456
-698.628479 -598.760498 724.847412
-1211.987915 -671.434082 694.349915
-468.666412 -415.853302 945.924255
-490.064240 -670.071655 875.350220
-364.102448 -613.997437 890.357910
-1021.126892 -919.154785 624.318481
-1255.063965 -600.295105 747.693298
-985.035767 -988.889282 526.550842
-632.472778 -662.810730 515.031860
-420.027832 -555.830322 909.409241
-1127.582031 -770.977844 748.837280
-585.390808 -759.406372 761.717285
-1196.971802 -652.351135 784.343384
-729.773132 -496.659027 682.653137
-1120.491821 -770.843750 430.438629
-1061.905640 -854.027283 408.375061
-385.747040 -490.217834 946.924255
-655.732727 -679.622803 981.647827
-736.218201 -505.299683 637.160706
-626.115173 -683.581604 817.617615
-1064.893433 -872.914673 445.056641
-793.043823 -417.220642 673.401428
-1121.085327 -782.513611 747.578003
-518.905640 -461.739258 930.120789
-949.890198 -983.449890 839.063599
-377.160645 -407.955475 947.004883
-1074.989380 -780.924255 1030.739258
-1164.096436 -693.044678 748.114502
-486.991974 -495.709686 927.939270
-605.182922 -766.386780 732.330750
-683.892700 -601.481689 540.306580
-401.501068 -431.339935 942.811523
-1163.402466 -741.922424 442.789978
-500.382721 -516.484802 927.033630
-601.532654 -498.261353 919.873718
-369.646851 -475.799347 925.535522
-722.157288 -540.652893 647.993835
-1043.719238 -902.868225 660.697998
-541.904297 -494.988647 927.892395
-700.159790 -602.186890 627.675903
-1074.091919 -829.753418 950.195129
-1015.315674 -923.097290 508.144318
-634.998413 -646.119446 789.323242
-740.772034 -520.976807 741.043518
-603.592407 -716.013000 674.786560
-649.602600 -639.376038 534.980774
-516.161499 -543.377930 917.149719
-767.416382 -486.266754 560.858948
-485.537842 -651.749512 879.104065
-1205.607056 -633.023010 668.843445
-560.000610 -756.993652 760.418457
-960.707275 -818.750916 744.374573
-453.236053 -452.088562 932.624512
-1197.965576 -647.541016 836.663025
-753.464661 -502.599884 606.648621
-623.856750 -685.871033 621.494324
-1166.359009 -736.063049 521.597717
-1148.142822 -744.625977 566.010376
-1202.137817 -690.353882 685.469971
-446.401154 -429.470154 934.421692
-1026.893066 -928.288452 490.307465
-777.867188 -434.219574 671.211670
-674.393860 -600.816772 615.545593
-468.425293 -465.332123 931.501770
-1092.411865 -779.988220 684.183472
-949.250244 -1033.219360 609.241577
-479.934906 -621.623596 893.806213
-464.850769 -690.517212 869.409607
-691.759888 -582.028503 551.258423
-925.574524 -1062.985596 574.472046
-1153.281860 -745.546875 496.076355
-778.882813 -507.409515 546.615601
-619.950195 -717.054871 499.838013
-636.728821 -662.545349 554.117737
-974.573425 -1017.376892 564.176880
-1145.045288 -764.834229 655.297791
-1248.087036 -568.063599 817.355652
-1031.229614 -879.478638 601.550903
-491.145508 -598.475769 899.981628
-627.763062 -276.059479 808.748474
-1143.386475 -729.584106 697.045410
-1036.748047 -786.445068 805.457214
-1075.759399 -789.707764 587.665161
-927.632263 -973.844299 615.604126
-341.235687 -553.723022 912.274109
-587.274170 -713.435059 662.724609
-683.447144 -600.569092 530.329529
-740.250061 -538.934143 663.374512
-465.206970 -411.484222 944.391663
-773.628174 -543.484375 514.101624
-1213.008301 -651.331177 746.060425
-1228.495972 -620.387878 691.690918
-776.726807 -452.866058 612.726990
-1057.159912 -847.882507 648.292603
-558.518005 -497.819336 915.168518
-689.257751 -573.695557 698.438049
-502.603485 -642.146179 877.181824
-1076.703491 -786.902527 631.005554
-742.862732 -401.616730 720.428772
-1064.172607 -855.157349 483.886200
-1155.105591 -712.724365 697.074036
-921.086975 -1020.973267 603.837524
-633.679932 -655.515381 651.656250
-953.157959 -809.823486 764.009644
-575.513794 -454.841553 938.983521
-1158.857666 -736.122864 475.626709
-909.165955 -1042.451904 872.095825
-583.100830 -564.136108 905.226807
-736.852844 -530.679626 531.172363
-1096.103027 -814.715027 1122.418457
-1136.302979 -774.342346 661.663025
-1160.348755 -704.736938 486.215179
-435.110138 -527.952820 916.415222
-360.784393 -531.158936 920.768555
-649.184387 -653.055603 839.146484
-1102.508789 -772.966187 1116.130859
-1093.910889 -811.185852 609.230896
-707.239807 -556.024780 536.318970
-411.427551 -401.263977 956.378845
-1075.015869 -855.381897 485.237701
-445.177338 -614.019592 906.810547
-808.437744 -428.424347 791.836792
-500.445801 -430.279083 948.449524
-636.722717 -636.818848 563.644287
-328.943848 -568.870667 905.935608
-1020.519226 -945.400146 486.252380
-560.465942 -563.361145 914.799011
-1078.224243 -851.245300 433.630554
-753.992920 -478.828094 663.809387
-370.203461 -605.113220 900.898865
-1199.051270 -639.877625 716.354431
-573.109497 -765.325562 731.313232
-1093.492554 -823.600952 680.515015
-506.165802 -525.381104 926.025146
-660.140503 -609.234131 716.858459
-428.214722 -632.049561 887.367798
-524.651917 -525.486816 921.449951
-693.169800 -582.100220 852.367493
-775.123901 -459.313904 599.945618
-723.482239 -512.734680 829.536560
-412.728058 -353.775757 974.035217
-629.291748 -687.852417 754.704834
-441.780487 -419.584991 942.475708
-800.311951 -435.584351 663.637817
-1139.776489 -772.505920 724.340942
-587.915894 -738.919556 760.295227
-1127.498291 -744.051514 860.854004
-1085.177734 -841.828186 457.044556
-504.848663 -388.652802 949.005371
-1018.711670 -850.670654 702.742004
-757.031982 -498.740540 566.274475
-956.973572 -1010.906616 537.389038
-756.688354 -491.304840 548.455139
-579.279785 -456.714020 933.487305
-1168.826782 -702.157104 528.939087
-562.040039 -752.344604 795.298584
-502.651794 -384.906647 952.253601
-677.660889 -619.205261 475.011749
-804.900208 -460.228729 603.881958
-1089.729980 -779.731018 758.908752
-308.881042 -542.815125 938.271912
-644.573181 -667.488281 779.654785
-485.408813 -703.971619 870.008911
-519.824158 -625.511353 885.565308
-1086.322021 -798.690369 1092.871216
-623.806702 -451.004395 920.414429
-532.786499 -642.757202 898.475708
-1097.177124 -800.142029 564.777344
-756.134399 -495.493225 823.643127
-746.631165 -490.693146 764.007324
-1064.787476 -888.576477 1131.833862
-711.982422 -584.323486 671.101013
-613.190979 -694.479309 622.019287
-968.212585 -996.691101 532.476196
-768.115845 -505.860901 558.522034
-503.622589 -534.736755 904.750488
-579.902161 -749.443420 606.755859
-477.342773 -576.218567 895.692261
-1111.637207 -692.078369 786.851196
-1042.223511 -783.104431 745.312866
-601.853638 -729.617981 541.892578
-1094.741821 -805.733154 563.464966
-997.119080 -960.878967 615.032532
-392.798584 -474.745026 927.626587
-945.171692 -1058.302124 554.163513
-678.677246 -595.866699 739.496155
-1191.769043 -695.289856 737.761169
-1115.455444 -743.930847 777.001465
-939.061096 -952.164673 661.895081
-413.948242 -356.641998 989.605408
-566.778748 -577.003662 919.865845
-1025.507690 -789.459106 871.848145
-641.137573 -460.506073 967.465027
-677.087708 -634.128479 728.511963
-1067.368408 -870.112427 636.689819
-645.463379 -650.377869 552.987549
-1040.141235 -918.922302 667.954041
-1126.444702 -781.688232 416.126984
-1178.690308 -636.184875 770.956177
-1056.524292 -895.977051 501.414124
-352.115723 -533.901489 913.728943
-711.843018 -572.729248 808.273376
-971.228210 -988.644226 639.856323
-1028.589722 -742.858093 558.242920
-1012.388550 -973.861816 641.057800
-1116.826660 -797.880981 789.586182
-306.174164 -583.281738 902.819519
-705.938904 -570.324036 537.770874
-426.212585 -527.560730 911.712952
-1184.527710 -669.683167 748.524292
-729.789429 -544.685669 824.533691
-642.384460 -657.269470 655.885498
-369.156219 -402.061157 974.520630
-439.599945 -365.379944 955.852173
-1157.053467 -709.562927 648.959656
-774.673767 -456.888367 614.147034
-1127.622925 -756.926086 669.788269
-656.505005 -642.662048 840.478333
-1130.152588 -746.113037 770.720825
-1237.597534 -632.126526 675.725342
-752.076660 -492.236115 804.717407
-678.090271 -645.338806 737.457092
-1131.262329 -748.743530 484.054504
-483.328705 -496.446808 918.670532
-1187.645752 -715.705933 690.903748
-346.912476 -605.239807 898.727722
-612.030151 -711.164856 811.131775
-791.773682 -500.517761 520.242310
-1141.936279 -734.260498 640.480469
-994.692322 -924.739624 719.932068
-1201.381104 -663.431458 671.012146
-456.646454 -713.365295 864.084900
-1025.652710 -840.713074 624.295654
-1174.151611 -710.511963 572.874939
-625.973389 -692.648132 783.205261
-1035.643066 -884.943176 567.825012
-1013.061340 -775.632813 536.951538
-698.201355 -633.807617 467.162384
-1078.309814 -846.357483 487.895599
-1102.643188 -700.089783 789.068359
-520.400940 -558.663818 915.211853
-768.385986 -524.582031 522.285950
-1192.676392 -652.956848 618.782410
-618.145386 -714.625549 836.590637
-530.860229 -630.119385 899.516052
-1158.804077 -732.905334 478.822449
-703.281860 -598.602295 571.452332
-1036.491089 -838.057190 596.028870
-723.925842 -563.892273 625.904114
-1043.416016 -903.963501 489.419281
-1087.928955 -764.034180 770.029541
-1162.039307 -759.696594 551.488708
-709.022583 -562.371277 537.717896
-1094.380249 -860.221741 455.252319
-596.770142 -721.824341 610.123291
-1226.886963 -622.883545 792.982178
-366.489563 -592.864807 899.629761
-1181.166260 -698.497864 508.390656
-977.298828 -733.405579 608.585449
-1174.087646 -714.554626 748.961853
-735.130493 -548.665833 710.393799
-1058.605713 -885.380615 588.428162
-603.598755 -457.556702 935.818237
-443.549683 -580.072815 912.948242
-636.643982 -641.150452 629.137939
-503.770508 -368.684479 959.220154
-663.484985 -655.131653 786.857544
-494.174469 -541.639526 911.570007
-718.957703 -610.413574 494.122925
-1170.651978 -693.195068 716.374817
-432.714233 -445.241241 937.414734
-1167.603882 -725.543274 725.455261
-744.712708 -516.293396 626.881470
-363.298309 -440.424927 941.070190
-297.300995 -482.001648 941.779846
-732.883301 -551.344788 680.047180
-759.724609 -529.312073 540.114929
-1048.228394 -782.358459 582.094727
-512.930725 -373.594391 941.576599
-669.138367 -309.972626 851.105713
-650.870361 -677.196899 490.945038
-473.616852 -716.634277 864.335571
-487.609192 -589.216431 906.700989
-1226.924438 -634.268311 733.152893
-712.390442 -620.917969 498.912842
-519.052490 -461.942627 932.731628
-624.305847 -549.156555 920.977356
-594.801147 -501.103668 931.975037
-1198.545532 -641.074768 789.593018
-742.728882 -509.752319 553.480530
-460.765808 -386.226990 950.436279
-1092.850952 -830.709473 902.959412
-1109.639771 -702.040894 795.853577
-396.402710 -525.189941 915.033691
-665.574646 -630.510437 854.551636
-643.519287 -694.232422 582.424988
-1141.630127 -746.097107 783.983826
-1226.140625 -627.672302 841.245850
-538.464417 -467.368195 919.257751
-1017.279968 -966.532288 555.553040
-919.461670 -721.880676 592.884094
-907.108154 -1023.242920 590.221680
-1149.416748 -711.337952 776.382202
-1180.813354 -637.650696 782.971802
-754.549866 -476.879333 634.094543
-1089.857422 -711.103210 780.276794
-746.062256 -502.212006 632.926025
-1051.245483 -869.488586 480.606445
-489.078461 -552.790100 901.820740
-1156.692749 -734.482483 542.862000
-538.167908 -642.635925 880.922546
-307.217316 -627.790039 888.715515
-403.594971 -507.199280 934.215210
-702.036804 -557.469543 612.971436
-501.500916 -469.211151 932.368774
-1084.964600 -851.502014 441.413879
-738.892456 -513.339844 736.557983
-401.393982 -360.131866 982.619629
-781.789124 -453.185455 644.362122
-316.513367 -541.892090 925.938477
-1030.983643 -771.348816 748.626038
-924.917725 -1085.686279 594.605408
-744.160461 -424.721954 817.126831
-665.197449 -600.731079 621.062622
-589.601135 -745.021667 722.541443
-890.105652 -723.936646 626.909607
-456.513092 -570.593384 913.763245
-682.667358 -570.368469 661.035706
-1074.196777 -854.737976 520.791260
-1045.301514 -780.961121 560.898254
-1145.383179 -719.768677 741.159790
-663.804810 -651.252625 941.592407
-327.050873 -637.843567 886.903687
-307.446228 -484.076965 958.173401
-609.936157 -750.559631 790.048706
-684.582947 -625.302307 500.548248
-643.432800 -683.692749 572.179260
-715.922607 -522.073608 627.466980
-470.136108 -676.268372 871.110840
-1093.789429 -723.085876 802.668274
-639.055420 -662.708496 650.692993
-1164.465088 -708.296326 781.795044
-703.285278 -586.685669 873.302795
-644.964478 -683.133423 556.199036
-507.891083 -463.467194 933.942688
-443.444733 -671.012207 888.081604
-794.975647 -431.193359 631.265625
-1060.648926 -887.912170 584.723511
-916.559387 -1061.953613 613.069214
-369.253174 -578.667969 913.152161
-910.286865 -1071.304565 732.741333
-1153.836182 -733.312561 782.235352
-1170.445313 -747.040466 632.486328
-949.237427 -1014.729553 608.336121
-699.805786 -602.423584 549.496582
-1125.802124 -750.066345 914.896667
-1194.729614 -647.444214 754.174133
-1158.905884 -707.270081 496.963684
-1207.676270 -633.651367 863.032471
-1053.731445 -848.693909 659.918457
-1142.386475 -777.517700 880.182251
-800.672852 -432.673096 694.537964
-456.563599 -396.774384 944.711853
-335.410461 -567.228149 904.215210
-1152.261475 -709.667725 742.073730
-1040.305298 -886.932617 719.376831
-447.117584 -357.941437 977.983521
-531.348755 -563.586548 919.474670
-972.572144 -770.804810 587.822693
-971.337646 -997.174622 808.393860
-1172.161743 -714.504150 584.600708
-981.948730 -998.372009 536.380066
-393.456665 -668.477844 882.865112
-466.115875 -429.689636 934.408813
-1212.332520 -627.098694 653.960754
-1086.417725 -808.461426 738.943909
-803.064026 -434.818909 615.359741
-1160.066406 -748.575134 626.862488
-735.045105 -559.178894 501.799286
-500.736908 -408.372345 938.654114
-368.379303 -556.836609 913.724426
-450.697815 -559.633972 916.420471
-626.723083 -713.204773 725.727905
-1205.392334 -635.747192 818.809998
-970.481445 -989.452393 656.410095
-598.330383 -721.917480 561.465881
-1018.151062 -920.153198 572.275940
-499.263184 -379.498627 952.728394
-342.721405 -503.411926 923.421021
-923.935486 -1050.361816 709.907349
-1137.675293 -762.233948 537.151123
-1116.072144 -786.921082 984.966431
-713.192139 -589.755859 487.293243
-429.532379 -379.416138 952.951294
-584.484314 -725.403748 510.742554
-1101.004272 -788.419495 907.113159
-394.185516 -381.443970 959.524536
-622.208008 -421.753815 930.885986
-506.653290 -545.249268 925.456421
-1139.539185 -794.545105 875.417786
-1030.713745 -763.961792 572.687866
-765.971252 -515.123230 519.732483
-1106.853638 -799.736328 946.595032
-534.268250 -619.735229 898.258850
-989.734802 -783.283142 745.119019
-974.938843 -1002.515869 625.543091
-403.126160 -397.014130 949.692932
-363.209320 -604.313843 892.244995
-1003.326172 -968.724487 496.083008
-812.981323 -486.193451 523.266846
-732.688293 -562.614197 498.879333
-1035.621582 -869.411133 1146.288452
-1134.113892 -794.672913 713.201660
-396.257233 -629.121033 886.945618
-685.255676 -637.182373 486.582916
-1215.029053 -622.862366 694.762146
-436.294189 -380.858093 960.085571
-1126.896362 -793.731934 846.402649
-645.540588 -688.101868 531.864990
-759.229675 -461.159698 699.659668
-713.987122 -540.575806 590.120605
-949.884460 -1046.013794 535.889099
-797.966003 -435.829926 666.859375
-727.327026 -571.161438 530.411255
-1090.415283 -824.901611 551.871887
-651.230164 -613.402466 587.155945
-1160.388672 -741.028198 479.669067
-499.461029 -540.673828 917.329651
-770.306519 -432.375244 735.553528
-742.399048 -511.395599 568.366516
-1138.852783 -767.083557 498.842804
-624.378052 -716.672546 486.113220
-1037.896606 -942.418823 638.040588
-1065.448730 -894.594116 552.414734
-1005.628601 -964.328674 587.663269
-1043.387451 -822.919983 875.375000
-952.219116 -1030.288330 597.032654
-486.016113 -537.991333 917.999634
-613.466797 -711.620667 716.078247
-1153.480103 -679.822632 780.437378
-1036.376587 -934.166626 716.766785
-1192.349854 -692.652405 563.822693
-733.798767 -542.065247 766.416077
-692.033081 -591.361206 740.141174
-1071.668091 -762.821411 573.837830
-1068.012329 -786.264771 514.677490
-998.719849 -975.730591 570.280762
-566.402893 -515.821838 909.771973
-811.101746 -438.455994 599.659241
-467.496399 -387.868958 949.885925
-1053.144287 -890.453186 552.841858
-752.746582 -504.753418 628.314941
-1117.691284 -802.738281 863.424438
-926.561768 -1025.718628 677.149658
-1163.512695 -607.219727 790.464966
-678.392883 -588.970520 525.464661
-1078.484985 -781.235901 867.039063
-1178.815552 -699.254089 709.101013
-1011.276306 -955.047424 495.293091
-461.419067 -478.289795 926.484314
-545.209229 -496.103119 916.024109
-388.672821 -484.838989 931.939758
-418.432953 -446.999908 953.508301
-712.680176 -576.047729 722.635986
-775.523682 -499.546204 515.598022
-781.743591 -480.400024 605.742065
-1085.056274 -784.221191 953.794495
-1037.731323 -802.594055 721.363098
-1125.579956 -678.365723 829.649353
-649.316345 -649.383362 593.675415
-559.162842 -549.254456 899.482422
-732.433655 -500.789276 607.924988
-368.029663 -560.665894 909.941345
-409.441284 -509.174683 915.353638
-1053.306519 -897.175720 511.270294
-1086.790649 -791.781616 753.955383
-1114.354980 -791.662781 458.001526
-1081.750366 -821.319275 718.488586
-1064.175537 -875.897217 467.890198
-785.053833 -457.546692 691.607056
-694.500244 -559.662964 551.622986
-767.151062 -517.585999 547.218018
-999.187378 -972.706909 496.302521
-1034.678711 -745.866516 987.643066
-641.299133 -664.989319 489.065216
-431.805603 -454.100586 935.350464
-562.106812 -753.739014 767.301392
-667.328918 -620.641846 535.030090
-616.894043 -700.741821 840.257446
-1220.400879 -609.670654 855.878601
-336.875854 -496.845856 927.257080
-1210.565430 -652.474548 652.594788
-1061.809692 -874.407593 598.505371
-718.380127 -531.551514 619.003845
-950.257629 -1027.663940 551.543152
-1078.179688 -842.330688 744.045044
-1216.701294 -662.814087 644.777588
-1046.018555 -900.377625 558.556763
-961.434326 -1006.952209 620.092285
-1070.484253 -801.719482 667.714172
-688.273132 -612.219299 485.717255
-930.730347 -1009.251282 655.653320
-1140.150757 -760.867615 546.606995
-1144.781982 -641.929688 799.483093
-996.388611 -864.579224 752.017273
-949.429565 -1022.714783 807.190002
-1158.408813 -708.627380 804.731506
-330.039093 -518.979614 915.679443
-399.357269 -472.671875 935.815186
-1091.835938 -798.252808 857.471741
-1199.423706 -672.500183 647.542175
-1134.588257 -776.384583 589.984802
-736.169983 -564.536255 508.362427
-987.980103 -986.347107 602.356628
-1196.827759 -635.051880 733.460022
-664.853333 -285.082458 706.515259
-970.312805 -1012.093201 559.332458
-1225.840820 -594.505554 783.116089
-712.276062 -555.508728 564.958862
-667.935547 -614.637146 715.327759
-998.343872 -971.861267 696.944763
-765.354065 -490.733643 587.853149
-693.377197 -589.134155 721.164612
-1115.786133 -763.831482 452.074738
-1168.418579 -695.711426 614.544739
-287.065948 -548.678284 914.228455
-741.430908 -497.064056 718.639771
-1074.652832 -831.797180 861.352234
-1060.449585 -811.401062 593.081909
-680.894592 -580.708435 845.323547
-714.479736 -518.249268 676.574585
-1057.056274 -801.508911 927.997620
-443.425842 -367.864319 963.863831
-700.596069 -580.689819 508.149384
-1133.664551 -656.645691 820.374146
-977.339478 -921.208862 745.171265
-362.222656 -492.323364 926.237183
-492.186432 -382.216431 956.805420
-332.169586 -424.485748 952.882263
-1180.528198 -730.436462 490.775543
-745.328735 -491.658447 572.211182
-1043.206299 -911.710693 518.360474
-1143.046997 -763.339050 638.960876
-691.784180 -584.423889 573.790039
-998.845642 -942.452698 635.539551
-1200.071899 -625.987976 763.903320
-989.556641 -960.372742 681.778870
-1226.749390 -621.625854 706.229370
-742.760071 -498.497528 734.422241
-548.594116 -428.959045 943.476746
-631.318298 -670.334290 650.054626
-599.448242 -723.052551 686.378296
-566.766418 -478.006958 927.121826
-1251.858887 -580.213989 786.964539
-786.200562 -457.826630 707.467896
-814.684998 -441.092102 658.642273
-476.269165 -621.638306 894.375610
-1180.796631 -638.074341 778.342834
-1178.306274 -704.837708 615.739563
-1056.661255 -810.737305 824.799072
-1103.479980 -801.875427 537.181274
-310.054962 -451.008148 950.641235
-629.631287 -476.890961 920.627380
-295.765656 -593.389099 897.555969
-711.601624 -569.704041 573.273987
-1166.483887 -713.431519 728.151123
-492.827850 -644.764465 886.723389
-617.635254 -439.854767 929.978027
-457.637604 -490.719757 933.958435
-1231.334961 -594.751099 849.807800
-633.269958 -456.513428 943.417236
-366.621826 -596.580322 896.719788
-589.636047 -730.373108 568.614990
-427.311615 -543.022522 930.802063
-979.934998 -995.903259 624.558838
-1121.534058 -761.577515 722.414917
-1132.987061 -785.486755 612.388000
-513.282654 -374.968597 954.407104
-1041.310913 -904.846375 673.467224
-1211.731323 -621.032776 739.556091
-1075.841553 -827.437988 485.554016
-735.253784 -505.867676 678.449158
-321.441498 -611.448059 899.588501
-722.035706 -529.456543 842.208801
-693.382507 -567.952148 631.804626
-553.876404 -449.036011 940.458984
-595.022156 -732.843323 554.783020
-1133.124634 -778.771912 566.192627
-812.821533 -446.974121 631.990295
-628.055969 -706.658203 831.454041
-929.494629 -1036.691284 604.071655
-1055.645752 -849.856506 686.588623
-1069.896851 -863.065613 533.156921
-376.633026 -599.685425 906.290405
-515.270020 -377.164978 947.653809
-423.746277 -596.934326 901.901917
-700.786499 -555.814331 651.026367
-1126.244751 -688.944519 808.981567
-674.235962 -647.858704 672.925598
-416.836182 -409.973083 943.190735
-1057.711914 -808.457947 587.197937
-704.682983 -599.152527 713.683228
-1133.863647 -769.009399 974.115051
-1113.784424 -671.057129 750.158020
-909.332764 -1088.059814 634.768494
-471.223450 -372.054443 956.027771
-377.364624 -480.074707 924.239868
-945.983215 -1065.720947 873.687195
-732.696594 -515.963501 585.355347
-1109.451538 -712.693176 778.435547
-754.582520 -502.677582 795.671814
-654.098389 -623.669189 703.970764
-1122.356934 -766.037598 637.440491
-615.125549 -402.623291 951.862915
-1072.052124 -887.514648 521.669495
-1223.666626 -625.701965 716.154236
-1064.038208 -834.213379 644.847778
-387.373291 -556.072998 930.353699
-805.551208 -507.780609 525.503235
-290.001282 -468.565247 944.624878
-659.351501 -643.039612 764.935059
-1219.146606 -628.146790 742.249451
-1039.887329 -935.974731 538.415588
-691.912964 -578.950012 859.261597
-1076.314209 -759.504761 497.637146
-428.305267 -598.520508 904.848206
-618.210022 -750.636902 783.118164
-352.722626 -548.855835 921.647705
-931.094299 -1024.697021 664.483459
-741.018677 -520.068970 822.059998
-1153.281860 -744.743408 553.028931
-692.706116 -620.230591 495.183655
-1022.988586 -939.541565 494.720459
-796.007202 -415.919617 722.464844
-1053.732422 -790.699463 1019.960205
-570.732605 -586.185730 885.947693
-742.626038 -491.976044 830.574890
-978.287537 -712.290894 611.422607
-1084.190674 -780.576355 504.511597
-1172.898926 -727.599548 677.976868
-1232.464355 -604.329712 788.573669
-1116.918457 -773.512451 487.395721
-1145.002441 -734.486572 442.133026
-967.268188 -750.060486 592.748962
-765.921875 -501.223206 572.717590
-456.574768 -458.186829 930.583862
-1010.967834 -824.005554 735.897278
-1157.591064 -760.559692 645.510681
-1225.867798 -645.106079 630.171326
-1143.703735 -751.703308 449.774902
-1079.167969 -817.990845 548.543884
-336.934204 -433.315857 980.937866
-1093.803345 -798.843506 929.484924
-1237.873901 -600.034851 796.456909
-755.948242 -503.661316 584.097473
-1190.321045 -639.265015 749.640137
-504.472412 -383.374420 947.644592
-1210.255981 -652.495300 624.478394
-727.198608 -523.377502 692.215820
-704.899109 -595.123840 599.815186
-957.985229 -1016.976013 660.964172
-926.640503 -1050.018555 676.162415
-788.623718 -445.524170 624.671509
-1186.744629 -701.985840 621.228149
-682.422363 -632.653442 655.148438
-407.658905 -490.192841 930.865417
-1098.728271 -861.244080 472.675140
-1182.406250 -699.440735 694.497131
-602.354370 -433.871552 951.291992
-1179.142212 -704.528625 650.322754
-1046.384888 -901.114380 650.874207
-801.541992 -416.021912 626.454346
-315.803741 -538.885986 933.921814
-1069.673340 -892.094543 548.892151
-1122.342896 -767.560425 436.557465
-656.520020 -674.567871 521.181152
-688.268921 -578.610352 599.347229
-1223.527832 -605.480591 764.356384
-441.156982 -495.028198 918.029724
-1236.049438 -586.751892 765.838013
-1156.325073 -730.135315 721.813843
-1129.057007 -770.118042 719.776489
-1106.591797 -815.919128 438.236908
-1218.535645 -631.969116 739.330200
-1118.477417 -771.525574 662.073486
-1025.119995 -760.393494 596.192993
-470.633972 -530.806946 916.859314
-1129.908447 -752.742859 676.388062
-1147.143555 -761.923767 558.179260
-618.696167 -713.228088 493.088196
-1143.229248 -775.004211 687.810669
-607.035950 -711.352966 844.915039
-1023.848511 -950.712952 656.521057
-653.105957 -645.975647 886.515076
-529.159912 -469.303833 936.660400
-1131.045410 -795.832214 725.884521
-561.347656 -522.929688 924.927429
-751.963684 -517.356995 541.067505
-1171.132324 -721.313660 743.577148
-1020.101013 -758.036499 657.111816
-412.825836 -539.422363 923.706970
-621.935730 -682.413208 683.778870
-1101.286377 -809.685120 841.184143
-1173.801025 -721.993774 544.031494
-736.198364 -501.689117 684.020386
-623.518738 -684.185730 655.915649
-433.591431 -436.002289 939.156982
-1138.138428 -757.045349 734.221069
-401.263184 -397.276306 958.094727
-586.805908 -744.183472 741.524841
-632.847656 -682.564087 509.392242
-519.938538 -560.578979 922.176880
-1072.088379 -795.159302 992.459412
-655.396423 -641.964539 568.133850
-690.905762 -584.757629 616.692322
-1249.361450 -587.388306 814.694824
-1253.865967 -583.114929 780.348755
-1120.537598 -793.949158 583.480103
-1180.624146 -667.464417 791.682068
-1177.769409 -730.698853 664.269409
-475.421875 -671.132080 868.647766
-983.017090 -999.806213 524.569824
-970.477539 -932.903748 758.352661
-357.184479 -575.196777 913.173828
-576.410217 -744.820129 571.733093
-723.310181 -530.886963 548.646851
-1035.395386 -755.206177 521.268066
-575.973083 -744.038574 614.754822
-1103.922729 -805.286987 918.691650
-1073.520508 -810.235474 528.965332
-627.604736 -676.564270 724.725220
-509.993256 -650.084045 888.228210
-636.720032 -435.582184 953.272339
-1094.255005 -868.701965 476.680176
-388.597595 -476.120789 930.269104
-475.647186 -692.096313 862.769531
-355.320679 -430.302612 946.969360
-1132.034058 -805.793274 701.762878
-733.589722 -522.106689 548.805420
-441.562988 -507.671936 928.327026
-684.278687 -609.224915 728.274963
-685.910400 -627.835327 668.001404
-1168.329468 -743.123535 699.178345
-739.736694 -477.192200 785.876831
-789.188538 -458.032654 606.524170
-1042.849976 -807.321106 763.146912
-501.472717 -482.877991 929.713684
-614.708069 -708.522156 694.589355
-498.556091 -372.172943 949.433472
-397.534485 -498.886749 925.005554
-610.955200 -675.302979 617.092346
-407.647339 -384.001648 956.823914
-384.847778 -686.151245 867.170898
-1092.268555 -828.569702 509.231171
-1004.117004 -984.077576 638.017700
-1105.768921 -761.380981 808.139954
-679.283936 -634.052551 549.489502
-987.626526 -967.370972 549.556030
-603.313965 -706.898438 523.145325
-661.453125 -658.691406 780.184326
-982.564575 -964.270630 645.727295
-496.809631 -430.206665 941.136719
-420.708160 -434.166412 940.648010
-454.318268 -570.061584 896.681396
-1127.616455 -765.995789 993.831787
-997.978516 -973.059875 569.331604
-650.612061 -655.362915 756.625244
-452.665833 -514.199951 916.730896
-1145.413696 -726.425415 771.952881
-774.198425 -473.912201 646.996765
-469.743439 -396.683533 944.957214
-1047.452148 -836.634094 933.022583
-319.106262 -482.919586 930.694031
-1200.798950 -644.583801 771.318298
-513.733582 -561.645874 910.837952
-515.680542 -498.544922 924.327576
-1076.859375 -753.614502 780.634033
-686.700500 -616.619385 810.451599
-811.648315 -457.237335 577.548828
-630.449341 -673.410095 505.099701
-518.347534 -644.362305 891.267334
-691.574951 -671.102966 478.542999
-447.309814 -715.639282 862.818665
-1199.104614 -659.646545 834.997925
-635.638489 -700.482361 497.683533
-1129.070923 -769.276367 449.946411
-588.649658 -740.171021 609.943115
-643.660889 -679.957214 701.605042
-305.596100 -506.125641 938.250793
-364.584503 -590.171814 895.892822
-1201.575684 -637.900513 769.783081
-638.442444 -457.835632 923.405151
-441.084290 -669.711304 872.994812
-1064.233276 -850.449951 414.689911
-1175.453613 -710.023499 695.300720
-821.852234 -422.734070 620.482849
-1159.874512 -729.558289 498.828796
-623.789124 -687.733276 607.414429
-570.900757 -542.614136 927.910339
-520.270813 -523.223083 908.117859
-1244.444702 -587.918579 758.547119
-728.239563 -507.007629 581.690063
-739.301331 -496.240356 846.013977
-669.845276 -655.270569 492.856934
-712.515442 -543.855469 818.062195
-1051.017334 -809.135193 1055.881348
-335.187469 -600.613770 892.561768
-1052.462646 -889.659180 647.203369
-641.232605 -671.200073 532.124817
-496.828430 -384.359741 946.758423
-515.800598 -491.728638 916.863525
-702.050720 -541.496338 719.124451
-985.094238 -951.423584 755.547791
-1097.530884 -825.027954 747.552246
-617.884521 -689.162292 676.921875
-310.540466 -578.604370 896.078003
-566.239014 -496.261292 915.787598
-1063.806152 -872.712646 543.656006
-444.741119 -682.481995 870.466919
-676.509705 -578.223877 729.674866
-575.822327 -440.570862 943.151978
-987.906616 -948.923645 677.340149
-689.067871 -562.626709 575.319519
-1098.791138 -817.020386 759.371643
-1135.570557 -770.802917 673.721069
-714.215576 -358.161896 755.898743
-1165.600830 -644.421265 765.827209
-642.300903 -657.613708 523.178833
-682.747131 -610.346619 843.091919
-1131.227783 -775.048584 518.244141
-1020.401245 -947.008728 639.921509
-547.654236 -447.562317 924.846313
-365.411987 -471.100433 930.045776
-765.069519 -530.682556 505.358948
-943.148376 -1006.912354 578.777100
-701.459412 -562.857971 577.108704
-1056.296265 -777.123108 772.001465
-388.363617 -402.404572 949.707458
-708.332703 -543.499207 670.611572
-1022.386169 -937.037903 668.376160
-607.586792 -733.471313 629.313171
-1160.177490 -755.850220 451.554565
-1183.035400 -680.237549 752.143616
-315.513123 -588.094238 907.573486
-1072.737671 -837.786011 389.364532
-327.893127 -488.850922 933.380432
-924.718689 -1043.863037 621.004822
-466.947418 -761.072388 577.940613
-1203.580933 -636.279541 632.653076
-968.860779 -862.505859 816.082581
-620.683044 -507.982208 935.038757
-1186.710449 -705.854919 680.241333
-1092.127686 -830.464722 573.377747
-1174.977295 -723.186035 527.998108
-1057.473877 -885.756897 534.987122
-1077.344971 -811.802185 1097.295044
-1076.120850 -848.304626 524.938782
-490.383209 -371.850098 962.522034
-670.418762 -284.552551 700.740967
-1143.040405 -760.377502 710.736816
-1114.221802 -753.375305 1003.886108
-721.375488 -560.278931 852.010254
-1238.568604 -633.973816 679.703247
-1183.070190 -706.438110 732.421570
-722.290222 -530.460632 720.442566
-1128.857056 -716.894958 823.299561
-1117.016235 -768.759033 1006.291687
-353.922302 -422.555786 970.039490
-632.436157 -671.126282 760.655518
-685.165649 -581.217896 672.069885
-969.833496 -987.221741 621.812866
-1131.701050 -757.077698 527.927673
-682.416138 -587.258911 768.867981
-1162.539795 -700.421753 680.840027
-969.727539 -956.622864 692.355957
-654.256409 -657.471313 638.000061
-366.931213 -561.115540 919.004333
-508.707428 -542.234741 903.192383
-487.261627 -624.793884 893.953491
-293.742737 -573.191101 911.665405
-1050.317627 -901.303406 596.777771
-510.525604 -601.508179 901.335083
-679.477295 -615.427490 822.051941
-1024.115356 -935.523376 626.800171
-627.837524 -655.802734 741.722717
-1005.418884 -938.641602 556.617981
-696.737366 -611.507080 492.229034
-345.005280 -572.897278 906.239197
-713.982300 -527.624390 582.224365
-772.064819 -472.812408 591.117432
-1049.964355 -902.568542 662.548096
-543.216064 -613.446655 885.226563
-702.495972 -587.520386 789.337097
-715.884216 -583.600220 804.268860
-1170.783203 -717.216248 597.036987
-1002.748718 -941.061890 492.582489
-1112.111084 -768.655823 539.658508
-403.596710 -649.678772 873.164856
-1013.902832 -879.654663 620.452148
-1023.313904 -967.651978 543.049194
-1009.830933 -905.905884 739.991699
-778.185425 -466.306366 667.360718
-734.003906 -548.747620 662.394592
-569.219360 -741.062439 805.951172
-567.024658 -745.245178 620.145447
-1141.124023 -761.316406 904.409180
-403.480438 -672.175171 879.956665
-699.281799 -563.575378 798.000061
-517.702332 -526.189392 910.747375
-670.703430 -608.575562 810.308533
-1179.625977 -637.128052 817.116699
-596.489380 -711.306824 547.983582
-448.672424 -651.931824 892.505249
-1149.891113 -724.572754 659.762756
-1245.302612 -609.857056 751.578552
-711.348694 -553.861633 606.432800
-1202.947754 -651.002502 742.632507
-1158.256226 -730.535034 484.544037
-709.315918 -594.233521 830.444275
-647.010010 -627.439087 531.618713
-795.588379 -390.480713 756.886902
-438.949005 -356.522614 981.303223
-592.981018 -704.592163 656.026978
-1139.821167 -769.826050 566.818298
-1123.842163 -792.468750 445.241730
-583.347046 -415.949799 947.055969
-1053.937134 -803.319824 1007.289185
-805.822876 -418.474518 648.973938
-1166.919800 -664.841675 777.032104
-654.169922 -667.521790 835.092346
-565.891357 -786.545715 723.026489
-1035.863403 -916.179871 521.613464
-1170.163940 -623.229370 746.336304
-965.612549 -1000.819763 653.978943
-709.789917 -597.868469 497.870789
-1090.684082 -815.184326 437.569611
-1099.279053 -692.525024 795.844604
-1121.628906 -760.620483 929.206604
-1062.365112 -783.672852 534.048340
-979.003662 -979.848572 565.008362
-1150.316406 -763.025452 677.590210
-1039.242676 -846.094727 937.254822
-1114.652100 -820.986206 714.393921
-1067.194458 -903.610657 564.162415
-517.630432 -476.004883 928.390564
-1106.038452 -765.703430 759.602661
-1050.914063 -836.873657 585.091125
-794.161865 -451.049500 693.291321
-694.849243 -640.712280 465.314789
-400.315613 -620.242188 896.175598
-687.173340 -558.208435 634.643433
-600.838928 -723.111877 634.519409
-762.334229 -471.389709 588.509399
-616.881653 -697.976318 615.221558
-1126.144531 -659.567566 787.407532
-1153.099487 -694.400085 760.968506
-1106.146606 -765.063293 955.501587
-696.735474 -573.276672 548.438965
-781.966919 -491.513245 561.136536
-1106.226807 -791.875244 668.349121
-373.873993 -499.637634 918.827576
-1036.487305 -820.733826 631.037170
-306.219238 -550.686768 909.304993
-1163.300415 -721.408630 714.924561
-400.532074 -680.344910 868.700256
-746.767029 -317.829437 667.675842
-366.045258 -635.043457 882.256104
-1063.113159 -904.631775 584.793579
-511.955688 -677.409241 885.657349
-1153.879028 -744.231628 657.285400
-583.339783 -747.318237 576.917969
-735.580627 -495.892456 619.143799
-982.410889 -969.959473 474.919952
-380.021698 -555.835449 906.604553
-539.863098 -418.080688 940.722778
-1143.974365 -760.124023 753.957642
-1044.716553 -873.880005 619.080383
-970.906738 -807.106689 737.048340
-513.548706 -612.450256 884.560059
-1195.315308 -694.325928 716.616028
-626.068848 -739.152832 783.996094
-1181.307129 -653.473633 791.243347
-1057.776367 -838.168091 731.168823
-329.558014 -470.848450 974.228760
-642.883545 -687.116455 493.128113
-775.528564 -479.410797 542.236084
-1101.450073 -810.181763 442.230835
-1173.961182 -700.090759 732.779663
-1119.779907 -769.978821 466.986542
-735.996277 -522.088257 724.404602
-653.770020 -615.639954 848.933960
-1054.036987 -872.072327 425.942139
-719.208374 -289.312561 679.597656
-618.970947 -731.214355 779.452698
-945.901245 -783.954407 716.392151
-1209.030518 -676.523560 688.285583
-1232.773926 -602.401367 751.825012
-481.076447 -689.117737 870.248657
-1079.184204 -853.918762 478.416534
-962.047302 -989.056641 659.861389
-1129.684326 -776.909119 421.559967
-464.660645 -657.886414 889.198120
-1111.733643 -771.551758 450.963837
-1038.899536 -837.785583 772.314453
-349.850830 -500.037750 926.181519
-399.350952 -681.833374 880.353821
-1116.854004 -760.836487 511.330963
-1141.225586 -750.260437 525.747803
-1176.240234 -704.901794 525.264465
-1055.362427 -894.067383 560.030029
-1178.315186 -704.023987 563.806885
-442.352112 -464.018402 929.661499
-469.924408 -421.655579 935.456238
-609.022217 -407.581360 936.735535
-1005.770691 -856.048706 930.954590
-1149.927246 -734.605835 733.703796
-770.400391 -450.357208 813.184143
-781.961731 -445.141174 648.551025
-395.487976 -460.323364 933.343384
-687.489624 -584.870483 748.233887
-648.920288 -640.009888 666.658875
-997.342041 -979.903015 516.857849
-505.193359 -374.506989 966.567505
-366.960266 -448.147186 941.009460
-1007.767639 -961.838501 629.970703
-363.873230 -643.067139 876.560730
-1178.120972 -732.975525 467.624237
-1099.894897 -809.861572 603.153381
-1147.254639 -761.215759 634.423950
-960.159607 -952.478699 688.034973
-768.390381 -422.315002 763.538208
-344.158020 -602.902527 887.719055
-983.154541 -958.528931 655.382568
-1096.707764 -776.807861 585.093201
-576.047668 -770.849609 733.234436
-1128.909058 -802.655396 698.848633
-1148.418579 -742.445618 440.899200
-582.587830 -726.449890 527.768372
-690.044678 -313.735016 757.570129
-468.181885 -563.145386 911.740051
-1081.332886 -775.498718 487.114227
-669.792969 -643.973328 609.593262
-800.178467 -457.931976 579.744141
-1137.613037 -725.905884 758.640076
-330.970459 -532.771484 918.484680
-595.543823 -706.929077 731.958191
-758.540344 -452.083313 762.957825
-676.483093 -604.785217 872.767639
-643.044922 -652.090698 566.000122
-651.499023 -648.237427 861.733276
-714.385498 -532.640930 764.315857
-1180.287354 -720.567810 533.994202
-1029.720581 -932.690063 519.933960
-632.080200 -642.530701 592.683228
-1113.682251 -742.599792 808.996277
-771.994080 -462.042480 586.506714
-374.354645 -633.447754 888.733643
-1215.145996 -656.998474 611.525879
-743.061401 -525.798035 750.446045
-1055.844604 -884.971191 571.351074
-693.952942 -620.960510 797.547791
-955.811035 -1025.003418 557.453979
-581.083008 -758.344727 831.472412
-963.710876 -1047.358032 887.471069
-752.402283 -502.120392 736.734924
-664.509338 -671.660645 764.045288
-451.960663 -579.628967 899.676270
-1096.473999 -847.222168 524.468140
-1065.553833 -896.286560 508.835571
-615.644592 -706.780945 689.723450
-479.916168 -511.306030 927.642822
-483.911346 -384.089233 945.334839
-701.797302 -599.479431 633.771851
-1202.704712 -680.797607 673.652893
-1138.677002 -786.829468 475.791718
-1138.078247 -750.132568 735.156433
-400.669952 -668.985229 881.372314
-411.186707 -634.956970 879.923218
-379.845978 -462.129608 956.685669
-665.374084 -616.604492 565.480835
-366.459167 -411.037872 981.462463
-399.853882 -657.297119 870.172546
-334.647217 -473.245941 952.050720
-502.910095 -502.082581 924.898376
-459.222168 -376.671539 955.633362
-479.057709 -434.117981 943.345276
-927.143799 -1020.860229 625.261169
-791.976318 -441.151733 624.652588
-1011.248169 -959.910156 551.101257
-789.944336 -521.995178 509.238434
-568.777893 -544.432068 912.882141
-522.277283 -657.412842 872.422668
-693.215027 -572.512085 644.871338
-405.115265 -598.441589 899.728821
-476.227234 -390.751923 946.488464
-700.532043 -611.564453 476.699982
-720.886047 -543.699036 505.535278
-627.081909 -682.366760 612.548157
-1148.428345 -723.325134 592.711182
-1064.083252 -778.136414 838.079285
-669.225708 -657.047363 678.807190
-1149.650391 -741.534363 435.681793
-1175.770874 -705.445496 550.223450
-1122.913940 -812.919739 717.648865
-744.120239 -517.786865 522.682983
-592.749756 -753.794739 753.085083
-1223.828491 -605.197205 702.072021
-419.244446 -377.534454 949.507019
-1039.924072 -786.701904 838.026489
-655.606934 -681.281128 677.781738
-664.319031 -669.527222 736.949646
-973.775879 -1004.214966 608.937378
-391.624481 -541.923340 926.333191
-931.897766 -1024.201050 642.817383
-788.079651 -452.195862 621.063232
-749.535950 -537.601318 546.558289
-1097.322144 -793.691528 873.399414
-379.340851 -416.059601 944.070679
-1158.084473 -734.532471 611.379150
-1162.862061 -655.756226 754.245605
-711.802063 -528.844360 793.494873
-1187.599243 -688.532593 648.571289
-733.415710 -551.254639 704.139648
-719.103516 -556.993225 740.970947
-357.801239 -603.737183 911.629578
-1229.105103 -613.858826 818.042725
-1172.670532 -731.646790 701.325378
-751.219543 -522.752380 566.677917
-1091.941650 -806.665833 1148.792725
-984.126526 -954.441345 848.254272
-969.037231 -963.356750 671.265442
-647.586243 -669.015808 578.271667
-567.556641 -442.353210 931.648987
-1083.599854 -796.051025 1184.395752
-1094.674194 -817.656677 502.793396
-1121.758789 -784.937378 766.728455
-523.875732 -398.464111 945.169922
-1046.960327 -847.190125 558.610840
-792.674194 -463.166687 572.057190
-680.511292 -633.859375 600.917786
-649.510315 -652.216248 520.893616
-1102.979248 -820.412048 511.429077
-1070.767822 -839.185425 918.313171
-972.883301 -958.327332 731.032471
-661.578674 -662.274597 537.689331
-481.622009 -491.385925 930.438599
-925.517639 -1078.457642 720.513916
-559.032532 -556.002747 923.267151
-932.946960 -1048.269409 800.341492
-623.213684 -717.224915 836.319153
-1176.250977 -707.046875 705.440552
-762.597717 -487.980957 732.128845
-1165.254517 -724.927246 564.652344
-508.068054 -528.718872 915.004578
-1024.981201 -933.406433 643.121216
-1163.920654 -755.874451 540.531311
-439.929657 -337.832458 982.525635
-625.313110 -686.817871 701.149231
-802.202454 -476.595490 549.690613
-553.869934 -516.495972 909.226868
-692.592590 -592.094116 877.848206
-437.659302 -619.427979 899.913086
-991.448547 -992.179321 556.972229
-361.876251 -576.152832 913.989258
-981.601929 -990.354065 618.640259
-663.746277 -607.023804 779.932617
-778.275574 -495.187622 569.896790
-1124.057373 -784.160706 689.112000
-643.687439 -674.910522 590.677002
-1005.042847 -966.261108 610.645203
-1082.868652 -846.214233 446.984253
-1012.394897 -820.331848 724.887329
-415.685211 -443.792603 939.918640
-1054.259033 -892.708923 517.808960
-732.912170 -530.602661 557.392090
-663.683044 -311.597107 720.844788
-704.576599 -561.385498 605.441101
-1118.338257 -774.272583 612.639221
-793.934326 -426.578888 698.149902
-1034.854980 -780.198303 575.213074
-619.438477 -703.400208 818.675049
-654.862183 -640.787415 644.604492
-1169.718018 -732.828186 631.083008
-1175.469116 -708.558167 602.456848
-468.761169 -621.005737 886.848328
-662.279175 -685.661926 492.574005
-1202.208618 -667.419861 674.260315
-323.841797 -602.747742 896.735901
-1009.704651 -932.824829 601.757751
-965.740356 -984.597168 700.839417
-404.754425 -414.864868 939.817932
-366.651794 -464.341156 929.499817
-1038.818237 -911.017090 486.091095
-288.416473 -605.664063 922.278870
-1041.282104 -788.185425 767.299866
-429.363464 -565.692932 913.543579
-1137.643677 -650.064697 797.166687
-375.080383 -450.014374 936.478210
-709.612366 -539.922058 698.143799
-1087.748413 -794.869873 650.537903
