ply
format ascii 1.0
element vertex 1340
property float x
property float y
property float z
end_header
-187.621735 -1292.096558 -802.475769
-162.799622 -849.824829 -599.345276
284.724884 -828.840881 -776.674866
-376.702026 -1232.769409 -747.493286
-195.061401 -1314.687134 -759.044373
-411.241943 -1154.416626 -965.594666
-304.719604 -1281.886353 -568.172058
-286.286163 -1318.912964 -589.159058
-208.963074 -1196.519165 -733.941101
-51.203461 -907.037781 -627.665161
-49.654240 -1391.939087 -718.522461
-43.379856 -899.814453 -559.725098
-87.611847 -1305.835327 -894.171814
-47.244156 -926.292297 -549.112976
-90.998566 -866.874695 -608.368713
-277.494751 -1228.292969 -639.465942
-222.287872 -1345.761108 -712.239807
-261.381165 -1276.089722 -747.510437
-150.728241 -820.249817 -637.584656
-357.686035 -1235.808350 -844.895447
-156.387177 -807.347351 -740.079590
-79.310051 -1431.893799 -610.282410
327.429352 -666.210571 -816.795776
114.795334 -603.671814 -962.568848
-332.955902 -1249.708984 -792.489197
35.221001 -959.738159 -522.573059
-208.323273 -801.642212 -670.134216
47.021362 -958.331177 -546.087402
-183.022736 -1354.377686 -574.041687
-372.394257 -1254.533447 -560.798401
-147.653000 -840.896484 -676.386108
-442.988495 -1194.605225 -764.772644
284.947540 -647.245056 -851.027527
-382.654785 -1182.386719 -881.746826
-241.706680 -1347.759033 -551.620056
-176.292343 -799.737427 -742.236084
-444.443878 -1140.201172 -901.041626
160.638077 -590.528992 -950.826294
-155.218857 -828.984253 -663.381531
-37.996452 -842.574219 -915.479675
-143.891113 -816.981201 -701.487854
143.410049 -626.338684 -944.566040
35.757427 -889.953247 -803.116150
-191.499847 -1364.046753 -639.149048
-72.689728 -823.987976 -827.259460
-78.007858 -847.536560 -659.383545
-307.749481 -1273.349731 -645.569580
-43.194160 -888.843994 -738.925598
-129.830215 -867.545959 -568.389954
-233.658997 -1227.365967 -670.741699
353.301697 -732.226624 -803.393677
-430.763489 -1204.697266 -749.088074
302.577637 -781.884094 -794.833984
-59.183159 -861.043152 -667.911621
-62.059032 -914.339417 -542.704956
-184.123489 -1346.482056 -775.955383
-70.429222 -867.089355 -605.306030
-188.085159 -798.845947 -715.491455
251.622192 -915.877808 -813.033752
106.776955 -685.520630 -931.310242
-310.644928 -1302.710693 -556.820435
-93.038406 -1375.915894 -917.737671
12.467929 -905.047180 -695.419983
350.051147 -745.473267 -786.380127
-248.474091 -1355.899658 -543.584717
307.440735 -845.234802 -783.436707
-215.148209 -1328.123047 -630.091431
-125.973503 -1331.303589 -815.776489
-142.217896 -1324.062744 -823.587708
-115.033363 -1311.296387 -901.606445
-168.784698 -1306.670410 -774.438477
-111.254433 -1353.810669 -772.824585
-253.822983 -1332.478027 -599.440247
-95.644646 -1341.555420 -899.210449
13.765115 -1348.723267 -979.205505
-348.897827 -1248.762939 -733.043030
-181.328079 -802.413452 -715.441345
-117.321770 -865.731750 -618.450256
-458.314667 -1173.453613 -812.530884
-18.031672 -1460.689209 -634.128662
99.232513 -952.774109 -694.149414
-126.329201 -825.926086 -717.813171
150.783829 -982.083130 -691.201599
-213.559891 -1274.906494 -791.561340
-359.166107 -1204.223022 -896.808044
118.734825 -650.460449 -944.323486
228.932465 -630.731018 -915.852722
-89.697540 -1295.684692 -791.692932
-211.700714 -1353.046265 -692.168884
-57.984608 -880.590454 -620.068176
-64.982292 -1376.350586 -860.202942
-298.453094 -1199.523804 -1056.242920
-60.923695 -942.045166 -514.828613
-382.503510 -1257.662720 -540.580566
60.053524 -957.600098 -568.914734
-413.068390 -1217.562378 -790.315491
-387.173553 -1204.221069 -796.297485
-6.522501 -1382.865845 -774.446350
-68.981636 -1396.645386 -717.544922
-51.434437 -1359.656006 -905.468994
307.863983 -658.847534 -829.948242
-20.944305 -1365.287964 -968.143250
-93.088928 -1345.107666 -753.241333
31.419771 -910.236633 -907.836670
-404.438263 -1236.860840 -753.453247
-134.319458 -871.300415 -553.480225
82.403549 -1402.784180 -1090.391968
-36.804581 -1376.731812 -897.586304
-20.629202 -971.276733 -523.177734
-462.100922 -1170.492554 -748.072876
32.627277 -1457.803833 -687.143066
210.107330 -537.726501 -960.793945
269.933624 -705.123108 -843.082153
-292.738342 -1275.299438 -638.264709
65.339523 -965.691467 -557.182190
94.191818 -782.543823 -907.412415
327.696136 -632.761169 -834.587830
134.664719 -853.169983 -872.906677
120.251915 -975.389954 -634.719727
8.418203 -1426.689331 -655.319519
200.022675 -883.754395 -843.976501
123.675095 -608.280029 -956.657043
-266.692841 -1221.729858 -835.060364
265.716248 -720.178101 -848.627930
-425.191864 -1230.995728 -614.865173
-154.578339 -1268.264893 -838.995300
287.197327 -644.091431 -880.013062
44.506157 -956.322876 -642.504883
-28.616627 -854.844849 -937.184998
-51.402451 -1423.948242 -660.766968
-160.828857 -830.285400 -684.561340
-450.418823 -1200.052856 -774.588440
122.952850 -988.007751 -565.651550
5.474858 -910.970093 -585.502930
150.628586 -807.358398 -890.672180
-218.117325 -1357.278564 -626.643188
167.871964 -690.447998 -917.439514
-284.683777 -1331.649902 -537.278442
153.290955 -859.358215 -902.514404
-246.780075 -1263.228760 -698.323181
43.208477 -869.579468 -907.523193
-30.905674 -904.663269 -647.289795
225.315918 -637.997742 -914.846313
-83.354584 -1403.043823 -653.784912
309.773987 -756.313171 -798.894714
10.242128 -945.815247 -529.641296
88.006371 -928.246765 -718.366150
16.094625 -937.038330 -577.498535
5.159101 -1412.953003 -940.479431
-398.859558 -1174.869019 -880.878418
-164.230072 -1364.227661 -592.905823
-64.438072 -1392.248901 -639.467651
118.464905 -597.660522 -958.222595
-324.938904 -1215.164795 -1050.096436
224.372375 -819.434998 -834.897827
0.511508 -914.912048 -647.765137
-41.626305 -862.721497 -702.969604
-179.700989 -795.662109 -717.857056
170.366547 -553.657104 -947.543701
224.440750 -880.421387 -826.238831
13.318878 -902.232239 -823.995239
293.171265 -703.309265 -832.698914
323.906586 -669.296326 -823.764893
-233.458664 -1341.608398 -686.941772
-207.634140 -1349.599243 -622.214111
235.941452 -893.584717 -798.093018
-386.292908 -1234.802734 -739.073425
289.946747 -809.308777 -809.719177
153.162476 -924.535706 -509.360229
225.196838 -716.605347 -868.325684
-150.277008 -1295.186279 -823.618530
-169.078049 -806.792969 -714.259949
-300.830780 -1254.562622 -860.729919
-22.742985 -1417.252563 -683.790405
0.677879 -957.571289 -525.260925
-432.146057 -1195.185913 -801.470093
-91.080688 -828.938782 -722.466675
-422.412720 -1214.326782 -653.879272
-419.992401 -1243.132813 -645.851868
283.935608 -790.861633 -812.287292
233.286636 -865.327637 -798.939880
-32.086155 -911.036011 -541.625305
-354.968140 -1287.426758 -568.784363
-430.179260 -1158.439697 -862.259644
-192.863739 -1367.341797 -659.220459
238.642014 -861.875305 -817.004578
150.000427 -1010.274719 -626.355286
-49.359154 -938.109558 -530.696838
-42.587635 -1364.754883 -876.808899
297.101471 -846.368469 -774.539734
-191.062836 -1346.993774 -765.893311
121.929893 -814.184448 -877.203186
-264.884155 -1329.979614 -566.971924
-213.680756 -784.642151 -723.331421
111.117447 -801.982422 -918.138489
-54.752403 -1418.997803 -657.184509
141.519867 -709.984009 -917.005066
-26.954411 -865.746277 -798.780762
15.749878 -1443.325928 -691.863647
16.684574 -951.236267 -543.195679
-93.463181 -849.444275 -716.356873
144.996155 -966.288574 -697.784241
305.803436 -650.798279 -836.501892
-353.163971 -1249.843384 -624.178711
-305.988220 -1207.147705 -1055.478760
322.020569 -649.179138 -832.950073
-57.066471 -810.349121 -930.590271
-65.351158 -894.710022 -601.626831
183.258652 -762.846619 -881.173828
-205.047028 -825.507385 -663.392456
129.447327 -810.644165 -911.951660
-96.260063 -832.605042 -760.097046
-399.342194 -1176.891113 -878.054382
-27.215715 -895.122009 -625.211914
-116.816132 -1260.050659 -785.021606
84.742851 -936.691956 -740.549500
-201.060501 -805.204285 -661.339478
50.838360 -1386.288696 -1017.422852
-12.223709 -898.523376 -607.684937
27.250059 -936.473083 -640.598816
-64.471527 -1427.624390 -603.815125
89.444939 -980.511047 -585.036438
172.351761 -770.771057 -889.778320
259.698059 -652.966431 -859.839722
-99.667679 -842.316040 -717.277222
262.152618 -647.989685 -871.139526
-21.751335 -1379.057251 -923.204163
-53.749413 -860.146790 -753.150085
-50.871525 -1365.965332 -899.074097
-297.572296 -1244.079956 -867.312744
-286.658325 -1275.926514 -747.961548
-108.841827 -1388.444946 -606.549561
37.577908 -928.263733 -650.907104
-237.707901 -1245.125977 -865.785400
226.808914 -676.546997 -874.698547
103.674522 -725.929443 -939.716736
92.361259 -961.045776 -570.866882
341.786926 -661.881042 -822.014526
-419.070770 -1243.088135 -584.984680
197.834671 -546.663025 -946.227173
-73.327026 -829.190796 -959.301575
-385.167023 -1251.340088 -695.683472
-298.273285 -1224.825928 -964.058228
253.423447 -881.849915 -775.751709
-102.569260 -860.788574 -631.340942
-280.340790 -1264.565063 -838.501831
-371.934845 -1240.940063 -633.168030
13.163620 -940.879700 -584.952148
-23.148338 -1445.185669 -630.118164
-81.746490 -840.206177 -798.641113
-107.305473 -919.375916 -505.524414
111.596024 -943.231506 -781.143494
-61.520325 -914.565247 -523.737915
-345.536407 -1278.889282 -701.628967
-243.324646 -1317.017578 -707.680359
-24.341961 -1452.940308 -633.246399
228.689545 -761.663269 -853.001648
-314.575287 -1232.042358 -699.756042
-26.943811 -934.866760 -528.923584
-133.973007 -842.910706 -646.789734
-58.932056 -879.622620 -621.574219
112.558754 -692.407532 -941.978638
-169.557144 -1370.002808 -633.521423
-228.501389 -827.706909 -644.552002
-166.618622 -1373.381104 -695.817017
286.338593 -800.699951 -805.407410
-153.369553 -1147.077393 -746.572083
127.147041 -916.021362 -993.278625
-389.378601 -1217.905151 -810.311890
89.398293 -695.743408 -954.252686
-432.900269 -1207.254639 -734.703918
102.677940 -1390.578125 -1119.165771
203.282501 -683.073547 -900.564392
-404.648376 -1148.193115 -843.803650
-126.312950 -1387.863403 -699.480896
33.435570 -904.871643 -748.532654
57.958145 -937.611694 -715.925903
-35.535675 -872.593750 -857.466553
-231.574951 -810.827515 -656.653687
-384.457458 -1182.598999 -874.447876
-4.080027 -866.181641 -809.324463
-249.634491 -1268.570801 -875.078430
299.500275 -603.925476 -858.989075
277.836426 -697.143127 -842.730225
-106.429886 -909.129822 -551.266235
-92.565155 -1286.095459 -777.044983
-55.525982 -874.112671 -760.801636
-24.229652 -885.151489 -746.267639
-206.953094 -1191.207886 -773.096069
-15.783861 -881.843018 -733.661255
200.764023 -658.975586 -904.286865
88.100273 -640.035706 -957.000061
-340.257294 -1288.385620 -558.065125
-51.122643 -929.641785 -531.348145
-110.774208 -1248.476685 -804.006287
-110.433449 -849.357605 -754.730896
-119.125488 -1346.778320 -751.231140
178.940674 -665.339783 -931.690002
1.597961 -958.705139 -543.302856
-448.283844 -1153.969849 -840.760742
8.855524 -882.413391 -851.075012
115.752396 -1422.087646 -1087.293823
41.695457 -1397.617432 -953.315369
-120.598068 -839.418396 -687.880005
-28.407471 -927.694824 -567.484375
153.992706 -994.972900 -696.848328
26.040342 -889.184937 -861.019165
100.905670 -640.014587 -951.418640
-379.375153 -1205.075684 -799.089600
-194.993912 -1355.153198 -631.062256
-392.933258 -1161.810547 -928.408203
-150.206573 -873.388245 -565.060181
27.543880 -763.325317 -973.819519
245.981400 -690.960571 -863.588562
-128.924438 -862.456970 -572.149902
-103.562096 -1407.212036 -616.956360
-135.850479 -892.140930 -547.101807
277.544281 -788.650452 -808.064575
204.278381 -671.220276 -884.640137
283.119049 -742.235413 -823.373779
56.756599 -704.004822 -952.029602
-434.749268 -1089.296875 -978.945374
306.639801 -728.255615 -803.512939
128.704376 -788.145203 -900.881958
-245.424026 -1328.175781 -638.163086
283.523712 -639.378052 -867.572266
-201.316376 -1362.911255 -647.923096
-24.931471 -1436.193848 -634.782715
-78.584023 -1353.116699 -965.246216
14.359917 -913.738403 -823.211609
27.674803 -978.761108 -506.900299
-196.570526 -1364.878052 -643.690063
-160.638199 -875.229065 -563.600891
-371.026550 -1235.837891 -819.517395
13.995775 -1459.110352 -635.907349
-100.855507 -863.001587 -677.652222
247.101379 -722.057068 -849.116333
-269.520630 -1246.812988 -874.709290
-112.711487 -819.843201 -910.485352
-175.668625 -869.530640 -583.258301
-31.399887 -893.744995 -583.888977
-90.037598 -892.248352 -569.385559
138.378357 -769.292175 -911.350403
-65.635643 -904.512634 -604.243347
8.150122 -929.482971 -609.926208
-277.311249 -1193.321777 -666.791870
247.565521 -658.368896 -869.626831
-284.986389 -1298.185059 -631.212891
27.392868 -1388.576172 -910.537048
1.632194 -1409.371460 -727.511475
-364.638062 -1240.663452 -752.333313
-427.824860 -1207.992920 -746.028076
-87.889648 -888.366577 -583.037476
-201.924988 -1353.006104 -678.793945
10.167871 -1446.904053 -721.278748
-4.557670 -1386.804077 -947.160583
291.233582 -641.817993 -854.373230
292.724548 -779.437988 -806.782654
166.272385 -736.765747 -886.714172
81.766571 -913.911560 -860.115723
136.722198 -618.735352 -948.997864
208.411392 -872.408447 -842.138916
-100.259491 -1380.534546 -729.061218
-17.300890 -907.899658 -565.390808
-29.187553 -875.750610 -725.918884
-235.746292 -1277.074463 -863.393188
-106.277618 -817.465149 -741.812622
347.850616 -698.722290 -797.894531
45.957703 -942.556396 -564.531006
109.016121 -1417.222534 -1018.705383
143.703094 -726.108032 -913.437012
-58.268459 -906.146912 -572.611755
25.998072 -1422.951904 -774.992798
334.580902 -654.786438 -823.602844
83.635712 -954.008423 -697.329285
11.419277 -886.243347 -718.799561
161.865906 -656.847107 -928.701355
-393.654480 -1212.710327 -800.007263
-219.980942 -776.330994 -702.021729
-197.123367 -865.169678 -581.333191
240.544617 -594.225159 -895.408936
-34.682823 -906.322937 -574.954895
-105.041954 -920.245667 -516.896973
66.615578 -723.571533 -951.887634
45.089890 -939.547546 -599.584656
-107.527229 -1333.031616 -914.552551
-490.711517 -1129.710938 -903.303589
-20.748093 -930.196838 -590.288147
90.502838 -800.101685 -909.580627
-455.291046 -1145.596802 -883.644165
-229.952576 -780.271179 -684.909607
-117.654274 -1392.957275 -644.184265
269.906982 -718.176392 -843.159424
-170.208542 -868.371521 -562.464478
226.659592 -616.301208 -892.420105
-108.087982 -834.327820 -717.386169
-204.280853 -846.924133 -603.669556
105.515244 -939.783569 -631.409607
-222.183685 -777.048157 -676.849121
-381.676392 -1281.178223 -578.738159
108.020569 -958.196960 -778.006775
304.279785 -642.456848 -873.361938
368.284241 -674.844482 -831.146851
107.272102 -605.312500 -966.175171
61.060383 -908.816223 -828.725464
-192.643814 -1194.874634 -826.265747
112.390343 -990.827881 -597.407410
132.538803 -761.227966 -915.746460
-14.982869 -879.304688 -692.353943
-395.936859 -1175.932129 -901.183777
-371.456024 -1242.836670 -711.621216
-47.555031 -1424.938232 -634.059143
106.006905 -955.813660 -622.673828
-219.417877 -785.411438 -712.155884
-166.979767 -1364.671997 -674.384155
-162.730804 -836.424438 -682.542480
-215.948929 -1363.201660 -629.866333
304.666138 -796.616821 -807.151245
-350.601563 -1240.919434 -792.224731
52.171307 -948.902771 -606.822021
-238.608276 -1193.207397 -640.481750
-224.928207 -1319.976318 -754.679382
-51.899235 -895.723511 -595.283691
288.774933 -783.731995 -805.176941
-59.474361 -1395.391479 -713.149658
-40.229980 -951.682312 -524.960144
5.194987 -919.468750 -746.670654
324.155518 -721.454834 -814.724304
-226.410049 -771.356812 -725.612366
-167.919403 -796.004211 -781.701355
-143.330414 -779.632690 -826.387085
-44.862019 -1434.679077 -633.430969
2.575601 -912.058289 -587.341187
-376.713776 -1210.973633 -778.962891
266.557922 -665.723572 -867.676575
-15.329317 -1325.335327 -995.460815
-209.547638 -1360.598389 -620.989502
-271.556213 -1180.882813 -865.115295
202.603012 -779.497559 -872.232117
353.575439 -677.797852 -822.915283
-196.718048 -813.773560 -649.043884
13.249472 -1389.379639 -917.581543
-175.204758 -827.364197 -641.451355
60.639671 -952.978516 -642.565552
-74.091232 -969.996399 -516.528503
226.076553 -823.659363 -840.404297
-260.410950 -1307.538818 -625.899170
-111.884094 -891.279114 -548.243591
60.421280 -932.953552 -633.212524
-168.141220 -1358.551758 -707.176514
23.281137 -1385.950317 -957.555908
200.968338 -555.747437 -952.762695
-331.727936 -1201.045654 -886.644287
-8.629840 -1441.078247 -655.171814
-243.948105 -1313.669189 -715.127625
-163.145340 -1344.321411 -759.915588
-24.683037 -1357.708374 -917.825195
157.785568 -564.599731 -959.492432
-317.356812 -1239.583862 -891.306091
242.173141 -712.132263 -858.739563
208.674484 -773.862854 -862.152954
-265.470642 -1259.269165 -770.510742
-264.494476 -1324.631226 -643.591797
107.671669 -653.112549 -944.516724
-316.622894 -1266.730713 -696.374634
297.521942 -713.433838 -818.684265
87.210999 -778.783875 -912.077454
94.854683 -983.860413 -591.619141
150.770859 -594.166382 -939.593628
-213.577484 -1331.783447 -612.041748
-93.218102 -853.922729 -684.246399
284.090546 -746.304016 -824.707153
-90.871529 -1392.600708 -746.173401
9.189934 -898.410950 -913.792114
-184.635605 -1333.456665 -755.831909
90.319504 -947.782410 -791.582581
-57.606411 -859.581604 -778.682739
-90.697701 -1319.565918 -948.713989
-6.847083 -1421.660278 -676.852417
-212.299881 -801.920471 -673.761536
294.389771 -685.760620 -839.351563
240.134232 -672.784363 -878.000549
29.031208 -915.141785 -642.082886
-140.564682 -863.192322 -580.043518
250.333710 -778.993896 -836.416992
-211.630569 -1351.705322 -539.894470
-236.181946 -1241.099121 -883.272949
121.161949 -725.842346 -928.948059
-204.275436 -1356.609253 -693.592773
-118.129761 -819.631958 -792.209167
-185.208725 -815.696106 -622.943970
-99.132004 -827.953003 -793.116089
271.305725 -668.656860 -867.312744
-253.293457 -1310.330078 -668.213257
-164.657623 -879.734741 -558.858765
-411.962402 -1162.610107 -883.681030
-74.556725 -918.526672 -534.911499
322.307281 -636.315063 -855.882751
-380.597107 -1140.612183 -916.374939
275.351227 -714.936890 -852.498901
-27.624153 -913.018250 -573.179199
-17.223207 -909.150208 -584.647278
-242.259125 -1203.496948 -645.803894
167.390106 -698.197998 -911.872498
47.787857 -959.030273 -564.121094
209.826782 -868.087280 -498.825317
-20.237347 -912.068115 -702.650574
-46.866848 -894.904846 -689.793335
84.587746 -948.747009 -665.034668
-47.994370 -966.259460 -503.648468
58.924191 -1361.861694 -1056.822754
243.544067 -854.467346 -824.493591
202.954803 -558.327209 -955.824402
21.582668 -953.716797 -586.395081
-93.283653 -1403.043457 -647.695496
223.232651 -747.880493 -850.808716
231.350723 -765.861511 -855.029541
-329.947723 -1237.927490 -857.669617
41.936474 -934.651550 -661.059875
134.872833 -805.237000 -871.707336
-139.697464 -873.247498 -569.157715
2.401940 -968.312561 -516.752686
-228.371033 -1323.484497 -618.626282
-249.772751 -1327.151123 -570.593506
-110.793076 -890.857605 -576.570557
-181.153946 -794.978577 -670.057617
-338.035675 -1237.020996 -829.036987
-196.613480 -783.231323 -687.810486
173.448944 -642.948547 -919.587402
156.991837 -670.936829 -927.145447
-191.295563 -857.688782 -572.151672
20.040905 -975.835571 -509.785187
-370.271301 -1278.585449 -587.642822
290.022827 -900.599976 -797.293030
-387.064667 -1217.362549 -795.196655
31.353355 -1447.995117 -726.002869
-23.955120 -972.051025 -489.792572
72.411423 -925.413940 -774.980957
69.549820 -685.281189 -954.986511
-261.347748 -1328.481445 -578.596924
86.823959 -1405.055176 -1029.309570
210.382614 -756.924072 -869.504578
372.148407 -674.546875 -833.485718
109.148064 -751.239014 -930.919006
-49.076046 -1345.608032 -725.897583
-414.896545 -1196.320679 -831.856079
238.496658 -722.857605 -860.323425
86.962303 -652.621765 -954.843262
-388.272583 -1274.043457 -626.398376
107.523544 -780.066711 -916.877686
290.255005 -743.763062 -816.269775
-241.825104 -824.785706 -636.423523
-22.852995 -881.204468 -705.430115
-104.728081 -820.010986 -729.899536
180.803070 -616.164368 -962.399170
-177.377289 -833.417297 -633.494812
294.313232 -790.315613 -799.184204
-103.762550 -1283.195801 -863.501526
278.735931 -704.928467 -838.255676
38.736332 -945.648682 -642.330322
-206.637131 -788.292542 -720.625488
262.975494 -598.820129 -886.883301
-409.629761 -1228.941162 -809.045349
317.498291 -722.942017 -802.866211
191.961304 -740.147217 -894.694763
-291.509277 -1254.246216 -855.048889
12.560784 -901.158386 -779.752014
-372.660614 -1245.132690 -805.590027
-407.022522 -1253.172485 -660.019165
-371.624512 -1174.489990 -897.537903
-38.652756 -1355.874634 -808.608643
195.635193 -732.466980 -895.305664
-41.698494 -1389.639282 -665.582947
-394.019073 -1257.624146 -672.588135
-238.751434 -828.284790 -663.062622
-20.131443 -1401.575684 -895.700073
-418.367767 -1164.254517 -952.613159
-79.498253 -583.206055 -853.093933
191.559189 -706.631775 -880.248840
18.272173 -1397.050537 -931.866821
-446.423004 -1171.227661 -833.581360
22.279524 -892.688293 -846.820923
-144.215424 -1358.425903 -703.894104
-274.215057 -1339.416992 -596.335083
-231.268646 -1263.969238 -835.897644
71.441376 -1389.691772 -1060.492554
345.176605 -759.295227 -797.031555
-319.018829 -1258.622803 -777.979553
-92.008385 -879.677917 -574.304443
-107.492111 -1262.716064 -815.615234
64.863312 -944.763000 -639.927124
-330.789154 -1279.301392 -552.946350
-148.382324 -798.731812 -848.338379
-268.211792 -1220.057129 -629.325989
-249.927628 -1234.245728 -935.028442
265.849518 -822.918091 -813.737915
-129.047272 -862.165100 -581.420471
-10.187284 -884.045532 -677.848755
90.053070 -965.897034 -677.180054
-137.735809 -867.819214 -576.245728
-189.313553 -1354.675659 -709.857666
-203.319275 -866.960571 -583.841675
-362.521820 -1231.898804 -870.605286
-9.337819 -889.876648 -704.345764
-374.985565 -1162.170410 -937.136292
-449.512634 -1164.877686 -848.287842
-80.023811 -900.864136 -537.534607
70.894196 -952.062256 -594.029724
276.256317 -823.140808 -569.798523
249.125412 -654.619202 -876.796814
-421.263336 -1181.829224 -844.887085
131.496841 -781.292542 -889.464966
-202.753876 -1179.984009 -818.389587
133.810364 -980.080750 -628.547791
-331.492249 -1189.261230 -997.333618
-68.583801 -888.644531 -589.900513
-55.280994 -1338.242676 -887.846680
-72.143593 -856.315857 -756.397461
101.410851 -597.073303 -973.123840
128.498428 -737.482483 -919.929871
-209.156952 -847.045410 -565.215027
-234.725601 -1341.222046 -698.598328
187.110687 -678.323486 -900.336670
-347.308380 -1204.971558 -860.020386
-324.617645 -1288.854248 -557.263367
267.550232 -593.748047 -891.309326
-44.894020 -871.616516 -750.477234
-90.337395 -820.065369 -909.074463
-76.161209 -1409.600586 -594.025696
109.714371 -616.395264 -946.332825
-414.331512 -1135.171753 -879.110535
301.946259 -589.732788 -872.770203
-299.575806 -1227.655273 -762.020569
-151.632706 -1375.532593 -697.028076
118.585541 -700.419800 -936.993774
-294.418976 -1273.462891 -741.310364
-96.909576 -892.690491 -544.851746
45.360271 -643.548218 -996.899353
372.406311 -675.884583 -821.181763
139.857117 -841.780090 -900.229004
68.335793 -1392.388794 -1033.901611
-52.658409 -899.736145 -561.772705
-438.161560 -1190.970215 -702.564331
-202.925156 -1259.938232 -790.328247
-26.584263 -854.219299 -793.154602
38.928612 -680.455383 -976.838562
-419.008118 -1240.370239 -602.366821
87.050766 -943.766663 -592.789429
-403.896759 -1217.512573 -834.023682
-143.626709 -1350.795654 -751.727600
247.357330 -639.435852 -883.229675
-165.837112 -1189.642090 -824.265930
-19.507614 -878.575012 -770.289124
-130.427399 -1333.164063 -821.994385
-374.069885 -1261.215576 -584.265930
6.503201 -1378.712769 -953.822144
-40.822086 -1380.623657 -814.952881
311.632782 -624.102417 -855.514954
-373.173889 -1247.441650 -705.994324
-178.490982 -1195.684814 -850.472778
343.196899 -626.252258 -852.722839
-441.098816 -1190.214600 -792.913086
-82.097107 -924.321167 -518.645630
78.663292 -952.348083 -638.549866
-80.304970 -1410.773682 -673.413208
-27.602854 -1381.197388 -881.819336
58.128376 -955.873779 -627.447876
-166.379684 -1371.719360 -630.208130
-403.342407 -1157.500732 -953.945251
213.948776 -751.374695 -860.015747
-102.396790 -885.672424 -551.151062
202.359406 -558.713806 -929.836670
337.581116 -651.951050 -848.160278
161.951736 -973.471680 -609.414185
338.281006 -656.806885 -837.744629
225.876846 -667.084106 -892.112610
-363.873352 -1233.106201 -783.316650
-103.069977 -903.824280 -538.820801
-140.611343 -1346.702148 -728.058105
-47.717293 -983.432495 -510.602936
-88.920090 -795.039429 -916.270508
-294.570251 -1306.025879 -601.280823
99.177216 -654.219421 -958.818298
-113.168274 -847.558899 -643.392456
-252.212479 -1313.255981 -619.722961
-271.024139 -1269.695923 -653.668884
-374.454010 -1236.635376 -760.892578
-372.043152 -1258.844971 -641.034912
10.402541 -876.340637 -863.674072
352.887268 -717.205017 -794.591919
-260.416412 -1330.806396 -644.431213
48.083229 -1378.723755 -955.055725
-428.607086 -1198.018311 -791.145264
183.314911 -561.881836 -943.046326
-204.331772 -1349.082031 -685.395020
-291.818970 -1319.585938 -590.316284
-269.225464 -1272.071167 -818.783936
99.295357 -934.145142 -857.497253
268.092682 -856.143127 -790.558167
-195.401932 -1341.385132 -743.111572
-29.542612 -859.653564 -886.029785
-58.512337 -1345.232788 -727.363586
-163.857010 -1201.999268 -762.809387
351.348694 -734.891052 -778.348633
-108.591972 -1421.428345 -596.424561
-96.994873 -903.547241 -533.577393
289.580566 -576.621948 -887.891113
-184.507462 -810.419434 -670.736267
-16.244335 -1428.693726 -678.026184
-390.792267 -1255.098145 -667.797668
-488.969910 -1138.212402 -894.388306
-273.678009 -1295.086182 -646.540894
22.213177 -937.051086 -543.052734
315.492584 -654.736633 -835.768921
-188.013687 -827.403748 -624.039917
-429.703674 -1221.640625 -673.274170
167.763214 -820.580750 -868.749023
78.181206 -611.955139 -976.431519
-318.894104 -1260.294922 -790.180664
-357.181702 -1251.957397 -691.983765
31.089493 -974.066528 -511.379089
-352.462036 -1192.371704 -997.435364
278.049194 -718.986816 -836.745178
143.704605 -937.134155 -597.479980
-76.139572 -1405.056274 -676.440125
-390.095245 -1244.741699 -757.534668
2.895630 -1467.397339 -643.261108
-282.729858 -1314.919434 -596.153320
211.510010 -633.778381 -901.065430
-135.047592 -1357.049194 -752.764404
-41.437927 -894.728210 -591.683716
-189.743256 -798.357971 -710.101868
354.140778 -701.854309 -809.807861
118.631554 -1423.355591 -1078.678345
0.484579 -1392.276611 -932.738098
120.702347 -589.149048 -963.110413
-395.452820 -1262.071167 -555.027527
-318.003021 -1316.079468 -534.321899
-69.873344 -1280.713013 -888.775879
-70.122147 -895.044922 -590.120789
-145.246872 -833.446350 -709.230225
-273.816406 -1303.043945 -647.249146
250.039063 -562.584167 -917.460815
-106.976120 -878.303406 -587.720947
-94.606644 -832.173340 -815.937927
246.709869 -641.318665 -884.837402
137.131393 -634.290771 -939.071045
30.551378 -931.889343 -710.992615
-115.931419 -807.968689 -888.109863
-139.973145 -1392.957642 -589.124695
-207.629059 -1345.131714 -698.919189
110.310608 -916.496460 -912.093079
-312.271210 -1271.326782 -752.857422
301.110443 -779.220764 -799.392273
122.303955 -963.299438 -634.319946
-142.193436 -1380.367188 -703.027588
26.858620 -1396.176270 -928.317566
36.245117 -934.505859 -593.976196
-184.094543 -794.235596 -775.979553
-198.081268 -1368.452637 -653.016785
-53.952568 -935.172913 -518.523743
-36.063709 -881.888550 -758.868164
259.292297 -825.614136 -555.128174
-68.010201 -1396.246826 -696.012390
-451.079529 -1193.816162 -831.096008
-2.067016 -943.690430 -517.874207
220.999405 -735.610718 -860.930542
260.779053 -778.688782 -827.768982
44.324760 -1375.790283 -939.933533
-150.887970 -788.026428 -859.366577
0.373918 -1464.244385 -629.529175
-133.497116 -1358.831299 -790.558899
179.298920 -740.097290 -876.052734
311.882721 -737.028992 -802.185974
52.769581 -919.309631 -665.242920
-218.931595 -1222.221924 -772.516968
-203.774673 -1358.996704 -595.575073
-311.936157 -1279.843628 -590.735229
102.780579 -1429.114502 -1035.440186
-52.455688 -925.805725 -526.797974
-212.085312 -1322.148682 -678.117126
118.187386 -744.781311 -906.885010
-410.566803 -1237.394043 -544.777649
-232.380905 -1349.233032 -548.102356
-283.545532 -1285.350708 -594.409790
-404.540588 -1227.912109 -710.014282
231.240692 -802.975403 -834.945801
-19.956213 -894.055725 -695.371399
-293.436554 -1282.870972 -703.893738
360.917450 -656.546265 -842.379272
-12.060821 -911.359314 -557.865967
345.773346 -653.095886 -843.113586
-144.079956 -1216.747925 -911.920837
156.111786 -812.896667 -885.111755
149.194260 -813.351868 -863.419739
-431.272614 -1128.126831 -980.705627
-417.303040 -1236.065186 -621.572205
94.624672 -699.068970 -935.567078
267.305634 -683.499512 -848.809143
275.403656 -771.722290 -817.107239
-136.133575 -1240.004395 -835.481140
188.610886 -723.827148 -875.272705
17.914827 -912.869568 -646.992065
-361.025269 -1243.869507 -743.748840
-250.391922 -1250.235352 -872.590820
-27.645981 -1375.125244 -887.569885
184.511551 -706.259583 -884.419495
-212.963531 -1360.346680 -593.129639
318.128906 -722.376404 -810.286865
-214.005112 -837.158264 -596.575439
-230.739716 -1345.764404 -580.778381
40.267410 -934.475891 -689.714478
146.607681 -677.986267 -914.887146
-365.627472 -1292.241455 -563.421204
146.987854 -803.697144 -901.684021
-6.989302 -995.406006 -519.544006
-271.516632 -1292.126099 -608.659119
142.280624 -802.521057 -887.097534
-18.054150 -910.591309 -644.488892
-150.534683 -841.018799 -592.758240
-234.389999 -1227.497070 -1011.812256
-48.114666 -871.539185 -827.264893
-271.165070 -1327.243896 -584.980408
228.091064 -762.511536 -839.322327
-99.257690 -829.111450 -902.398804
127.729080 -984.045105 -589.862061
212.323792 -572.615479 -928.601257
-368.339142 -1271.909058 -552.040771
-279.826294 -1236.954102 -882.835938
-111.250885 -1301.849731 -957.865601
63.742401 -1408.774170 -990.831360
224.334763 -837.910828 -829.490234
-355.081268 -1257.175293 -669.981445
-159.448364 -1319.116577 -790.447754
80.035217 -669.651001 -954.170044
-155.829590 -1339.913940 -812.403076
-459.721130 -1152.560669 -828.678467
333.182648 -660.652832 -845.775146
-215.414047 -1320.750122 -752.714661
-191.367340 -1341.377563 -734.614258
-238.061951 -1229.643921 -790.794739
-81.465332 -864.465881 -668.751160
39.355934 -697.096619 -970.986572
157.356964 -1013.249573 -642.408447
72.947594 -673.580017 -966.810120
-64.075195 -841.085632 -906.406189
-285.103394 -1315.750366 -576.110168
-345.937653 -1215.138794 -895.072754
-373.760803 -1259.913696 -635.610535
171.902405 -597.700317 -930.084412
221.630768 -730.138611 -864.811096
-35.649464 -885.756104 -662.803101
-207.723221 -794.921753 -676.084229
190.128983 -585.849670 -918.413635
83.051346 -918.756165 -787.813721
343.253601 -761.423767 -788.011719
36.189163 -913.022644 -673.859253
9.665023 -875.236938 -803.927368
354.261047 -643.613708 -821.798767
232.959183 -898.384766 -806.963074
55.765785 -715.090820 -960.519653
-363.986023 -1274.176636 -577.515930
-132.456696 -830.633911 -783.147095
273.832123 -642.387268 -867.176880
-173.625198 -818.595581 -655.613525
-319.839935 -1189.450317 -953.329773
-379.636932 -1211.889771 -843.407104
-30.425007 -1351.826294 -739.794373
-131.566360 -1365.072021 -664.527222
274.441559 -844.312866 -649.279358
-369.790955 -1243.207275 -739.371582
146.711960 -597.574280 -944.485229
-219.936081 -819.244629 -628.189941
333.506836 -645.285461 -830.962280
377.661407 -693.072693 -805.812073
83.638390 -767.000671 -909.566101
58.050896 -905.959351 -826.245911
46.676914 -1366.385498 -1088.873291
152.497818 -658.183350 -922.467346
-53.651306 -835.222534 -893.290344
354.005371 -690.987488 -812.259583
-74.865257 -897.170715 -532.294067
-111.281380 -885.681580 -538.105286
-59.417122 -1341.395874 -921.557861
-146.011398 -1363.698730 -736.251221
118.737244 -930.445679 -828.797241
-191.711594 -1376.587524 -550.715149
-148.559784 -832.447815 -636.895386
-183.474869 -1349.992065 -767.511780
-405.126831 -1195.607910 -771.101501
-14.917937 -884.294067 -873.466614
-59.982399 -864.134277 -652.070435
-387.219086 -1220.332764 -870.724060
-16.402754 -1436.478516 -697.993103
-267.516571 -1260.386108 -823.017822
-62.278217 -858.028137 -725.681152
-266.228729 -1315.795410 -600.161926
-64.461632 -1396.894775 -714.173584
-388.370972 -1225.096313 -829.006836
-421.538879 -1215.166382 -711.810913
141.927902 -560.163818 -962.991333
1.262589 -1401.660278 -691.266846
284.749847 -599.015259 -873.944580
-46.645073 -1323.218506 -727.989380
315.698273 -656.442322 -840.617371
-135.526642 -1355.158325 -740.370911
-16.858637 -916.648071 -566.155518
-85.263542 -863.219482 -656.603516
-79.261360 -901.857300 -558.569519
-62.876999 -1329.351074 -733.684570
-270.190521 -1262.626953 -861.401245
-268.826874 -1213.237671 -621.194214
317.429626 -753.064331 -807.276062
173.688248 -718.238464 -904.399231
276.810394 -654.878296 -869.574890
-61.980568 -839.736633 -923.502319
-50.685909 -873.021423 -679.562622
-206.780487 -812.242493 -634.258301
141.665955 -611.052612 -944.114319
-115.315750 -873.916138 -561.181335
49.781281 -1431.166626 -712.086670
299.694336 -635.631592 -865.055725
-396.630066 -1181.959106 -847.858459
-240.454575 -1322.257813 -699.490234
-40.412121 -1407.601440 -720.369629
-350.645996 -1248.416260 -733.707520
-315.178955 -1169.884277 -867.541138
129.289749 -967.148193 -630.223999
-216.864395 -1234.395142 -899.294861
113.198112 -715.727417 -923.262817
56.705219 -965.184143 -577.474365
-198.650009 -1288.247314 -797.578003
-190.005508 -790.907043 -781.220947
-471.509674 -1153.449097 -863.850281
-279.183197 -1221.726440 -721.752563
-177.194321 -1313.020386 -765.856384
-206.582077 -801.768982 -638.813049
46.811855 -726.191223 -957.726929
191.953064 -640.217163 -919.036194
13.077147 -1400.885498 -931.510559
-15.404864 -1356.925659 -927.679504
-102.600067 -864.894775 -729.039185
126.855301 -978.272583 -580.482239
-53.602089 -1345.640747 -675.074463
-227.136215 -776.867981 -726.033813
-195.780853 -1329.554443 -707.467041
304.504730 -666.166931 -829.025452
141.303894 -634.909912 -948.308716
42.554291 -1388.256714 -925.142395
-214.701340 -1329.953003 -749.835999
-157.976929 -847.659302 -586.742859
248.671692 -601.355652 -912.468445
-155.793533 -837.668152 -619.310974
-173.639145 -1365.110596 -697.961304
-260.537384 -1280.168091 -628.409790
-10.096397 -897.883972 -647.771606
-335.778595 -1146.943970 -852.148010
64.940643 -783.732666 -941.103455
-79.116531 -1400.788208 -748.256592
-350.680695 -1282.302368 -660.591309
-166.997528 -803.072632 -751.814575
-262.037323 -1334.903076 -583.442871
109.331459 -593.180786 -967.774719
-217.778976 -801.777649 -655.471375
275.053436 -622.668091 -868.396729
110.803009 -938.533997 -588.289856
-261.877014 -1343.406616 -569.319763
303.692322 -647.822693 -840.925842
-29.434303 -903.284546 -593.623596
-80.486839 -926.159546 -524.019226
-144.858612 -1364.239258 -635.016785
-72.590195 -1435.183594 -608.140564
283.232239 -604.876099 -871.739807
-122.455048 -907.548523 -528.090332
-37.101196 -940.980103 -512.731262
155.500351 -981.347961 -818.434143
74.299255 -951.728271 -574.755066
269.420532 -721.708557 -843.025146
273.905426 -852.919739 -801.789124
-393.287903 -1259.181152 -559.948120
-157.683487 -1374.029907 -643.644104
272.032013 -690.335754 -843.908203
331.944763 -709.585632 -806.366943
299.776886 -779.991150 -802.039368
-69.863731 -804.303650 -919.518127
-442.480011 -1185.820435 -843.708984
-334.827271 -1221.723633 -867.504395
165.319275 -763.097229 -893.552063
327.544861 -714.349121 -815.917603
41.067638 -929.202881 -655.726074
-6.419168 -949.386658 -524.960815
-29.584583 -1385.013062 -744.790527
-88.897697 -1327.579468 -736.600525
-176.569046 -811.263489 -655.580872
71.272667 -948.254456 -571.991821
233.211319 -843.479370 -817.288574
213.633286 -569.245300 -941.000793
-148.120773 -1343.484375 -726.987610
-65.701759 -1428.677979 -629.798584
-76.246704 -852.947510 -639.732483
-188.544907 -1338.018555 -653.942200
67.322456 -740.138062 -947.609985
256.564331 -557.278137 -953.151367
57.433559 -915.458313 -752.986267
-128.614380 -1383.439575 -576.766602
-208.307968 -1373.217407 -586.912292
-299.928650 -1222.002441 -1025.655640
-24.543005 -1364.406006 -711.299927
209.572449 -804.015564 -854.070557
27.390938 -764.482544 -979.708862
233.340775 -714.777588 -860.045837
-196.175217 -882.327087 -593.349731
-50.953938 -922.368042 -520.463562
-392.007141 -1227.813843 -743.231262
-51.781292 -931.343994 -544.682251
9.336526 -1436.010498 -711.996826
-276.757721 -1266.272461 -883.855469
-99.010521 -1388.474243 -647.046143
-39.476803 -892.049927 -778.177917
63.127213 -1377.593384 -1080.610107
-114.998154 -1387.993286 -705.507874
-90.792892 -841.028259 -673.642029
262.419586 -863.395325 -806.518250
-96.516792 -1410.166260 -597.075073
-2.328184 -1463.740723 -648.684326
232.584824 -580.315796 -909.623108
-55.658882 -1397.294678 -670.744812
-427.548248 -1167.097656 -857.776672
154.519821 -592.694763 -938.361450
60.288918 -670.844971 -958.778137
-46.047127 -918.352234 -525.817200
67.922653 -670.976318 -957.594666
-60.548058 -858.174744 -884.725220
-382.005341 -1273.472900 -657.660889
-35.455315 -1408.489624 -901.141418
-2.420309 -898.753845 -683.990845
-241.463867 -1223.857910 -1018.828125
210.866516 -679.194946 -895.227173
-110.330200 -1330.434204 -923.906067
289.420715 -695.382629 -837.314209
-20.140339 -944.041504 -507.605316
-269.655670 -1235.422119 -775.741455
118.334015 -977.037781 -582.314819
-293.468170 -1231.760864 -727.011414
-64.750793 -872.375610 -675.768127
-198.223557 -1364.341431 -627.966492
206.115036 -643.341003 -904.080139
95.126328 -928.786011 -855.298157
149.132751 -705.534607 -917.227844
-81.656227 -823.013611 -892.132385
35.552155 -1437.498901 -763.222473
301.656891 -644.872803 -857.022400
301.449493 -739.098083 -815.148865
-91.635979 -904.358459 -562.280945
99.639473 -940.617126 -752.842468
198.018188 -622.940918 -905.070679
-279.269135 -1277.504395 -641.467529
-111.041077 -797.369873 -840.453796
4.794965 -1408.433350 -738.573669
-117.837547 -1395.893066 -668.246704
-264.969849 -1163.335449 -884.471680
303.203888 -732.856262 -816.773071
92.756264 -597.561768 -972.732117
35.005299 -668.655884 -980.691833
-321.864105 -1308.565063 -566.815125
-262.424713 -1343.542236 -608.556030
-379.919647 -1205.552490 -849.578064
316.648682 -603.652832 -918.705627
-382.025421 -1230.040649 -758.747070
-276.444580 -1313.470947 -583.976685
-51.031429 -875.139771 -882.083435
-66.376038 -1346.471436 -743.044861
-22.706186 -899.445129 -689.854370
-393.874725 -1223.742432 -739.624878
216.557602 -592.895325 -926.287048
253.681595 -817.755249 -801.702271
-324.078613 -1308.652100 -551.810425
97.340942 -640.498108 -946.529785
207.895386 -575.625549 -945.234924
21.788729 -903.898010 -842.837036
-130.363434 -1409.106812 -579.387207
-62.163052 -1378.805298 -910.038879
-236.279785 -1292.719482 -760.081299
-149.062485 -1385.367188 -589.123169
-116.899284 -850.777405 -615.654053
-49.053833 -864.804749 -727.955750
-388.645172 -1277.958130 -577.585022
-11.830472 -910.384216 -567.103699
-212.051163 -821.501343 -677.714172
-26.692709 -914.650085 -566.410217
-51.022877 -1410.159302 -618.643250
-138.782700 -832.772400 -633.850281
-211.270950 -801.617065 -664.766663
265.242340 -807.770630 -821.359802
-289.029083 -1255.134399 -650.523987
74.904755 -954.736389 -762.103027
-74.383759 -924.324646 -525.884888
-322.078522 -1224.306274 -615.612610
-158.102722 -1281.252563 -793.375305
101.773308 -647.112183 -959.041016
-244.267838 -794.151123 -645.037537
-316.408203 -1213.326538 -1019.501892
11.436855 -1397.609741 -923.596924
-160.973923 -1395.132568 -599.645081
302.225128 -584.956238 -880.254761
-319.997711 -1306.705078 -524.990112
-166.714417 -1367.637207 -567.736816
308.827301 -692.230286 -840.396301
167.939224 -721.506958 -902.775696
-220.540054 -795.320557 -688.518005
-440.359558 -1172.488159 -842.004822
-368.875824 -1239.038818 -733.301514
-12.820835 -905.741882 -698.128174
-315.709991 -1256.098145 -795.321411
-128.910995 -1350.143188 -740.320618
192.966919 -559.584412 -945.005249
-313.401428 -1307.426025 -543.906860
-92.138008 -1288.068115 -841.023071
-4.581371 -1430.242432 -706.605469
-351.399872 -1181.043091 -878.446899
298.198273 -716.653625 -818.055603
-344.346832 -1229.245728 -873.980835
-167.870514 -824.867310 -637.557495
-396.023468 -1167.732910 -1006.397583
-72.896614 -849.304993 -787.435974
-150.800537 -1336.342041 -793.700562
102.225410 -659.894348 -942.207947
-80.013390 -1321.234619 -708.926941
-318.793640 -1296.477905 -619.824768
-66.970375 -878.610657 -634.858337
19.632706 -910.139954 -782.265747
117.538803 -1440.170044 -1102.886475
-459.566986 -1173.282349 -755.913391
247.694656 -695.421204 -857.017639
-362.648376 -1265.488037 -572.148132
59.232925 -1390.422241 -1019.415283
-343.533600 -1187.472412 -971.604797
-132.841690 -1283.395508 -768.953308
87.158089 -939.963501 -598.669312
178.235703 -622.948792 -932.612854
-78.257133 -865.670959 -765.879883
-33.835175 -877.437317 -912.736877
-178.796707 -824.502563 -653.459473
139.060455 -614.854919 -942.187195
-360.743195 -1249.838623 -707.178406
-159.767105 -1355.728516 -791.764343
-86.821709 -909.152222 -541.101196
-115.660767 -1294.855225 -805.677917
-422.657410 -1210.255005 -735.851501
159.286148 -809.432922 -890.913818
300.959015 -861.327576 -783.624023
-241.757599 -1270.895386 -1067.454712
-82.473755 -884.043396 -646.653015
-3.209224 -909.823547 -737.706116
111.290840 -960.213867 -794.802551
-265.311218 -1339.483521 -585.695007
-91.980247 -1320.396973 -802.969360
-39.790821 -841.709045 -828.487122
22.427780 -947.382385 -624.652466
-298.526642 -1276.774536 -701.037231
-18.110361 -1002.923157 -510.980133
-423.649261 -1229.448486 -569.271118
185.278763 -570.492920 -974.822510
-165.038376 -1339.343872 -773.781677
-198.058578 -842.401184 -609.766357
248.946747 -763.356689 -843.706482
3.049567 -882.590088 -897.046997
50.120426 -927.668457 -863.936646
289.505249 -607.630798 -872.264038
-408.257111 -1143.776855 -866.280212
-314.717682 -1283.896484 -592.642883
-366.819244 -1230.825073 -801.918030
-240.048019 -799.586365 -665.433655
32.630131 -903.963623 -872.515625
-313.586517 -1222.702881 -1070.363892
-411.181396 -1190.902466 -843.183533
-353.997650 -1207.070190 -846.188110
301.970551 -670.914917 -840.880737
-92.646660 -1384.243408 -698.746582
165.201981 -722.972351 -910.499939
-351.913177 -1174.213013 -1035.705566
-140.690140 -799.991150 -752.373108
-79.766525 -1406.040283 -705.639404
-40.922527 -928.021057 -523.409119
-229.408600 -1331.698975 -676.273804
190.713135 -836.990173 -866.432922
-88.127769 -877.461426 -581.475464
-214.336563 -1344.142700 -658.380249
-448.449493 -1186.950073 -796.898193
-95.593613 -913.975952 -524.643005
-293.567047 -1232.105347 -605.889404
40.607887 -952.388550 -597.391418
-348.676117 -1237.897949 -735.851990
-459.308838 -1173.259521 -816.642090
189.317139 -749.006836 -881.520569
-168.171844 -854.465149 -594.112122
-298.165344 -1271.141235 -685.501038
102.167664 -702.229675 -932.328003
-80.807030 -1308.365601 -818.539124
32.321655 -941.253784 -629.566040
98.910431 -942.169983 -744.399841
234.516556 -859.215332 -816.389954
231.974213 -597.323975 -922.277283
-338.969299 -1189.003296 -961.397766
-296.512146 -1275.129395 -655.748596
-80.542702 -855.468567 -709.970032
-126.767868 -900.552063 -560.582642
-474.746063 -1162.873535 -823.440857
46.544071 -970.417542 -549.741821
-196.380661 -1332.858887 -662.037598
-362.379883 -1247.879639 -739.783630
-29.194695 -922.524597 -605.952637
-329.790131 -1281.630249 -544.936340
-76.162308 -911.600098 -506.040192
108.641228 -691.281250 -944.853210
-177.562378 -1376.094238 -654.663025
-29.660580 -1340.993530 -975.787109
-138.126495 -789.764709 -791.167175
140.511841 -817.898621 -908.160645
344.283600 -632.149536 -858.058655
300.540009 -598.916687 -884.064697
-240.540924 -1360.076050 -569.978027
81.566902 -727.052185 -943.084473
121.948967 -672.849915 -928.666443
-162.060394 -1246.202271 -806.415405
-290.908081 -1279.151245 -603.414734
-27.352215 -1373.228638 -665.713501
-190.552429 -827.422974 -616.680542
-209.408386 -1274.305786 -1058.332031
-163.386093 -1332.514038 -817.478394
-324.475403 -1271.364258 -783.574829
-151.411987 -907.325684 -557.072632
-38.257732 -1337.921021 -975.249023
273.119446 -664.670227 -852.294739
-199.609772 -1372.737671 -605.160645
-330.443390 -1188.029419 -1018.527161
-348.603516 -1159.315796 -912.938232
325.488312 -645.378418 -830.602600
352.618195 -707.620239 -807.245300
92.562935 -1423.769409 -1116.177246
-327.146118 -1231.420166 -630.643250
-2.587886 -895.650818 -782.080200
-429.487518 -1208.453247 -713.654480
260.398163 -849.233459 -812.195251
145.355347 -1422.934692 -1071.454468
84.155327 -740.340027 -941.093872
161.622543 -632.344727 -925.101196
-396.644440 -1220.712280 -773.065674
-199.192184 -820.218872 -632.885986
159.692108 -577.226501 -945.753601
-266.740784 -1327.768311 -594.794067
-303.147980 -1252.927612 -855.218262
-182.610809 -1349.987061 -698.172180
-49.936356 -846.116638 -760.138062
-86.282310 -838.837891 -830.058777
-125.351128 -855.124084 -578.780579
263.719788 -746.715698 -828.553955
132.379166 -826.974243 -879.720154
170.344940 -810.266113 -882.744324
-226.348801 -789.995789 -701.547058
-94.672089 -827.495056 -829.124207
-92.285461 -935.413086 -529.906555
-272.471527 -1250.154785 -886.663879
97.080589 -712.429504 -942.628113
-380.634888 -1283.602783 -570.007813
-108.667160 -891.202515 -540.945068
-5.802318 -919.645020 -637.850586
-137.464386 -1404.270142 -583.409424
-16.694344 -1376.997070 -948.733215
44.627037 -941.216736 -580.578918
-241.856552 -1207.197998 -854.361633
52.881092 -904.173157 -861.351501
-299.401123 -1305.678589 -576.046387
-355.522644 -1272.260986 -540.035095
96.682480 -812.816345 -904.284973
-121.854446 -1405.195190 -605.851440
-44.058308 -1375.112671 -795.137451
79.454247 -667.365662 -952.622131
-266.930420 -1264.906982 -741.240356
-146.459076 -881.643555 -554.228333
295.237427 -643.664490 -851.347473
306.960449 -610.135986 -879.794739
-149.417084 -1287.418823 -786.404297
-27.461397 -1386.045288 -807.757019
-182.035187 -1373.228394 -618.479492
78.763420 -711.281067 -946.465759
253.863068 -845.944824 -803.178650
-22.999277 -1385.269409 -709.518982
-180.413727 -1365.023804 -634.235413
-133.389481 -865.364502 -632.291077
214.487244 -814.085815 -852.193054
-41.902275 -873.724182 -841.877197
-122.409538 -1357.197144 -773.648132
-291.639252 -1286.663940 -642.386230
-101.923180 -1389.484619 -635.459778
-40.654110 -1381.224854 -813.017883
-66.715157 -1387.756714 -719.512390
-223.046341 -1308.146484 -724.687805
-212.752914 -1357.561157 -622.553833
79.116173 -919.802734 -863.156738
-9.618472 -953.907532 -517.331238
-52.118443 -1400.726807 -704.348572
-196.168671 -782.036987 -744.563232
248.560257 -588.090759 -912.425293
-461.159088 -1137.394043 -900.507996
-326.499695 -1195.524902 -927.616577
-400.239380 -1115.790649 -921.651245
-74.420433 -1421.430420 -650.407349
245.419052 -631.543396 -875.896240
-425.453827 -1190.820801 -827.310547
77.018234 -938.120056 -630.036804
-393.356171 -1166.292725 -882.214478
-351.003143 -1297.721313 -542.059204
-376.893585 -1180.589966 -1000.969727
84.522476 -935.616272 -761.579285
-193.042542 -1190.142456 -929.446960
-375.460785 -1180.741821 -896.900391
188.470291 -699.156494 -893.492859
248.684097 -899.925659 -777.288696
268.984070 -768.371582 -828.827209
-392.355774 -1220.645264 -785.934692
-161.727142 -802.583191 -672.219360
-33.418140 -869.741943 -802.247803
-315.440308 -1290.999146 -586.609924
169.726486 -815.097412 -855.018616
-67.103783 -899.004883 -607.475464
-109.655273 -1378.557983 -743.529480
-148.460892 -845.169189 -700.660339
130.682205 -951.200562 -781.931824
-107.410080 -1408.518433 -599.084473
-98.914513 -847.558838 -616.006775
-249.748611 -1175.679688 -873.427734
63.870884 -925.116699 -843.358398
-33.309811 -1393.324341 -694.186584
300.046875 -741.881775 -802.025269
-223.243042 -1317.161255 -741.409058
155.002960 -575.421082 -946.395203
-380.032654 -1271.791260 -588.082397
184.585983 -755.624573 -893.578308
-116.872490 -826.066162 -720.514160
