ply
format ascii 1.0
element vertex 1367
property float x
property float y
property float z
end_header
-117.272781 535.576477 -1355.074463
-244.778503 948.811646 -601.067749
-79.927513 801.868164 -1334.618530
33.587784 706.586487 -1349.100708
-273.830963 933.200317 -625.079590
-145.528214 600.977478 -1300.252930
-293.408295 751.342529 -1317.031860
-104.936417 766.327820 -1338.636353
-219.083130 998.388062 -450.049927
-323.104279 664.988098 -1332.629395
-398.339691 613.959106 -1300.345093
-133.929337 850.442444 -1298.542847
-381.268433 758.522766 -835.953186
13.884067 608.642639 -900.769226
7.333446 691.537048 -1343.647827
-158.880173 1187.564941 -1280.057007
-315.957245 747.481506 -1296.402832
-197.538742 534.964966 -1338.649170
38.709591 743.842285 -885.130859
-297.735291 918.874939 -715.059204
-85.743462 966.845276 -596.832581
-65.360390 971.704407 -669.961975
-157.685669 967.092590 -732.452393
66.913483 787.528015 -1350.179565
-99.600632 960.209167 -747.729370
-368.948212 770.769592 -819.912903
-19.439440 699.349548 -858.555359
-34.699127 626.452026 -869.911438
-0.179087 637.739929 -1329.338989
-252.580444 950.219238 -574.212891
-50.119118 980.598206 -636.978149
-92.629547 818.922974 -1327.337769
-344.947266 854.156250 -1284.382813
-135.322220 546.246887 -887.973022
-21.751583 728.128662 -1352.549561
-299.189270 932.455566 -659.505554
-257.409607 953.399963 -625.670898
-282.409119 825.677063 -1275.536621
19.742565 669.020752 -890.828003
19.778185 732.447144 -873.248840
-193.007767 957.340210 -537.005127
-400.018341 947.894165 -1319.939941
-302.827667 640.355408 -849.849243
-59.096233 984.559143 -646.163818
-143.988876 609.216003 -1304.594482
-227.075943 654.793152 -843.515503
-62.447449 520.183777 -1343.693848
-189.083618 733.065613 -835.460022
-210.664719 485.087891 -1322.170776
-95.098709 966.423645 -722.255920
-405.799683 899.867004 -1285.879272
-214.585648 952.868958 -601.291443
-220.979111 957.419189 -543.214783
37.892216 614.973511 -908.957642
-191.182892 794.763062 -844.667664
-83.083519 711.159607 -1322.149170
-370.852905 700.671448 -1309.082642
-216.404724 953.472473 -656.212402
-166.588943 837.903809 -1285.190063
-132.922501 639.125732 -1287.442261
48.561268 720.440186 -1343.219604
-349.855652 860.216064 -1290.250732
-165.932251 622.656982 -844.438171
-73.872726 696.962097 -849.470093
-193.694931 557.967224 -1355.643188
-90.884430 679.406555 -877.088867
-66.680038 509.423279 -1355.012451
-269.275421 827.462097 -1303.009399
-338.010071 608.044128 -1304.440308
-72.058670 533.080383 -1333.927002
-131.533051 662.249023 -1334.709717
-101.310768 976.242859 -553.427979
-238.269989 594.330261 -1329.255493
-342.090088 667.997864 -1302.244141
-47.138538 677.356384 -861.539917
-305.905609 574.521973 -853.607605
-28.281487 970.691833 -695.310730
-79.481064 960.481445 -689.448242
-205.150787 486.282593 -1334.632690
-209.722351 738.499268 -837.042236
-95.820946 809.400635 -859.064087
-191.172394 913.654541 -844.652344
-320.741333 610.105713 -1323.389160
-197.097351 487.350555 -1335.702271
-43.721195 981.140686 -675.211182
-359.420593 629.999207 -835.958679
-387.327484 664.932373 -1305.602295
-21.613811 843.458191 -1319.293213
-68.827850 982.961914 -1307.382813
-441.266266 855.526855 -1312.533325
-101.119904 742.838623 -848.784851
-328.843201 679.989929 -824.520081
-176.513306 642.516235 -1210.397461
27.350258 612.597290 -893.970032
-194.832672 961.650330 -509.123657
-294.230164 685.761780 -845.603149
-203.328384 957.763794 -517.317810
-368.518646 686.542603 -1310.145630
-189.652954 676.544983 -868.942139
-303.787720 918.420532 -732.041199
-29.132296 895.511719 -1312.798096
-181.193756 1074.921387 -1244.417603
-67.172249 978.237793 -670.874390
-96.967056 839.401184 -1325.040283
-80.256592 698.875244 -1322.940674
-186.026947 542.142761 -886.168762
-160.005722 964.539246 -603.244690
-101.573372 972.645813 -593.849365
-143.701447 1091.515015 -1254.554077
-193.985214 958.088501 -678.353638
-327.112549 921.805664 -622.635742
-74.624397 642.603516 -870.723450
-128.777695 1065.801270 -1292.297974
-191.820129 1219.935059 -1294.740601
-250.576324 987.604553 -489.492767
-252.684341 543.553467 -862.186584
-254.648788 787.518188 -1300.578857
-141.020569 978.263855 -533.082214
-201.440872 978.369751 -454.720001
-335.877472 929.216736 -632.163391
-130.544357 965.656006 -593.690247
25.159609 696.231384 -867.185120
-124.008247 839.727051 -1273.820190
-269.228607 929.776733 -736.485474
-108.093033 576.136047 -1344.164917
-245.804352 520.879578 -898.333618
-368.790802 850.741821 -843.672363
-95.863037 865.162842 -1266.389160
-55.551746 762.736938 -1341.963867
-201.205688 595.837524 -842.549744
-67.016533 762.196899 -1347.316040
-168.483063 623.468933 -1300.368286
-444.151459 626.315125 -1286.935059
-453.007599 967.755371 -1272.166504
-109.832985 786.746521 -863.339966
-338.882233 719.631165 -1309.759644
-181.755722 595.089783 -1319.052734
-233.298279 785.738220 -859.112122
107.235275 889.150208 -1324.111694
-229.699860 936.660583 -842.720337
-242.545624 550.199951 -1318.225464
-327.504150 615.510864 -1324.055664
-103.951653 619.308777 -1298.432739
-49.481453 966.667175 -674.522583
8.860893 603.039856 -911.739380
-331.232910 609.168152 -838.189880
-241.620453 787.940125 -1330.082886
-481.180573 770.881409 -1300.097412
-374.318481 710.760376 -1290.890137
-64.527870 978.453796 -556.909363
-129.987534 515.822998 -1331.187500
-76.067268 749.750854 -1320.463013
-92.705650 574.589661 -896.389526
-149.106873 498.630005 -1338.875854
-82.345863 962.221191 -726.793640
-361.447052 914.169189 -674.920166
28.524343 768.240112 -868.136902
-126.633163 717.134949 -858.034607
51.483101 671.892578 -895.872375
-28.352310 594.154785 -895.097412
-309.634796 924.836243 -632.753540
100.943474 781.916809 -1348.696533
-143.154984 645.578857 -1307.161499
-131.872406 903.737244 -1267.286377
-282.599121 660.050842 -1334.360352
-347.686066 919.925903 -614.860840
-158.974365 691.398682 -1185.154053
-348.176544 611.901245 -1320.403076
-68.883537 585.438538 -882.551636
-278.956940 508.985107 -1317.867920
-80.939072 974.043518 -569.377136
-114.333061 698.207947 -844.835754
21.177385 657.468140 -1344.922485
-166.990112 602.880615 -1300.608032
-284.179626 533.750488 -867.467041
-257.832245 554.672729 -1333.627075
-325.928375 783.799683 -838.661743
-2.626517 666.687439 -1348.687256
-106.583473 654.370911 -1339.573730
-102.302193 598.474976 -1340.093628
-123.119881 849.325928 -1330.891113
-191.727173 694.983032 -862.966858
-59.136459 568.535034 -1347.870483
-45.478344 874.982056 -1260.829834
-3.609056 629.017273 -882.828430
-297.675995 943.815735 -543.231567
8.823493 823.551270 -858.089355
-145.688660 857.600830 -861.903442
-332.097656 920.427795 -672.741821
33.771595 712.362427 -1356.916260
-182.575195 631.734436 -866.743103
-201.659821 521.726563 -870.589905
-226.804153 480.987610 -1324.182861
-87.202293 653.641663 -861.829712
-75.033264 858.956055 -1314.728027
-132.983063 837.166382 -1276.330688
-175.990128 844.241272 -1272.833862
-205.137238 598.654175 -1330.276245
-103.452042 971.162048 -666.608154
-161.772232 697.167419 -1201.700684
-328.110016 694.195557 -1330.823242
-11.029744 638.003906 -865.617188
-12.753710 977.335449 -725.378662
38.151413 729.070984 -887.271973
-115.380989 535.251648 -1346.630249
-181.224060 690.040283 -1168.556030
-171.414993 564.644287 -1327.894775
-146.601303 974.989807 -494.342987
-40.523178 685.750854 -1339.559692
-327.448517 923.259644 -651.944458
-266.266968 772.655518 -830.341614
-245.518097 615.518982 -1340.931519
-397.276581 639.467529 -670.644043
26.927467 800.567200 -855.767151
-436.759277 632.029358 -1283.494751
-446.797058 721.543701 -1277.905151
-14.256877 616.783691 -876.002136
-221.098404 509.160797 -877.949707
-52.895672 961.988770 -677.377869
28.527233 639.458862 -899.510071
-113.005455 790.023743 -849.812500
-433.671997 614.171875 -1302.932251
-166.142120 614.965332 -868.707031
-60.553570 644.770813 -867.430847
-190.910843 639.248352 -1328.000244
-27.722790 818.571533 -865.163757
-135.180298 527.337830 -1347.545776
-329.109863 578.431885 -854.224121
-148.285919 924.708679 -850.765808
100.609688 828.570007 -638.578003
-43.171486 713.248108 -855.509521
-6.994564 784.955322 -870.238525
-119.126747 833.373291 -1290.744751
-448.283386 876.375793 -1315.434082
-292.226318 582.827087 -1336.160278
-203.614944 964.180115 -501.596130
52.645645 723.806091 -1328.709595
-194.399689 753.344604 -1305.897949
-153.177032 838.114258 -1286.147827
-115.080093 981.313293 -1301.151733
-59.283249 634.288879 -1358.407959
-4.165480 629.127686 -874.406616
-77.349144 810.935730 -1311.445923
-44.668987 989.898560 -534.788940
-188.602173 657.773804 -870.273254
-57.835354 659.057495 -1354.353882
-52.416824 618.663574 -860.351074
5.620343 840.685974 -1309.184082
-39.775017 757.065735 -870.757996
-168.146072 602.283264 -858.200012
-201.427094 945.494812 -656.167725
-194.136444 959.466736 -677.711853
-163.798370 686.632568 -1311.062988
-302.270050 936.415405 -559.396362
-49.732903 749.032349 -859.245605
-241.767593 553.554199 -861.933044
-182.580658 559.591064 -889.871399
-36.466228 647.569153 -1341.145386
-197.784058 813.075562 -1284.943604
-346.281189 912.559814 -654.516357
-143.480042 597.339233 -1292.899414
-148.243576 1065.746216 -1276.892090
-454.472290 706.094421 -1271.799561
-197.722946 955.658142 -633.997803
-126.184113 1107.661499 -1288.955200
-35.636395 581.542114 -889.785339
-341.309875 649.071899 -1319.539795
-82.013016 922.877075 -1326.455078
-153.082184 645.091675 -1312.124756
48.283604 689.037292 -1353.106934
-49.544159 972.102051 -695.718506
-339.374237 954.072693 -505.799896
-202.531143 585.557495 -1330.722290
-399.780121 698.487976 -1288.816040
-291.285614 781.811707 -828.787048
-248.688995 964.776428 -503.289917
-148.924866 679.675354 -1257.478516
2.874152 614.494751 -903.308289
-305.665405 944.018311 -594.236389
-146.383102 736.562195 -1107.338989
-66.486908 963.705200 -639.389648
-205.620453 798.445496 -843.810486
-138.739746 646.786255 -1238.141724
-155.800522 976.845398 -1300.775757
24.789118 694.041992 -874.274963
-244.975037 668.492310 -1324.364258
-104.719727 557.844238 -1333.757202
-146.905212 982.896240 -1277.794189
-344.488068 625.562439 -1316.388306
-299.148682 787.212585 -1309.118164
-27.490503 774.829468 -870.157898
-459.175842 827.328369 -1298.007324
-177.970642 798.707947 -835.060913
-6.746938 644.572815 -872.935120
-135.279724 850.608765 -853.521545
-279.081512 957.953247 -541.256104
-312.323883 942.196289 -647.721375
-195.504898 976.985901 -1295.771729
-192.017838 626.154724 -1334.733276
-368.080017 680.780823 -829.815796
-65.595116 983.939758 -612.460876
93.705246 903.658813 -1299.083496
-73.980896 689.249451 -1341.226807
-363.967834 917.956360 -613.656616
-330.456329 679.793091 -1313.020752
-111.026840 845.029297 -872.299316
-156.598221 608.078918 -857.100342
-184.404068 765.461487 -1174.570190
-29.414440 753.947998 -1338.555786
123.379677 714.552856 -726.567261
-222.608154 956.027039 -606.710022
-119.546829 733.146667 -1346.562500
-6.978720 604.358765 -1334.424683
-85.365601 589.185364 -1344.675537
-280.103119 838.653625 -1244.375488
-222.574097 573.093628 -1330.525879
-52.993793 993.195557 -586.014343
-324.138977 724.576843 -845.871887
-100.464233 621.232483 -861.287537
-251.172668 706.680908 -1323.077271
-313.619720 933.726929 -647.482178
-31.332907 977.796936 -669.776123
-166.286942 778.866760 -848.163330
-66.539398 584.099670 -1350.375488
-20.661602 732.340576 -849.973267
-149.245041 508.188629 -1336.705200
-167.629791 497.720123 -1347.380859
-75.316116 959.181885 -1323.057739
-285.994904 731.122498 -1297.153931
-181.963531 950.498230 -629.305542
21.903645 816.821777 -832.376282
-44.515335 794.394897 -1337.861084
-234.880402 590.966125 -1327.598877
-167.794235 551.540527 -874.117920
46.003613 853.599609 -1314.407593
-256.233398 948.832581 -616.216064
-37.350922 716.489075 -1340.362549
-153.413574 963.185913 -685.825439
-261.274872 948.900818 -740.855652
-120.084290 718.690063 -851.566467
100.623573 782.359741 -1339.802856
-373.520081 742.890076 -1302.771851
-38.282528 658.004089 -864.437378
-69.862999 578.863220 -878.475952
-327.305725 924.193420 -623.373840
-121.328125 557.441284 -888.716370
-205.981369 792.426575 -1201.207397
-140.075104 966.482544 -628.260254
-319.944275 577.520935 -1326.945679
7.591079 917.288269 -1315.652344
-167.753220 838.561951 -834.435364
-253.983856 960.647888 -480.545654
-159.716187 494.731445 -1342.040771
-99.449493 772.317566 -853.191040
-389.778778 780.151855 -849.477600
-13.367828 856.496094 -1335.522339
-337.706421 719.707825 -867.081848
-113.396439 971.079773 -521.026001
-282.938934 938.186584 -695.767456
-250.691757 955.747620 -615.122070
-240.579163 549.012695 -886.793152
-90.399361 781.744995 -1343.865723
-105.375359 834.739197 -1324.819824
-169.030807 916.778992 -857.758545
-211.817200 962.622925 -510.900330
-64.699272 698.123596 -860.018555
-223.209717 587.805847 -860.456665
-286.647125 803.449707 -1276.609131
-57.891796 761.195618 -852.680664
-324.611206 777.618286 -853.969238
-342.544189 938.815735 -1287.113892
-378.348267 911.919312 -1288.977417
-254.866226 902.861877 -826.251892
-57.396984 721.963806 -878.169617
-101.858795 1008.854675 -481.157074
-89.023102 873.615356 -862.260925
-110.368622 571.118347 -1318.338745
-276.975464 759.235352 -1236.313721
-158.756958 623.635986 -857.356995
-151.141342 794.588562 -1333.657959
-5.707858 725.388977 -1350.479614
-183.813553 541.241150 -1338.440552
-233.343674 516.414734 -1318.745117
1.621567 620.524841 -894.167480
-155.686096 970.262878 -510.331329
-160.783752 690.433777 -850.876404
-74.344101 524.028381 -1330.539307
5.371914 585.815125 -911.854370
-431.419800 760.942261 -1273.341797
-326.925171 880.641235 -845.932495
-24.756775 599.739014 -1352.849487
-255.664047 544.954956 -861.084961
-208.990463 591.726807 -1318.903442
-46.467770 963.661499 -638.984924
-324.884033 940.484985 -501.485352
-131.116913 972.207825 -576.884705
-13.843241 756.705811 -855.351135
-261.631500 763.297485 -1331.836548
-228.916687 936.379944 -737.002686
-284.016144 667.720947 -831.002686
-284.225708 938.360413 -586.232117
-275.361542 622.921204 -864.161499
41.580109 711.371216 -889.651367
-60.165169 844.498718 -1287.369385
-30.152771 798.468994 -1223.788208
-358.458618 916.375977 -635.066895
-58.335575 602.882813 -1342.708252
-182.720932 958.315308 -721.451416
-241.085419 586.832825 -1332.080444
-37.249382 812.723572 -1253.802856
-289.576050 706.823364 -829.847900
-65.987930 992.283752 -529.890198
-176.752579 939.499023 -712.130981
-332.012024 926.063049 -611.154114
16.267487 736.774109 -848.102905
-93.597061 974.275696 -669.633667
-271.237366 644.797119 -1328.064453
-22.318743 974.328491 -618.877808
-478.453186 813.033447 -1309.663940
-225.137070 792.331726 -1179.676147
-228.132874 940.361450 -657.120911
-409.608704 672.264954 -1290.987793
-250.167648 714.104736 -1326.639160
-257.120941 933.211792 -682.654236
-416.513824 625.244873 -1317.224976
-75.770409 574.197754 -872.943726
-209.814285 585.270691 -843.637390
-344.607819 837.692139 -1283.235840
-241.937668 808.974976 -846.834595
-10.278610 725.238525 -1340.969116
-59.218060 734.596252 -857.841370
-101.401543 786.723755 -842.977478
-133.561127 1175.627686 -1302.035889
-53.278118 811.557068 -853.606445
-96.767853 843.306763 -871.148926
18.328167 614.133423 -901.199097
-321.342773 736.560852 -826.914307
-478.746552 623.739929 -1290.941040
-237.650742 819.329285 -1242.855591
-198.106323 971.019775 -473.438629
-121.834770 607.403076 -1327.097900
-336.616760 924.981323 -731.722778
-361.419434 737.536987 -1295.144897
-289.549896 944.070740 -568.987915
-290.216858 853.532898 -855.693420
-265.146576 785.026917 -859.367493
-162.263321 546.104248 -885.039368
-108.187416 531.296631 -1340.705811
-298.559265 553.153809 -865.047424
-85.905579 993.891907 -484.558594
-281.393555 938.964355 -551.873169
-404.722687 678.549255 -1285.605591
6.424146 599.731689 -931.091187
-401.601929 598.015259 -1315.252075
-98.051155 958.634277 -681.092102
50.572468 676.789001 -1353.681885
-176.038712 981.134521 -456.050262
-248.801956 801.429749 -1224.398315
-160.545151 976.049805 -472.537384
-56.240047 981.338806 -730.261963
-84.535339 979.316162 -586.785706
-276.247925 561.456421 -859.762878
-176.913406 551.274231 -1329.183228
-129.074661 838.130615 -864.470764
-208.750671 742.573792 -1299.725220
-314.606964 850.712524 -850.415466
-239.311020 919.442627 -867.153931
-366.287079 671.011292 -839.192688
-73.795471 850.348694 -1295.864258
-146.503113 973.155273 -586.703003
35.608921 753.813293 -1341.581421
-62.441837 989.007263 -568.240540
-131.892441 960.275269 -625.783447
-96.188705 824.067383 -1267.115601
-301.586334 754.978149 -1316.265503
-94.166138 558.474243 -901.487488
-325.023438 764.399963 -1296.215698
-52.022926 663.741638 -871.449829
-187.513031 935.118164 -1332.149536
-241.534103 647.692200 -834.605530
-270.404480 987.662964 -453.754181
-104.593437 972.217773 -751.517700
-280.023254 930.093628 -622.797913
-151.423279 975.006042 -564.376221
-200.122925 815.593811 -1303.127075
-382.631653 913.277039 -683.010803
-20.079679 817.639832 -841.084412
-343.612244 704.749023 -1295.426636
-94.770546 984.938171 -492.829193
-272.842255 977.871521 -479.386566
-112.250221 817.200928 -843.153442
-190.223099 507.179199 -1348.188599
-372.307892 687.423035 -1295.202515
-428.246887 664.184631 -1304.382202
-272.551270 556.797058 -886.050537
-193.528275 917.131042 -1269.677002
-171.992294 649.696594 -1188.358765
-103.930992 598.899841 -1316.313110
-55.088428 815.009338 -1317.396362
-320.202332 692.968506 -866.478760
-205.268158 983.330322 -492.200989
-53.617428 781.018250 -1318.082520
-266.140717 831.353577 -847.906677
-69.195114 536.913025 -1346.470825
-236.505798 860.276917 -857.473694
-22.014139 700.708984 -863.552490
-193.641434 539.551941 -889.145935
-121.765259 614.557556 -1268.278076
-275.832397 700.552307 -1323.138550
-140.112869 759.563416 -849.547913
-36.966549 966.824402 -718.268494
-134.457626 998.990234 -1302.519531
32.809776 640.823792 -1345.858032
-275.741486 939.168274 -629.841797
-46.936401 811.593506 -1253.778931
-203.871170 859.094910 -849.965393
-226.274200 591.195679 -860.062500
23.345114 711.689819 -858.546265
-175.815369 537.727722 -874.291687
-431.857941 629.393982 -1315.842407
-218.568207 533.627075 -870.379517
-248.678848 532.995911 -882.955994
-175.157822 955.046692 -582.396057
-64.918320 753.393188 -847.790466
-93.348289 1077.546387 -1294.663696
-219.804535 995.996460 -473.038849
-145.248932 654.542542 -866.211609
-312.920441 629.294983 -839.812073
30.241652 745.586487 -1330.098267
-241.253555 957.913635 -653.896729
-297.917206 895.959412 -840.908447
-354.737732 725.966370 -1249.844238
-78.955406 744.684937 -876.153259
3.898349 894.115173 -1304.318359
-168.713760 961.095093 -640.367126
-273.935699 950.758606 -527.113220
-52.736961 671.068970 -880.391357
-103.368362 853.706604 -1313.662476
-359.684814 925.859253 -554.397522
-207.273193 684.944397 -1226.743774
-75.394394 978.000854 -584.689148
-445.046570 653.634216 -1261.088501
-80.826157 535.563354 -912.071655
-11.070348 845.712219 -1339.022339
-257.954102 833.858521 -1239.151489
105.559593 818.644653 -1320.469971
-8.020734 882.484802 -1293.510986
-262.065857 957.145569 -631.516479
-350.385223 854.865845 -817.896484
-26.236197 792.581055 -1320.026245
-119.458748 977.912598 -530.506531
-297.023376 954.483215 -499.731262
-31.844816 553.778687 -921.248596
-101.233307 983.945313 -576.997864
-60.469769 599.498718 -1359.940796
-205.939224 1193.490723 -1307.347290
-284.825958 657.082642 -868.876221
-344.373016 811.972595 -837.870544
-114.904381 649.872437 -1329.206055
-327.505188 577.392151 -1319.906372
-133.818924 592.971619 -1307.027100
-161.869263 974.149231 -544.549561
-202.922623 944.359558 -643.714111
-204.677536 493.420105 -1334.968628
-155.814346 724.929626 -1332.293091
-247.329025 1012.557983 -468.951813
-240.007507 944.533691 -714.076050
-144.050720 987.834473 -453.588043
-208.296875 805.489502 -1288.690918
-343.554199 711.988159 -1296.791504
-308.118408 709.429321 -857.432068
-153.991776 663.190002 -1320.084106
-133.367096 970.729370 -611.822998
-398.979645 624.755249 -1316.321289
-424.117798 890.771973 -1301.208618
-53.162731 833.919250 -1323.987793
-351.915802 790.146301 -840.764832
-40.203556 583.462280 -1347.963623
-307.176086 918.221008 -715.871704
-41.642494 825.145081 -1261.472290
79.648064 912.643250 -1322.937378
-130.766724 557.724487 -879.957764
-38.930691 855.390137 -1322.887329
-238.656433 841.072449 -1230.638672
-105.337997 995.219299 -470.653076
-342.510223 728.388245 -844.696167
-13.482138 778.544250 -855.997681
-119.367760 871.375916 -860.820374
-128.729858 969.258423 -597.149292
-133.793915 1200.878174 -1299.334473
-230.420853 630.411438 -849.572449
-205.939316 538.565613 -1338.012451
-88.146408 536.727295 -1334.623047
-27.831345 975.732971 -680.380798
-350.749207 911.324341 -662.171204
-177.811523 727.643799 -847.989624
-290.273499 937.659180 -551.674072
-26.069880 803.368652 -1337.499756
-377.822754 695.114197 -1287.934448
-7.113466 650.404297 -868.899719
-364.000336 752.223450 -1281.664063
-149.164078 742.988159 -1245.922363
-234.917801 955.577332 -573.956116
-86.483017 716.863098 -844.401001
-100.037628 1151.888550 -1297.148682
-149.052338 585.356812 -851.901367
-246.255707 564.861206 -865.237122
-250.706192 653.888977 -833.459534
-178.070099 899.071045 -857.756287
-13.961893 862.532654 -1306.870972
-256.302887 968.371948 -464.807434
-79.424767 626.429626 -1341.788574
-56.187653 769.038269 -866.122009
100.973213 702.992004 -761.463013
-376.719818 730.966553 -1308.502563
20.744354 611.066956 -910.260742
-313.936859 887.197144 -818.520813
-128.777908 726.747131 -864.671875
-223.850311 601.458496 -842.758850
52.861099 791.580627 -1338.349976
-143.329681 968.173401 -537.649902
-187.130035 826.416992 -859.297913
-105.451492 543.583374 -1337.002563
-230.854340 627.305786 -855.223450
-122.512543 964.525085 -728.638367
-129.074600 568.066772 -1317.040039
-215.299133 569.134521 -860.049438
-412.064941 627.122192 -1313.037476
-193.165375 523.286865 -1333.768921
-89.774551 583.030396 -1342.702881
-204.008469 533.599915 -910.171448
-124.322029 587.856323 -1343.739624
-37.066883 836.714111 -1300.233643
-141.121094 961.535339 -1257.487183
-261.911194 547.866211 -857.932739
-317.938934 866.374329 -855.084412
-119.823433 597.315857 -1329.049072
-86.580513 831.980896 -845.980225
-64.837410 1013.233765 -488.748535
-128.051010 972.154358 -712.030823
-55.386047 574.754822 -1347.813721
-6.315821 829.605896 -1296.222778
34.700268 644.343750 -907.984436
-142.974564 837.111023 -860.599121
25.971777 845.312134 -1293.570923
-171.595795 966.443542 -642.861023
-88.920654 820.186157 -1324.816162
-212.597031 526.904602 -867.467834
-187.261673 886.742798 -858.182556
-141.124374 1085.750488 -1255.828979
-158.913742 963.591125 -653.045959
-249.322128 779.703308 -859.669434
-345.233490 770.246948 -840.467102
-270.492218 930.490295 -641.122437
-117.402557 956.264465 -748.271057
-166.061264 870.006531 -852.693848
66.782898 729.345825 -709.630249
-249.787201 560.410706 -1318.844238
-25.530239 637.055664 -868.948547
-135.609421 742.577087 -1337.546143
-103.906990 877.184631 -863.719666
-48.707138 603.642090 -865.754456
-94.673691 679.698303 -1323.374023
-121.030777 942.105774 -1338.030640
-57.951344 537.914551 -1361.506226
-303.704865 672.320068 -1322.236084
15.560112 686.914001 -1341.349243
-97.447067 913.671326 -849.767944
-252.396606 952.368042 -591.283875
-289.762085 907.094971 -841.510010
-218.106018 680.180908 -1318.654053
-102.701286 959.329529 -638.897217
-123.607048 851.797058 -1307.742432
-100.630173 959.391846 -718.012939
103.906700 793.219421 -1328.778564
-385.713867 602.234558 -1320.829468
-210.771973 950.010376 -594.051147
35.927765 881.508423 -1320.695923
-343.338470 636.604919 -1328.638062
-69.420258 997.532776 -492.021759
-141.484253 972.682312 -1323.324951
-209.535385 646.628967 -869.740295
-271.652618 954.652649 -579.409180
-122.424011 961.552246 -709.201355
-284.982697 935.527039 -690.556641
-266.008636 972.235352 -469.510315
-345.887024 661.236938 -1327.051025
-359.411194 938.983826 -495.027924
-311.444489 609.332764 -1324.867310
-50.778233 646.457520 -1343.745728
-233.564316 598.458069 -858.011963
-81.133942 822.820190 -871.149475
-84.000328 661.857788 -1324.453857
-273.856964 611.576294 -873.334778
-137.455322 859.719910 -839.010986
-9.622965 754.064270 -1324.747681
-420.580750 668.894897 -1285.755127
14.194419 711.221924 -869.120728
-135.003296 587.883667 -1304.293945
-161.977600 967.691833 -578.973633
-97.635910 828.272522 -1333.737427
-62.062737 631.135925 -856.252502
15.072392 713.942322 -863.445557
-212.655853 743.229431 -847.692383
-275.944458 505.450867 -1315.739380
-160.762344 608.167847 -1297.271606
-212.738327 857.519897 -848.301880
-83.754242 621.574158 -867.881165
-243.233871 651.899414 -1330.391235
-123.246315 963.755493 -571.896362
-344.666595 742.347839 -1297.375122
-309.404724 854.792053 -842.565491
-364.560425 920.035400 -622.237549
-378.818756 661.829346 -1305.048828
-287.167633 832.960938 -858.706970
-219.424484 952.361816 -633.518677
-82.748474 642.733215 -851.329895
-273.293396 968.160706 -557.552002
-314.418854 871.072266 -1270.919556
16.738207 707.750610 -1342.736572
-178.975403 719.447937 -1273.772095
-109.676910 956.250183 -866.739624
-185.412933 966.278320 -679.176819
-167.094894 962.331665 -622.131836
-124.153259 556.880432 -1324.006958
-341.032776 938.670044 -587.973022
-121.388557 953.099731 -672.514954
-97.732056 606.686646 -881.176453
-228.538620 647.376648 -835.598022
-387.716217 651.227295 -1308.124023
-314.554382 933.301331 -554.919678
-326.511566 738.605957 -1306.911499
-3.863727 640.582703 -1354.667358
-40.622494 559.898010 -895.370728
-36.465294 702.105652 -859.479553
-150.199341 980.375854 -486.915955
-152.788712 578.592468 -873.344299
-104.437103 763.245361 -1330.971069
-186.264786 953.270203 -724.906189
-332.503845 943.534485 -482.782471
-185.913071 671.324097 -849.698792
-41.494823 645.403992 -1343.166748
-279.540833 595.438721 -1327.807007
-205.090607 576.160095 -860.109131
74.007950 844.248779 -1329.789185
-135.489639 550.295471 -896.953003
-159.229568 576.627075 -1307.833374
-171.692902 525.161560 -1324.898560
-39.437370 979.246521 -681.378540
-339.079895 916.609558 -626.291748
-171.424194 511.616272 -1348.660278
-109.817177 560.118835 -866.624390
-63.659164 528.664001 -1347.156250
-0.921580 776.295105 -856.550354
-276.495270 547.566406 -882.928833
-247.166443 583.453918 -859.857910
-95.645866 853.689880 -1270.507568
48.379658 816.497925 -1302.932007
-302.443420 940.813171 -510.638062
-54.675220 982.941772 -684.566895
-1.493964 878.834351 -1309.340210
-114.312622 687.877502 -867.243958
-147.821365 722.767273 -1320.755371
-175.009125 751.561707 -845.826050
-208.066513 586.603455 -856.317627
-140.106842 630.973450 -858.185364
-328.208862 807.883484 -838.698303
-141.035034 965.827148 -698.025208
-433.732635 645.109436 -1296.383911
-346.118744 926.883606 -738.558289
-79.318069 842.056519 -1298.481689
-62.538433 598.238708 -1327.970825
1.573848 614.644226 -890.120850
-214.582626 575.052063 -1333.590698
-268.447723 562.815552 -879.318665
-371.650696 619.292358 -1303.127441
-336.724731 719.362061 -1294.292480
-138.814911 1050.577026 -1284.462036
-82.665398 973.188232 -569.662048
-268.390350 947.600525 -523.187195
-34.827557 562.175598 -1335.604614
-418.235931 740.996338 -1278.468628
-91.358231 975.443604 -595.109253
-201.112854 822.850525 -845.007446
-466.798187 686.155823 -1299.328979
-124.360764 889.675598 -847.461060
-167.402466 728.990051 -847.939087
-302.308014 689.130005 -839.457153
-245.190720 788.792786 -1226.766724
13.370014 793.983582 -1332.796509
-416.200256 686.976746 -1263.967651
-14.783186 820.425964 -1224.503662
-203.724884 697.434998 -853.436707
-260.881226 964.574646 -463.669800
-164.328949 964.882385 -581.490601
-87.289307 968.980530 -657.781372
-16.334002 602.606995 -1353.091919
-53.942001 708.322083 -1339.812378
-268.184357 554.028870 -866.202454
-77.980995 686.472107 -1340.171387
105.647835 905.770264 -1332.226563
-126.010460 560.239929 -1349.986694
-308.225891 695.890747 -1315.760620
-75.909348 570.045471 -891.558533
-155.372894 968.930359 -568.896301
-457.440247 677.836853 -1306.580444
-265.380188 949.615234 -666.187744
27.506830 605.234985 -906.511414
-244.233276 955.489258 -530.462036
-196.898102 966.121948 -542.161377
-110.165993 810.200623 -845.797852
-166.614929 982.196899 -556.429382
-142.716217 830.159668 -1262.000854
-145.627823 626.172729 -1315.687622
-100.903488 753.185913 -850.778992
-357.409454 914.721802 -640.423523
-70.356071 551.533020 -885.048706
-88.638031 707.302307 -1352.988403
-295.957123 633.383118 -847.255371
-78.704613 518.003540 -1330.428833
-161.019592 971.410278 -530.235413
-231.362534 641.885620 -1317.864502
-142.030319 634.356323 -1202.359009
-224.741974 960.906189 -552.486511
-13.092942 628.971191 -1352.419434
-8.281869 722.683472 -849.613403
-133.193527 724.890259 -842.027527
-296.924805 938.692688 -584.836792
-327.426239 942.202087 -550.924988
-115.119057 607.787048 -860.439636
-110.520363 1024.097290 -1303.854736
-329.079010 828.638428 -850.562500
-23.540440 809.398621 -1316.062744
-76.813683 955.473877 -736.830933
-102.917549 548.503967 -1304.192627
-348.327698 589.781128 -852.497009
-206.235550 957.679138 -667.360962
-46.216270 562.448914 -901.294067
-295.458649 936.226196 -634.687134
-70.032463 533.165222 -1344.571045
-220.163712 587.207764 -861.687622
117.035011 903.583252 -1324.651611
-163.665573 960.967712 -671.558777
-240.744186 722.545776 -870.900879
3.900331 819.185669 -1331.443237
-131.158035 514.087585 -1328.829712
-112.509827 993.295776 -514.705505
-370.840271 914.085327 -638.458496
-4.038461 689.309143 -1343.242310
-332.168549 864.311035 -1181.593506
-377.420044 917.634827 -626.524780
-201.889893 951.520996 -572.549683
-23.578524 572.184387 -1349.474609
-330.295868 912.946106 -725.286377
-45.894726 780.255554 -866.087402
3.422486 608.112183 -921.232239
-99.065071 842.998291 -862.142578
-328.732849 621.811890 -1304.810181
-159.343384 960.872131 -651.554504
-107.065628 563.020325 -1334.736572
-262.634003 629.149109 -871.912292
-310.180176 937.855591 -662.148987
-125.080551 468.641144 -1328.998413
-94.422478 968.011230 -684.370239
-180.577103 530.276428 -897.121399
-348.626282 729.559692 -1291.246704
-233.543076 960.407776 -643.832153
-352.467346 918.728577 -588.219666
-12.561027 700.818970 -1347.523438
-213.622650 933.669495 -694.429993
-422.606903 667.413879 -1299.072754
-213.120865 547.924255 -1343.008911
-161.980713 796.671814 -1298.302856
-244.212753 948.759216 -605.156555
-348.528870 628.023743 -1340.636475
-154.346161 833.116943 -1255.526733
-102.467743 978.784729 -627.438293
-326.732361 723.240112 -1295.145996
-116.280487 582.058594 -1344.118408
-409.504211 623.945496 -1306.586060
9.035809 620.022400 -1345.774414
-109.662003 968.815674 -609.048767
-112.650749 955.656372 -653.790771
21.593752 833.922668 -1301.173828
-420.344666 908.310974 -1292.737549
-289.536743 809.165710 -827.632019
-297.938629 950.054810 -628.634338
64.640884 753.355225 -702.980042
-290.531067 822.742554 -848.007568
-169.333847 959.939514 -646.642639
-63.063221 990.459839 -531.249207
-318.976532 737.625061 -1311.297363
-243.709610 957.164429 -496.787079
-65.086472 981.399658 -704.878052
49.590893 805.220093 -1306.957886
-155.161148 963.409851 -606.408630
-281.232574 802.446411 -1318.641968
-51.769070 629.842041 -1359.137329
-244.066772 951.596130 -725.009338
-155.399628 989.775146 -489.781494
-249.018326 663.769409 -1313.310791
-84.307755 606.486694 -886.165588
-18.982235 685.176758 -867.797424
-198.167068 756.382324 -847.701172
-119.986450 1002.623718 -485.129639
52.193642 718.505432 -1341.159912
-119.249710 971.915100 -537.906189
27.610065 834.906555 -1300.556030
-112.615906 627.311707 -1340.360962
-176.673798 842.709961 -854.207275
-66.805649 968.827759 -693.959595
-284.805237 680.924683 -850.241699
-20.737885 762.137024 -876.023560
-305.458466 662.185608 -1343.952515
-156.778030 747.055359 -839.907104
-453.216827 645.002686 -1297.566040
-218.214905 555.909363 -1348.616089
-283.408203 665.502991 -1306.896606
-31.247482 775.560059 -1333.601685
-252.590500 953.988281 -597.668579
90.899605 869.464478 -1322.305176
-161.655945 624.825256 -859.599854
-212.277740 910.660828 -830.247620
-149.292999 602.163269 -1289.935425
-125.712059 974.959351 -559.687744
-65.916862 525.415161 -1361.687744
-273.177948 795.730408 -1312.936035
-72.397766 824.827393 -846.488464
-152.011841 997.920105 -465.291656
-496.682648 650.354980 -1282.487183
-127.061127 1021.467529 -1277.801636
-50.636288 981.631226 -753.196838
-220.776886 670.810059 -1323.370972
-288.533478 944.028870 -576.706421
-150.526535 928.073975 -845.914368
-84.346703 713.903381 -856.147217
-56.319000 562.920410 -1344.981689
-161.204132 646.159607 -858.216614
-59.978035 642.033691 -1352.935059
-236.431854 714.248169 -1290.749146
-339.867523 841.472717 -842.571594
-133.519714 965.430481 -611.221375
-221.045807 932.623352 -740.695313
-26.315006 749.663025 -1350.761353
-271.342072 529.176392 -869.578247
27.161802 697.262207 -890.616638
-52.065056 565.714783 -1343.930786
-311.982361 670.133789 -845.817627
-200.455521 563.373230 -1349.445679
-314.706757 690.017151 -1315.230225
-316.422333 598.377808 -1324.330566
-154.751068 828.086609 -1325.438110
-208.285080 1012.026001 -1268.013184
-91.568398 984.059448 -583.406494
-257.148285 968.699219 -454.517212
-319.274689 935.521729 -566.115845
-272.075684 942.494873 -709.344910
-251.182648 859.764099 -844.458618
52.621544 814.252808 -1326.372070
-127.548073 563.404846 -1335.619507
-141.438797 526.882996 -890.801331
12.392484 762.673401 -1345.752441
-123.427765 976.925537 -554.561523
-107.727966 1023.259460 -1317.784180
-215.991394 779.288391 -845.733887
-106.455170 964.636902 -691.085083
-171.090988 672.042603 -856.382324
-60.661434 855.614319 -1325.431641
-289.839386 706.640991 -1322.033936
-258.765900 834.051147 -828.459045
-161.786835 1150.670166 -1278.978882
-375.685242 711.524170 -1280.821411
-91.979019 840.051819 -1282.314087
-120.674911 845.520386 -1314.234741
-198.990845 527.814026 -908.898315
53.911648 711.704407 -1354.436890
-16.083456 734.320496 -878.826843
47.228989 826.228271 -1334.746338
-193.715393 665.763611 -847.950195
-112.730553 959.565063 -709.559814
-14.256245 702.831543 -867.207764
-102.261292 1004.696045 -1327.891602
-61.733902 600.717773 -1339.719849
-118.139610 593.036133 -864.285950
-32.436493 617.810059 -1348.282227
1.889770 813.309204 -1262.935791
-124.976143 962.896484 -689.324585
-194.703873 754.605896 -1297.419434
-275.067291 582.619690 -1329.902100
35.902802 666.229492 -893.044312
-116.864555 1000.074646 -488.992279
-226.563751 658.944336 -1327.482544
-52.457867 959.705505 -750.128357
-40.856350 765.588684 -857.142395
-279.807190 564.804382 -843.477478
-87.722321 722.396118 -1340.135742
-327.336823 888.573425 -834.070068
-90.622093 972.378113 -696.806519
-20.579685 651.789185 -872.486694
-84.322975 678.840210 -1339.623413
-122.118088 695.455078 -1163.835571
4.854441 660.409485 -880.662170
-296.268005 592.931885 -1327.241699
-197.763962 634.763306 -838.498901
-175.937881 790.845337 -1202.124023
37.521786 676.258850 -888.887085
-243.463531 874.900269 -1218.289429
-236.092484 587.616516 -1318.082520
-286.113586 656.847107 -1311.120483
-258.080322 535.857910 -1329.395264
64.666946 930.127686 -1326.903442
-153.119263 612.355347 -844.982300
-188.763031 962.164185 -620.181580
-142.094055 605.760925 -1306.332520
-189.323853 827.176086 -833.546997
-244.903549 849.337830 -846.304443
-260.977997 806.679443 -829.755676
-138.500092 675.050171 -853.048218
-164.011047 805.874634 -1319.573242
-302.532135 782.629578 -1309.606079
-126.389999 931.616028 -1324.855225
-148.828033 845.133057 -870.103638
-325.298309 928.188354 -652.250000
-200.248703 969.565613 -509.738129
-409.630676 696.954773 -1279.473877
-237.794540 548.831116 -873.942871
62.267235 903.335510 -1326.221436
-319.620178 932.260315 -550.444397
-223.577148 618.791931 -1345.516602
-483.828857 786.829773 -1285.412842
-92.805954 671.556519 -1339.733887
-193.265869 935.594910 -740.881653
-326.450256 886.662964 -1274.136719
-425.164520 701.293213 -641.267395
-94.278397 700.264465 -1334.206421
-130.442932 809.375549 -1321.701050
-97.249138 965.055359 -749.752625
-313.086884 705.249695 -846.747864
-140.212296 884.480957 -868.496033
-82.924141 674.435120 -878.046265
-226.381958 710.812988 -845.007141
-242.783386 600.908936 -865.153198
-182.730728 639.997375 -856.127930
-156.340622 929.856995 -832.341187
-195.642670 710.269775 -862.235535
-57.046482 782.328430 -1343.068970
-323.286774 776.723083 -825.942871
-135.333389 516.640808 -1316.492188
-388.151276 733.203857 -1297.769165
-88.851181 843.556641 -1307.630981
-300.372742 946.388672 -561.737610
-74.504974 982.576782 -558.589783
-18.461660 580.337646 -923.530579
-28.672110 635.242737 -1343.427734
-142.515106 988.262390 -492.084351
-140.773727 962.750000 -653.566589
-108.592834 776.094727 -1318.514893
-355.227234 924.003052 -604.248962
-49.819473 972.550171 -584.934021
-350.805908 733.031372 -1301.241821
-321.851807 700.596313 -1330.832642
31.091373 701.031006 -1344.143066
-393.121613 583.080627 -1299.865723
-221.393158 617.443420 -856.847534
-365.604950 809.595459 -845.734253
-188.759949 972.137573 -539.268616
-49.493656 767.713501 -1337.580811
-95.102997 805.680420 -1326.666260
-1.937884 655.850281 -876.018188
86.024315 775.859619 -1334.876709
-59.032059 824.674683 -1284.163818
-178.093109 577.601013 -871.053101
-380.089935 682.174500 -1311.252686
-56.399048 992.077393 -536.110046
-134.505661 847.279053 -1326.793823
-17.111778 582.137146 -907.410217
-181.699997 505.215332 -1336.514893
14.439897 636.759949 -894.807556
-181.784363 546.632935 -873.052734
-305.340363 595.574707 -1321.466553
-60.521626 789.821899 -1337.781860
-293.441620 543.425415 -1324.573730
-94.604836 656.757019 -848.769348
-161.178986 967.980652 -557.603455
-40.509964 713.108398 -1339.769653
-396.990204 819.450378 -1289.530518
-320.420685 927.878113 -632.734619
-135.229446 689.613647 -1320.386719
-8.670028 782.020996 -1339.548462
-344.740570 922.904541 -614.066589
16.477102 764.639404 -1323.675537
-106.395798 1046.383301 -1293.797485
-205.772308 633.599060 -849.917969
-75.529465 1006.049683 -1310.619263
-94.347443 997.847229 -476.488770
-103.526573 879.464905 -861.935059
-311.388702 937.958801 -622.930420
-31.650328 898.737610 -1323.490723
-46.424969 989.887024 -543.832947
-265.059692 529.561951 -874.819519
-269.032104 524.169617 -1327.484009
-8.789242 747.062012 -1347.178223
4.073682 630.666687 -874.515320
-120.757591 1000.740784 -1311.430298
34.576809 672.182495 -895.412231
-250.696243 843.799622 -860.394165
-154.147110 618.411499 -863.157471
-263.847137 888.877747 -1229.924927
-119.964081 602.855347 -860.833374
-91.825203 658.508362 -857.208374
-61.548035 823.909424 -1252.829834
-194.296814 556.341492 -870.143921
-152.565857 485.599701 -1339.386597
-46.528233 686.859924 -1341.729370
-161.931488 526.701538 -871.321167
-254.583145 525.888000 -892.738464
-48.777721 561.987488 -924.077393
-50.418324 602.734192 -1355.234985
-62.192314 826.708557 -1305.641724
-33.006367 577.814087 -893.449707
-174.491791 770.472473 -1311.214600
-123.107483 960.482849 -1324.578735
-222.422195 967.726746 -476.335938
-163.478333 592.675781 -848.294556
-322.125458 816.200256 -867.671631
128.354599 904.645935 -1324.966187
-17.783772 994.603577 -717.679077
3.687903 813.936462 -1336.607056
-141.885696 988.771912 -473.342926
-179.235794 858.232727 -1234.002441
14.989400 625.526184 -1353.331421
-385.798798 651.343750 -1301.323120
-59.271267 592.264282 -895.306396
-202.626831 811.354370 -860.663086
-166.781647 968.304443 -684.258728
-94.993347 757.908691 -1346.664795
-47.441261 663.955688 -1325.810059
-169.562744 709.018311 -849.536377
-89.168205 1190.171143 -1285.805664
-54.051231 697.787903 -1353.350952
-168.475281 951.360779 -730.442505
-202.137772 941.549622 -664.486694
-112.715919 615.069336 -1339.121338
-189.955521 966.419006 -495.543945
-186.252823 634.162781 -875.077087
-381.297333 704.778381 -1281.560303
-242.775681 957.986877 -549.538269
-8.360585 890.996460 -855.244141
-135.524200 987.695251 -496.710541
6.017838 625.768311 -894.222412
-187.663498 570.950745 -849.704895
-409.038910 690.987915 -1228.679810
-274.635132 551.426514 -868.251343
-292.593719 956.004028 -482.837067
-171.534088 662.721130 -870.751831
-154.872375 951.263733 -711.276001
-139.868530 980.375488 -1315.583374
-379.541901 909.370422 -669.542908
-385.502441 923.169861 -605.178894
-54.055450 566.524414 -906.074524
-143.694275 1020.813049 -1318.459473
-115.979347 828.649597 -1297.830688
-246.797714 650.691467 -1314.110107
124.027550 898.095520 -1325.198608
17.135454 653.875183 -894.375122
-301.144379 818.460083 -1286.704224
-361.085846 933.832703 -574.059753
-195.972458 714.654968 -847.132874
46.921005 666.292236 -895.469727
-21.516262 608.658936 -1356.330444
21.386623 721.542847 -867.613159
29.191734 679.261475 -1345.482788
-239.055756 542.473022 -1332.031372
-25.083849 713.168457 -856.567322
-351.381317 693.512878 -1314.341797
-266.684601 942.350159 -585.883118
16.350931 890.164734 -1303.224243
-85.779388 602.773315 -1335.046265
-84.619957 731.643372 -856.358826
8.356685 763.754333 -855.317810
-283.763245 934.622253 -738.128601
-130.057861 979.609009 -543.079956
-71.645721 729.946167 -854.546448
45.955826 830.556885 -1290.206543
-271.579956 786.860046 -855.103455
-330.885101 855.432190 -837.216248
-262.614319 968.189270 -498.705078
-7.567133 641.379272 -871.010376
-102.018036 1006.059998 -463.597107
-120.814980 957.093750 -638.634888
-33.064121 906.603149 -1289.158569
-185.062866 574.257935 -871.234070
-244.549942 626.026489 -1331.277344
-127.185402 965.113831 -653.497498
-92.096474 880.615967 -1259.272705
-162.111389 824.092712 -835.096985
-293.089172 768.457886 -1307.631470
-109.878304 593.721008 -1324.787231
-223.467972 568.460205 -856.607422
-108.675659 689.704529 -1335.243286
-182.894928 513.898926 -1335.361694
-203.737762 777.661926 -1213.945801
-256.600647 549.016052 -868.438477
-87.668686 996.133606 -510.504517
-242.470963 673.284180 -1310.325195
-228.790314 975.285339 -498.934204
23.451784 728.658936 -879.921692
-41.794842 990.276611 -641.343628
-214.581528 968.147278 -542.049744
-156.319290 551.116699 -1333.670166
-82.952744 511.913147 -1330.150757
-73.492691 644.330078 -1325.451782
-86.797447 975.492310 -530.933472
-294.858246 562.651184 -1310.793213
-386.571869 690.905884 -1300.290771
-393.839355 698.429871 -1302.619385
30.822767 829.392334 -870.239319
-53.742195 884.474487 -846.476379
60.866211 803.151489 -1337.913452
-303.711090 934.083069 -678.272034
-98.271324 712.926941 -1342.877808
-303.432678 572.034912 -1326.510132
-126.942436 614.654358 -1262.238159
-195.592194 962.792969 -638.718994
-96.566521 671.042664 -858.156982
-302.337585 565.132324 -854.642517
-223.223404 958.867615 -752.275574
6.744868 722.757080 -852.145447
-109.640701 973.291687 -541.066528
-162.785446 1162.363281 -1263.893311
-291.847321 942.779907 -664.061768
-142.546753 784.341675 -1321.316650
-12.922424 727.289612 -850.616577
-149.104370 953.999756 -616.451538
97.061592 870.852966 -1338.324097
-261.892212 546.437256 -1339.867920
-334.828979 933.887268 -534.218750
-286.546326 647.734375 -850.089172
27.692009 635.253906 -891.863098
-319.873627 938.711914 -657.552063
0.987127 834.964111 -1340.116455
-256.311981 563.261047 -1350.104492
-214.752838 657.971619 -1331.611938
-201.785233 513.218994 -891.033447
44.696930 838.097473 -1279.354004
-112.483551 556.823975 -888.868530
-122.808914 553.209900 -1332.201294
-276.350739 979.643250 -447.418640
-254.373337 535.274414 -1319.971436
-119.398514 649.518188 -1328.396484
-237.656418 965.052612 -507.075073
-117.407486 967.843201 -571.113525
-20.781986 700.890686 -1353.334961
-413.073090 680.199524 -1306.680176
-363.065704 916.623169 -621.852844
-192.202789 801.379456 -857.143921
-220.207626 914.775635 -852.767700
-89.182640 976.570557 -569.002441
-198.165497 770.365173 -860.795776
-14.639585 603.735901 -1344.836426
-187.088684 700.686768 -1301.812134
-87.590706 618.817810 -1337.918945
-93.339073 805.424133 -1322.606201
-89.316353 588.880310 -1315.708984
43.072853 805.477478 -1326.287964
-278.515228 937.896729 -675.243103
-0.916937 700.290649 -1352.840698
-77.937195 821.825562 -1307.005249
-287.477173 935.614441 -679.138611
-477.670776 659.404907 -1308.761230
-130.985901 973.877991 -541.931030
-325.681000 597.655701 -1308.682373
-472.334320 630.000549 -1288.603882
-240.670563 747.973145 -849.972717
-95.427200 533.634521 -1336.173340
-25.401665 690.523804 -1352.270508
-60.059814 727.604004 -871.698181
-240.577011 950.324097 -700.396790
-407.153442 675.626343 -1240.202393
-356.902618 775.364807 -1266.216431
-244.472824 619.435730 -874.222778
-211.913300 944.936523 -689.297729
-146.589478 678.668091 -858.187988
-156.062119 667.766296 -1189.597412
-350.355011 919.589233 -632.005127
-263.439178 945.580811 -525.823242
-43.939140 981.604858 -606.529602
-224.101898 959.121033 -631.148743
-214.665558 545.992249 -869.319153
-40.784859 973.682007 -663.729431
-303.395477 724.900085 -1317.642822
17.605785 915.962769 -1331.656128
-398.418945 650.439148 -649.135559
-135.307312 789.943054 -1337.088623
-204.476791 982.438843 -482.325226
-239.985260 642.489807 -1325.763306
-138.515793 967.679382 -620.340576
-88.532753 518.962952 -1347.732544
-23.051144 782.244263 -1348.829102
-275.247711 631.905090 -1337.624634
-145.252930 952.535767 -730.296692
-134.436996 667.265259 -1276.381714
-191.696823 540.548767 -1336.488281
14.363914 602.560852 -891.863708
-118.435219 1094.807861 -1234.180542
32.366997 727.687988 -865.940247
-345.297485 729.877319 -840.231934
-316.773743 925.928711 -577.727356
-421.049072 638.113647 -735.710571
-127.260361 691.234680 -866.209778
-390.398834 630.793457 -1311.339966
-291.536194 938.850708 -550.845337
-72.394638 658.145508 -864.831177
-99.163887 696.114319 -845.173340
-75.538780 868.184387 -853.820923
-115.342567 842.065979 -1308.145264
-126.052597 620.252014 -1312.407104
-138.638657 538.202393 -1356.344971
53.418079 756.766724 -831.265320
-323.713715 556.712402 -1321.085938
-76.337997 547.223633 -885.065735
-430.184662 674.541199 -1290.355103
-376.538086 642.227966 -1324.479980
-164.627731 802.363586 -851.419617
-133.141846 964.326965 -672.544495
-318.458710 951.536804 -510.285126
-207.251602 937.791504 -751.576965
-184.207870 943.995056 -684.350708
-126.934700 741.356934 -1345.659180
-214.726501 617.899902 -1327.569092
-311.201843 930.378113 -638.612671
-42.457333 574.170227 -901.035095
-130.272964 979.448120 -481.001678
-206.435608 953.759399 -638.018311
-159.669403 1029.699951 -1324.961426
-52.504601 1005.354919 -518.071228
-300.879517 948.120544 -557.325439
-43.614746 767.144226 -1346.071289
-112.526894 964.718994 -598.727844
-9.214671 633.059082 -1346.296387
-294.686523 720.407715 -1298.261108
-199.892685 973.922913 -535.017883
-200.292557 896.007446 -840.181702
-169.311905 617.175842 -844.769958
68.555099 786.464417 -733.220581
-151.370132 629.492737 -845.205505
-9.246819 636.455627 -892.537964
-265.470245 934.706665 -623.614075
-131.171829 553.266602 -874.645020
-416.194977 620.141663 -1305.706299
-60.442528 977.805603 -625.078674
-175.256638 472.880981 -1325.159790
68.861786 933.842346 -1327.375732
-196.675613 1211.663208 -1295.180664
-148.339493 1030.128906 -1293.965332
-106.425972 987.622131 -545.340698
-172.442719 589.005188 -1309.687622
-57.894604 943.440918 -1311.177856
-348.378418 915.245178 -673.168945
-334.710022 735.062378 -1298.421997
-453.929230 692.798218 -1273.325439
-83.690247 796.622009 -1330.174805
-216.316345 559.097961 -885.752747
-55.954712 819.094421 -856.820496
-75.171997 954.687500 -710.145935
-70.533295 983.144165 -558.846436
-323.061615 620.755981 -1319.224121
