ply
format ascii 1.0
element vertex 1350
property float x
property float y
property float z
end_header
-1362.676514 -80.350868 -557.325867
-1030.850098 -1.194268 -229.400452
-1500.012573 84.220070 -325.899384
-1063.108887 457.723236 -6.552395
-1601.120605 203.248688 -355.370453
-1124.435547 399.383820 -55.096828
-1319.019409 -204.473145 -497.449402
-1362.037842 -205.871002 -443.272888
-1054.373413 292.374756 272.605042
-1102.934082 276.137817 184.202209
-1392.271484 -74.554001 -537.294495
-1491.122192 0.019975 -442.328918
-1062.855591 187.321411 -305.026459
-1049.471436 6.643264 -122.918259
-1444.725464 -45.830429 -380.576111
-1489.062256 -219.257996 -223.507324
-1618.854980 191.267349 -356.676575
-1001.405212 406.700928 214.844818
-1044.252197 -59.731483 -147.231964
-1133.311768 380.616119 -1.317777
-1134.197754 202.971878 -211.946152
-1223.268555 224.230011 -74.878357
-1431.169434 156.415115 -511.324432
-1013.227478 388.000214 221.865036
-1632.590210 242.185562 -293.742157
-1146.563965 360.902710 17.804836
-1200.290161 72.048973 0.310369
-1138.515869 299.597015 122.665947
-1003.900574 521.086060 114.741417
-1400.516357 -83.794739 -470.057343
-1062.633423 364.615509 152.837067
-1472.747437 195.174759 -569.708801
-1086.182739 219.864548 -238.777847
-1150.540283 186.363312 -112.945686
-1431.316284 -55.429325 -471.777710
-1135.518433 -16.130026 -23.621784
-1427.469604 -215.956619 -339.130341
-1034.979614 115.882454 -244.817749
-1437.543701 -4.479364 -467.564789
-1162.965698 252.385208 136.523270
-1444.328613 -33.772007 -487.325470
-1249.411865 82.913414 48.863892
-1045.439209 127.701004 -239.233566
-1023.567017 59.489223 -278.120728
-1054.123291 47.664452 -173.453156
-1143.552856 37.244549 4.335938
-1534.811523 -135.020035 -223.027695
-1099.319458 405.953583 -21.805836
-1021.436523 -44.986607 -209.724625
-1049.536743 376.317596 155.591553
-1405.877441 -34.337612 -525.243652
-1703.351074 317.379333 -296.231384
-1117.391968 350.764771 69.879143
-1447.158936 114.128250 -573.100952
-1007.853455 479.128479 54.155460
-959.709229 351.656097 -194.451767
-1121.763306 382.942352 -17.770247
-1579.245117 -165.765625 -117.434624
-1001.102417 462.118378 147.266266
-1160.743652 149.889297 -104.649895
-993.840271 441.528107 186.564667
-1456.085938 89.543182 -499.480133
-1463.456665 -268.706482 -168.409973
-1249.322998 142.029190 0.240101
-1052.888916 160.884918 -263.848999
-1620.180542 -53.180019 -146.495148
-1045.802368 81.978516 -320.909302
-1479.207764 87.411980 -364.251221
-1026.024170 89.152786 -258.407166
-1021.903625 419.310364 170.686737
-1475.966064 -251.543549 -224.487625
-1180.067505 199.450653 -94.688736
-1169.434326 325.836731 24.182587
-1177.682983 37.696091 31.963259
-1008.662170 425.020813 144.965637
-1702.773926 285.714996 -282.683838
-1497.752808 -5.070460 -376.824646
-1504.712646 -61.278503 -261.308380
-1422.355591 -280.853912 -297.444733
-1450.332520 61.296177 -529.956848
-994.670471 452.159698 174.062546
-1464.464111 153.816971 -552.838074
-1398.203247 -262.949493 -322.395721
-1020.247131 21.436554 -214.559082
-1482.959473 220.161041 -569.190186
-1427.136475 -14.145162 -506.157013
-1422.893188 36.490253 -552.532532
-1477.329956 140.279785 -539.724670
-1118.476440 121.417068 -124.885536
-1060.629272 115.028313 -222.843750
-1495.964355 50.142067 -415.193085
-1480.125244 118.063843 -458.748962
-1505.939209 -26.817545 -230.782349
-1358.619995 -148.580307 -468.605225
-1116.975830 348.982269 81.306244
-1141.676514 172.413040 -128.720108
-1076.531616 193.430389 -246.585968
-1568.293091 121.142448 -364.530029
-1056.491577 173.799088 -267.707977
-1476.756714 176.037460 -581.332275
-1029.314331 108.577713 -292.728485
-1347.394531 -199.862045 -490.085815
-1147.106812 0.064139 -17.180824
-1459.509277 147.098404 -550.729919
-1176.489746 120.702377 -49.720394
-1122.416016 230.435883 216.797668
-1104.959473 63.988583 -102.649834
-1462.098389 166.402069 -567.248291
-1165.808350 184.597885 -100.004074
-1008.868042 261.601013 -258.031128
-1079.482056 157.833008 -195.682938
-1204.379395 239.977188 -90.281570
-1070.677856 446.577332 11.338489
-1112.709961 144.570816 -148.401764
-1349.121460 -110.292305 -555.141052
-1458.728516 -65.924210 -245.972931
-1615.193481 196.545700 -338.261444
-1170.892944 164.958359 -105.364777
-995.947144 408.812225 196.793625
-1394.761475 -69.175415 -516.673767
-1026.922119 492.886200 -13.329847
-1234.492676 174.616760 -9.431606
-1606.975952 185.898010 -322.373352
-1070.194214 118.421455 -184.149277
-1097.471069 279.463531 190.054947
-1089.209839 430.320282 -12.584116
-1157.138916 41.435013 24.075256
-1066.122437 169.809845 -252.510071
-1047.225220 347.208008 201.527939
-1085.262329 -9.922750 -126.281845
-1029.931641 122.416969 -290.965057
-1129.460815 415.252960 -38.244312
-1179.781372 251.533188 -132.400436
-1126.040649 333.467407 50.239395
-1478.425293 138.360733 -493.654938
-1365.599365 -172.668900 -474.925873
-1127.302979 250.138184 -219.505798
-1111.127808 332.401398 106.725136
-1459.305054 -144.605728 -371.252197
-1087.233643 35.313942 -111.186989
-1030.001221 122.515663 -273.900696
-1191.594727 86.371689 -3.713478
-1022.925110 16.469614 -198.395111
-1091.749390 445.385406 -60.117805
-1465.205811 6.779847 -459.674866
-1363.146851 -238.031723 -397.486359
-1092.054077 221.284103 -237.020218
-1705.677246 329.297424 -273.764435
-1617.031128 221.564804 -339.436584
-1462.676880 35.764668 -346.081207
-1042.302002 296.823547 260.864349
-1124.959717 85.046783 -87.445335
-1343.762817 -156.329346 -528.308350
-1430.984985 -34.117039 -509.385376
-1128.891846 440.255157 -60.397747
-1418.870605 -78.343987 -474.638855
-1194.279907 155.537277 -14.332758
-1038.303833 -33.807034 136.266464
-1121.617554 424.559662 -38.249901
-1161.777222 261.846039 125.226830
-1036.587769 -110.825706 -111.029823
-999.361389 465.649048 90.475075
-1690.429810 278.482758 -293.692474
-1079.815674 -40.474949 -60.535351
-1480.201904 122.003403 -413.617065
-1089.417847 297.899719 199.694290
-1081.781982 -69.793495 -12.382336
-1421.911499 -26.724655 -532.385925
-1466.044678 -276.208344 -188.824814
-1432.176025 -246.518692 -305.094360
-1522.005737 -135.879135 -212.065796
-1124.526489 342.928680 58.716106
-1201.623291 259.319550 -111.264275
-1021.085327 392.863495 239.388123
-1559.817505 93.655090 -335.317657
-1146.973511 357.653473 31.893440
-1135.921143 -30.857809 -17.288557
-1147.905884 241.390640 180.420685
-1164.566650 250.851913 75.100838
-1070.911499 170.357666 -278.532532
-1400.005493 -38.210770 -548.405212
-1087.772827 48.929455 -120.280777
-1478.443237 2.638294 -463.567169
-1476.234253 -196.370804 -213.101974
-1032.291870 473.068298 30.286268
-1368.809692 -42.100277 -574.666626
-1632.194092 -28.404541 -153.389648
-1057.984375 113.801559 -248.685043
-941.432739 305.756958 -288.153625
-1471.270386 -64.740288 -320.148621
-1406.243408 -102.854225 -484.848053
-1142.295898 64.006737 -71.792618
-1030.681152 -22.143026 -149.209091
-1495.836670 -201.848801 -176.986618
-1060.739746 203.576218 -285.011414
-1038.941162 16.439957 -271.693573
-1416.518188 -208.165421 -386.404510
-1435.421387 -77.751419 -449.191803
-1089.483765 399.564087 31.056484
-1086.909302 63.465061 -110.705307
-1442.870483 110.657318 -542.168823
-1371.448120 -222.903580 -448.057098
-1126.298950 327.138611 92.862671
-1404.050781 -123.111206 -393.826752
-1108.736084 203.062469 -206.653473
-1131.114136 430.704559 -47.773281
-1461.296021 -28.107807 -446.221344
-1427.576660 127.926422 -544.552185
-1459.477661 126.266663 -466.886230
-1025.614136 103.235336 -344.525146
-1178.073364 203.320938 167.208878
-1060.681274 -64.893829 -199.483795
-1018.136047 410.666992 160.009949
-1501.338745 -121.199547 -274.078033
-1480.477905 154.051819 -551.224243
-1021.856934 114.794502 -333.842499
-1061.516235 -90.676109 -65.897514
-1025.784058 425.463776 119.737785
-1494.635132 154.103821 -494.882904
-1440.828735 117.161217 -504.441559
-1073.137451 172.601807 -236.561096
-1478.921021 -226.628738 -294.008636
-1004.674377 410.924194 208.166168
-1187.959839 132.273163 -36.857132
-1088.568481 76.389488 -146.223465
-1515.742432 90.221596 -442.449280
-1466.452148 27.452118 -483.573975
-1566.285522 -117.381943 -157.987946
-987.701477 462.112610 145.886520
-1070.929077 180.403610 -295.760132
-1503.559570 -114.947098 -252.646149
-1453.773193 -219.795532 -320.798370
-1719.135864 301.499725 -239.083710
-1080.598877 260.911102 -291.070740
-1409.157104 -51.578812 -245.584671
-1434.905518 -160.661758 -395.280334
-1337.651733 -263.042450 -452.318634
-1150.021729 341.027008 53.831345
-1173.527710 174.408447 -119.213409
-1130.447632 78.582291 -85.883148
-1015.583679 457.944672 81.938644
-1165.426392 449.102753 -95.170479
-1143.789185 237.634689 180.002136
-1045.139282 -60.008690 -89.494972
-1531.486694 -158.133667 -204.313721
-1437.759644 -174.502640 -360.047882
-1506.044067 -164.552826 -180.384186
-1211.779541 216.425034 -38.888165
-1472.169189 -68.115509 -415.101685
-1483.413452 32.179394 -322.083557
-1349.008179 -149.875641 -536.710449
-1277.327148 221.181046 -17.582758
-1126.097900 314.547882 110.680069
-1039.868164 368.008850 179.345703
-1359.303833 -75.501694 -543.545410
-1255.609009 168.975159 50.638199
-1490.414551 -207.230728 -226.334305
-1456.363647 38.938267 -231.763016
-1468.630981 4.898836 -480.036285
-992.490173 464.226227 145.987457
-1429.646118 121.869949 -551.356873
-1485.305908 114.862495 -499.860260
-1046.844727 362.810455 193.405136
-1012.673584 464.771484 67.522568
-1442.804199 -259.583893 -313.716522
-1124.067871 399.993774 -27.263741
-1483.617554 -30.388664 -417.710480
-1625.171265 150.148331 -306.942719
-1183.307495 218.176941 116.651413
-1427.472168 -33.291439 -299.070007
-1070.659180 -56.180267 -83.693092
-1054.237427 -40.055435 -113.424660
-1050.285645 465.264496 -29.002361
-1631.849487 -105.027367 -101.427940
-1092.687378 -66.117317 -34.189442
-1005.671326 434.905212 146.366730
-1141.070435 237.537430 189.878693
-1499.856323 -118.898064 -247.897537
-1493.548950 -198.636612 -179.057816
-1104.169312 -35.535770 -77.435112
-1369.344727 -32.269802 -334.604004
-1218.201782 242.458618 -84.848221
-1106.433105 86.586151 -145.922287
-1367.634399 -229.397369 -426.087372
-1381.209106 -114.148827 -510.820099
-1177.697998 220.685150 -110.661743
-1472.867554 -46.039513 -443.071259
-1052.895264 452.271545 39.102196
-1036.553589 113.590546 -309.556976
-1066.792236 346.411591 180.767883
-1188.548828 327.026886 -163.876648
-1074.582153 351.265289 161.656189
-1007.052795 495.331177 48.775234
-1023.594055 412.755676 176.132553
-1336.517090 -217.103790 -462.209839
-1509.098267 -159.923050 -237.631058
-1325.706055 13.649229 -276.625549
-1149.001343 278.766327 98.993340
-1355.029297 -163.051407 -512.524475
-1669.324585 -77.859520 -115.459404
-1048.290771 4.584407 -203.333344
-1572.935425 -174.039734 -124.243912
-1051.164673 123.999794 -295.729492
-1426.304443 -29.217539 -495.856232
-1140.246826 317.147675 52.112942
-1129.742188 309.398743 136.346451
-1407.392456 -246.143646 -348.405304
-1566.617798 141.059769 -373.474152
-1027.726440 424.329529 115.798706
-1353.897827 -83.991417 -401.254608
-1506.615479 -146.965820 -174.984558
-1411.846924 -67.173439 -494.951050
-1469.729614 131.962311 -565.177307
-1359.038940 -104.365616 -544.445801
-1064.249878 149.281616 -265.693726
-1167.930054 205.207260 -121.561752
-1095.432129 422.533081 -0.256207
-1466.933838 129.478455 -553.718506
-1086.572998 160.097733 -207.649872
-996.147766 466.547394 90.691803
-1408.900146 -104.127388 -432.719177
-1441.562378 1.646893 -517.921753
-1107.272827 395.081604 18.836895
-1515.634644 -207.681366 -140.781738
-1031.886230 6.569870 -204.064362
-1423.355713 41.591240 -556.152344
-1484.878418 -234.939453 -257.229462
-1415.085205 49.167465 -576.437378
-1136.009399 -29.926626 11.478457
-1413.955078 -34.728298 -538.514099
-1388.222778 -273.078522 -361.608490
-1489.692871 93.337814 -365.433075
-1400.952271 -176.592606 -389.970642
-1055.592896 -15.310177 -126.863228
-1102.351563 333.119995 160.576630
-1129.173584 147.036301 -144.302933
-1087.186157 209.098984 -293.207275
-1124.566895 347.727600 64.403503
-1661.882324 282.233398 -312.971527
-1168.290283 287.547882 89.947578
-1023.194275 429.076508 97.586212
-1085.981812 -118.554192 -105.209969
-1049.111450 357.469177 207.274826
-1051.244751 385.079712 125.321907
-988.113037 478.626190 148.534195
-1095.516479 191.427185 -260.553009
-1440.950195 97.118202 -559.803406
-1046.934082 449.482635 35.955917
-1586.126587 126.690315 -366.169281
-1506.370972 40.235519 -432.495331
-1053.348755 -58.677406 -167.210571
-1312.945923 -261.058014 -461.881348
-1137.911011 353.730438 6.254802
-1348.910522 -148.155136 -415.955597
-1185.228760 181.792297 -118.777473
-1104.283325 397.537872 21.992899
-1002.748291 448.271698 105.937729
-1081.969482 307.832184 200.210388
-1154.146118 257.300812 137.838699
-1068.477539 160.697693 -286.756012
-1335.787842 -169.506897 -490.229706
-1498.179199 77.941086 -464.381653
-1069.397583 367.717377 114.646225
-1228.651245 277.444885 -63.683632
-1166.094360 301.828369 -220.014191
-1472.409668 -42.082169 -412.656433
-1087.012207 303.147095 223.819565
-1517.679688 -108.959229 -232.322433
-1494.344238 -140.328552 -300.333893
-1072.723267 -34.686359 -131.476501
-1409.552612 -250.687851 -366.607147
-1255.936035 248.593002 -26.168364
-1130.131958 320.540680 107.702675
-995.133240 474.066162 92.718201
-1643.076172 186.550156 -328.015930
-1485.472168 -205.815033 -186.743454
-1115.740967 52.684605 -124.518028
-1440.632080 -222.719162 -280.541626
-1031.614502 34.584816 -242.378296
-1429.889404 -250.090851 -309.963867
-1030.226318 105.849152 -310.443207
-1496.115723 -23.288250 -404.280853
-1144.414917 266.696045 149.132782
-1026.749634 457.184967 64.416512
-1493.503540 201.521805 -556.475891
-1218.115112 190.470978 -40.355228
-1223.217285 154.394958 -5.901786
-987.177795 463.374542 188.976822
-1454.159302 112.328163 -522.899597
-1367.209961 -151.318802 -491.700439
-1408.455322 -281.537506 -311.412201
-1031.636963 414.450958 186.041275
-1471.383911 146.942413 -511.303436
-1067.664917 -13.967300 -130.923950
-1367.610474 -66.759018 -560.297485
-1503.666016 -295.622314 -150.121048
-1069.610840 431.977661 25.229473
-1092.526123 417.655487 -2.568685
-1512.692139 -160.261856 -271.221130
-1393.055176 -259.393250 -367.071350
-1382.063843 -9.125102 -551.458374
-1742.651489 228.774200 -102.019577
-1368.861694 -106.787064 -502.831116
-1459.811890 -235.435608 -272.301849
-1460.016357 167.942001 -461.517731
-1085.438232 410.946198 19.847908
-1123.123047 116.669968 -97.594078
-1588.631348 90.895363 -309.833801
-1158.989258 289.133698 89.437317
-1140.187256 135.378357 -106.494949
-1153.095459 274.096527 128.384048
-1203.809448 140.384445 -20.988739
-1703.007324 288.445068 -295.192963
-1162.795410 247.208908 133.091064
-1388.822021 -99.010475 -512.910950
-1396.598511 -179.065018 -411.307953
-1388.202515 -31.251099 -536.543396
-1077.281860 340.296417 151.709747
-1605.159668 153.727768 -352.157867
-1017.907837 362.582397 248.974655
-1427.576538 -22.764463 -502.257996
-1121.496826 268.703949 182.319000
-1188.727295 202.069275 -58.262962
-1036.788452 450.424957 41.100983
-1505.973755 -125.208122 -314.550049
-1461.956055 52.267506 -500.824280
-991.902832 468.791534 107.610039
-1766.386475 258.980957 -181.684082
-1523.080688 146.942886 -409.941010
-1456.878906 -166.720810 -341.649292
-1445.900635 -57.853264 -315.998779
-1093.038330 292.652466 178.422302
-1471.866821 -304.776764 -176.143600
-1155.409668 333.646118 7.398025
-989.280945 475.264679 104.287643
-1082.336304 228.713974 -301.197052
-1189.740234 268.018219 -127.716782
-1057.929077 -36.907909 -120.020180
-1323.229370 -138.534592 -446.731201
-1025.651123 330.675659 249.761765
-1495.047119 2.273316 -356.189728
-1086.526733 414.472198 -13.977298
-1081.243530 148.701981 -240.540405
-956.718506 337.322815 -210.996780
-1073.025513 404.094025 76.737076
-1665.427246 -1.796442 -157.500687
-1032.385986 140.165649 -315.199188
-1020.308105 365.384979 222.255661
-1096.456177 368.555939 54.883007
-1158.348022 359.162262 -30.158501
-1170.701782 230.932755 124.930122
-1012.330444 406.181274 199.703842
-1173.212769 129.508865 -53.244240
-1393.708862 -63.961418 -347.126709
-1386.512207 -225.296585 -396.261993
-1156.958984 282.741608 67.316734
-1077.257080 371.377808 93.510818
-1048.773438 -28.177389 -191.494812
-1147.477905 62.179619 -33.224174
-1086.743530 203.784195 -276.778839
-1361.454956 -120.336845 -549.163696
-1504.862427 109.859131 -281.373260
-1030.184570 128.908585 -335.029846
-1133.470093 322.765717 50.500992
-1090.302490 433.932953 -24.772934
-1483.708862 -107.509171 -308.548767
-1190.635010 298.904633 6.862343
-1578.213257 160.300781 -359.670685
-1062.320557 41.831703 -201.151611
-1329.802490 -71.291550 -312.494629
-1454.004028 69.114212 -313.825500
-1061.156616 -73.916344 -133.063156
-1399.529907 8.517183 -307.852600
-1084.475830 29.811403 -118.831467
-1343.191162 -106.367905 -414.346466
-1413.864624 -93.440559 -468.006226
-1199.106445 256.399292 -99.378136
-1189.114746 71.721214 50.160984
-1208.955322 254.572983 -122.728584
-1600.544312 82.368309 -181.085709
-1391.020752 -79.740654 -453.294159
-1480.796631 73.240746 -449.969971
-1550.976196 95.308067 -287.751678
-1441.460815 -98.877518 -381.481445
-1463.155762 -278.692230 -228.002228
-1690.866211 279.812073 -258.478943
-1084.290039 160.534744 -256.384888
-1027.162964 358.457001 238.855331
-1612.094238 131.652939 -292.442719
-1178.253784 282.117889 46.343140
-1209.698364 294.147583 -133.128250
-1132.149048 54.306728 -60.330181
-1452.538818 35.268200 -530.819092
-1225.447266 260.039337 -77.347008
-1711.266479 323.141174 -289.660339
-1155.979614 348.357666 34.524055
-1079.628052 262.434143 244.571335
-1499.576660 160.181076 -465.473999
-1366.182983 -156.193909 -501.694061
-1580.995972 227.392151 -296.301605
-1010.897766 379.267883 229.899872
-1145.978516 429.671173 -100.553551
-1548.501099 59.771015 -327.145966
-1173.676758 263.431030 101.291748
-1522.604004 -209.301239 -133.499390
-1350.712036 -219.416702 -465.631989
-1026.140015 332.669037 254.492889
-1481.785156 90.752289 -488.970001
-1250.120117 182.000565 18.404408
-1036.963135 22.997257 -214.665024
-1004.481995 417.203278 175.441559
-1045.969727 -6.312797 -120.129143
-1134.110352 82.082039 -100.521675
-1042.614258 421.002777 79.898323
-1552.900024 -202.451157 -128.324509
-1033.820190 -15.855895 -180.094833
-1337.682251 -202.311234 -471.975037
-1383.326172 -248.918732 -387.531006
-1026.538574 -51.068359 -184.837341
-1401.002563 -46.584629 -498.669495
-1025.157227 -0.957661 -241.177414
-1135.522827 -9.392205 -28.285725
-1003.793152 428.235168 151.210098
-1598.923828 167.567596 -306.435791
-1168.679443 348.009369 -34.823544
-1576.526245 188.509521 -367.837280
-1075.710693 175.705994 -253.179825
-1519.484375 40.433273 -407.130127
-1025.237915 82.770668 -294.722198
-1014.795288 480.867615 56.702995
-1390.582153 -163.803192 -459.362640
-1488.987915 -112.575363 -319.673157
-1498.977417 -219.782715 -114.663643
-1538.319458 -128.123520 -215.136276
-1279.523926 -49.600372 -306.352570
-1035.607544 -48.412174 -154.811432
-1065.856079 285.967224 243.003815
-1477.093628 137.793518 -509.883514
-1217.295166 127.185692 5.323628
-1129.263428 394.077271 -49.038464
-1487.208862 -211.244827 -241.435867
-1347.073975 -123.770355 -432.222504
-1562.504517 246.509033 -323.296204
-1155.625732 268.359985 -190.232849
-1470.167725 -179.027069 -304.841400
-1434.010742 -6.647353 -475.511414
-1501.156372 16.336000 -426.348907
-1138.795166 340.287842 43.700794
-1406.339966 -32.663868 -501.054901
-1452.322510 -15.168969 -474.226288
-990.810181 498.506805 76.779388
-1246.636719 85.595245 89.431244
-1011.690063 423.269867 150.385345
-1618.010132 153.095428 -285.040375
-1140.831055 255.437302 -182.088577
-1465.540039 40.899475 -345.974365
-1022.072388 -22.375877 -199.731354
-1054.509155 -55.815750 -209.795242
-1073.689941 139.698639 -210.594864
-1073.664185 141.328522 -247.794479
-1581.046021 -43.683743 -185.335129
-1452.507935 -184.123688 -326.635559
-1413.458130 -158.018173 -402.210571
-1464.076904 108.365990 -415.460571
-1387.898193 -234.602127 -398.503143
-1015.749634 487.349884 42.887997
-1435.825073 -96.114113 -421.643829
-1082.192017 -57.631763 -58.542118
-1388.271606 -227.852875 -394.463409
-987.081604 468.619690 126.512314
-1065.752930 87.427017 -164.530136
-1591.659058 -143.417114 -123.015022
-1065.223145 -70.107185 -70.608116
-1712.272461 346.337067 -274.342163
-1578.968384 129.053406 -390.820770
-1229.883667 128.786087 -20.020294
-1459.055054 23.939806 -491.761475
-1086.850220 449.069916 -21.343760
-1519.251709 64.396996 -384.101837
-1005.567932 502.693970 69.813408
-1491.606201 0.304605 -397.080841
-1470.628174 31.458139 -496.336945
-1469.024780 -17.293484 -454.127045
-1468.675415 73.584564 -502.233551
-1389.797607 -113.434685 -503.818542
-1077.591187 27.615005 -147.310272
-1170.852051 227.398865 127.641106
-1477.249268 -195.917999 -229.965759
-1115.064453 339.848083 120.865952
-1460.146240 -149.285919 -336.869415
-1032.025513 154.502319 -299.141907
-1124.116577 -21.569719 0.006448
-1141.658447 235.101791 185.191010
-1475.851563 186.344757 -499.896393
-1332.053223 -163.780365 -506.574707
-1043.847900 -24.777405 -232.482193
-1358.271729 -152.742111 -496.581909
-1426.871704 25.391010 -255.320999
-1144.775757 227.705673 170.665955
-1025.984253 48.600086 -324.458923
-1433.367065 30.594957 -504.461700
-1399.211304 -171.013306 -422.385406
-1169.794678 97.240036 -39.499310
-1046.308594 183.852737 -319.279633
-1108.146729 417.539581 -24.355198
-1056.197266 128.674362 -238.165161
-1240.511108 91.157524 26.430969
-1098.923828 89.652962 -131.094986
-1384.944336 -102.441101 -393.217773
-1479.189819 143.388672 -525.818848
-1505.944458 -147.832184 -296.172394
-1089.324219 297.841583 189.750992
-1015.983459 57.062210 -309.248322
-1436.714233 64.376244 -564.656250
-1476.504517 142.444931 -513.434753
-1138.431519 70.224159 -85.317551
-1066.012207 432.434906 -0.788202
-1357.851929 -121.398796 -545.437378
-1059.671265 157.951141 -277.697235
-1030.623413 323.771820 262.803925
-1064.101074 192.740173 -295.460876
-1232.690674 216.261734 0.763112
-1172.604370 240.600159 131.671829
-1632.443237 183.963028 -298.511658
-1046.787842 81.894455 -199.786697
-1102.441406 353.109680 127.225624
-1435.531128 -62.250336 -450.570984
-996.766418 461.439697 153.235046
-1449.398438 16.095352 -521.905884
-1599.281494 253.491455 -261.960480
-1505.138916 -163.271713 -285.943268
-1491.618042 -144.551727 -295.965179
-1093.915161 48.358665 -147.558304
-1159.220459 368.855835 -35.072758
-1318.175415 2.489931 -292.300201
-1030.885010 -33.224537 -138.743286
-1159.385254 249.793243 155.063309
-1502.744385 -7.011850 -361.240356
-1033.292725 -47.524017 -207.646759
-1119.428589 69.981285 -65.444450
-1502.691895 -187.637802 -264.155273
-987.997803 503.437256 103.160530
-1081.494019 333.190186 175.112991
-1063.241211 -18.125942 -152.834717
-1465.444946 89.198570 -484.101318
-1165.442871 191.748459 -94.655624
-1075.220337 187.454529 -227.127640
-1516.231812 -178.243683 -175.322266
-1103.985352 408.042236 -20.243319
-1481.348145 192.428497 -577.731445
-1658.745117 -24.128958 -144.606339
-1517.794312 -67.775475 -225.949249
-1360.096802 -140.145493 -423.657227
-1456.356079 -41.047173 -448.820007
-1522.067261 75.761673 -403.643982
-1002.925781 456.261017 112.654602
-1510.870850 -109.030212 -225.351395
-1483.588867 -189.016525 -219.747772
-1003.299866 467.820496 123.071045
-1509.367554 35.238224 -348.587799
-1630.173462 176.453522 -272.196350
-1027.368408 397.878204 139.608551
-1103.463013 333.434326 135.301498
-1078.883545 327.514099 168.356094
-1499.799316 -127.213303 -323.966675
-1627.046143 196.416153 -295.235718
-1478.402588 -306.715973 -128.170929
-1721.117798 320.986237 -277.021545
-1114.440674 416.284180 -59.601391
-1065.772339 106.116417 -207.223160
-1096.817261 273.837646 193.335419
-1372.716187 -89.456490 -534.758606
-1438.833252 -230.333771 -336.371643
-1404.260864 -80.129585 -470.749023
-1170.901245 398.224426 -92.787804
-1507.061279 83.248772 -464.473694
-1433.638306 -214.433411 -300.451538
-1180.082275 230.026611 130.619507
-1007.149841 430.318298 151.897247
-1154.202271 328.947968 55.143093
-1157.704956 134.712891 -105.534325
-1049.955933 367.627106 143.691696
-1477.392090 170.334732 -587.802795
-1175.450073 133.080063 -25.161098
-1379.893311 -89.266510 -393.984924
-1753.908813 244.556503 -112.961662
-1374.540405 -115.571800 -486.846100
-1106.182495 244.626968 229.363480
-1029.902954 423.562103 114.403641
-1084.661621 418.867340 -3.236829
-936.180481 300.218506 -274.797668
-1123.453613 200.968063 -172.231979
-1458.944946 32.509838 -516.299500
-1364.864624 -187.545212 -493.998932
-1035.771118 72.527458 -308.977539
-1418.880737 -153.872925 -394.767670
-1436.492065 118.906990 -517.429565
-1444.945679 -265.065063 -273.030914
-1512.738037 -106.224266 -209.329773
-1120.565063 121.779053 -160.751709
-1109.793457 53.742729 -133.879517
-1047.106445 -58.642620 -169.455444
-1414.407471 -87.477699 -486.342712
-1567.449463 -160.641174 -121.989494
-1012.058899 77.169563 -296.316650
-1106.994385 17.757713 -42.055435
-1210.696167 132.134232 -0.777131
-1052.492432 336.326202 190.091507
-1160.279663 247.056671 153.807068
-1480.275146 -191.735825 -256.113220
-1155.987549 129.204422 -122.916245
-1418.129517 -286.948517 -267.500549
-1576.982788 33.953754 -157.917755
-1464.088989 70.527847 -343.270935
-1022.672485 476.961365 42.917747
-1334.634277 -245.192139 -471.249817
-1479.664185 49.526112 -317.430267
-1632.798828 -59.339302 -145.309464
-1038.744263 63.985485 -313.004425
-994.369812 434.656250 191.624725
-1050.870605 158.435181 -303.993561
-1154.668701 367.703949 -1.731950
-1058.073242 171.454483 -288.709747
-1084.481079 -1.189354 -56.062973
-1403.346924 48.068722 -226.591049
-1480.538086 43.915112 -357.107758
-1531.028320 -131.316711 -260.598816
-1491.170166 168.444870 -437.829132
-1133.727417 216.621689 203.911957
-1508.151489 60.756233 -445.228088
-1096.252686 287.756317 170.340225
-1035.468140 111.137177 -333.953278
-994.845642 432.467316 178.423950
-1348.849243 -127.840286 -548.082520
-1149.109741 305.835724 91.258873
-1011.296204 442.433014 103.840256
-1478.277222 151.613297 -512.484192
-1033.763550 316.314362 272.271484
-1493.807251 46.138145 -372.117462
-1574.441406 127.559402 -384.156311
-1488.360718 -188.747955 -190.846802
-1060.726318 416.345947 58.950027
-1094.299072 244.774063 246.124786
-1361.423218 -131.821899 -373.612701
-1112.902222 101.655235 -157.244324
-1037.384521 -39.449734 -187.910172
-1222.155640 244.682373 -71.079636
-1069.551147 464.618378 -25.027840
-1111.702393 303.102722 132.732452
-1432.295044 -11.405940 -526.222595
-1161.320068 170.284668 -96.085289
-1324.067261 -198.397476 -528.453979
-1187.880127 248.284912 81.701225
-1081.435181 307.602905 191.023483
-1081.247070 355.698761 141.044327
-1614.796631 124.949081 -346.156158
-1160.572510 97.696953 -42.111408
-1764.118530 318.056091 -233.591415
-1023.596680 59.593502 -288.755646
-1092.423828 18.379951 -59.348587
-1129.658203 168.753387 -129.761993
-1482.753784 -182.912643 -268.036713
-1081.535889 247.664490 -280.638916
-1027.510132 99.057823 -296.643738
-1155.037109 113.643768 -88.788193
-1499.855225 170.291412 -529.703857
-1365.990845 -138.979401 -491.437164
-1196.776123 289.105927 43.671165
-1480.565430 109.798592 -441.111847
-1456.062256 139.294815 -439.654724
-1021.185364 83.112221 -325.057678
-1214.674438 117.224060 -13.173906
-1046.982666 -23.293367 -244.499939
-1324.624023 -178.440277 -516.743591
-1013.380859 463.526337 54.939888
-1172.408447 91.718544 3.295862
-1469.256348 -1.648554 -468.738525
-1491.417114 163.336868 -536.280396
-1053.903198 350.351776 190.839828
-1044.308105 380.141510 226.211258
-1517.212036 -158.963821 -201.704651
-1147.123657 356.139740 2.882785
-1019.497070 92.515373 -282.422943
-1076.075073 203.723740 -304.275848
-1174.507324 236.628876 -124.967415
-1640.828613 176.802673 -265.338104
-1537.867676 19.565096 -206.490692
-1346.321655 -215.016937 -480.624268
-1189.299438 203.008102 132.745972
-1047.306641 429.888580 56.998985
-1474.495239 -149.876663 -347.550110
-1172.019653 277.730957 88.999458
-1076.391235 417.430511 38.229488
-1031.785522 35.814632 -215.082031
-1351.455566 -243.843704 -437.120514
-1177.574341 301.911896 2.934328
-1367.155518 -121.830917 -552.887817
-1458.224609 -259.002563 -261.603241
-1045.514893 36.023426 -184.556458
-1389.510254 -191.220291 -424.540375
-1415.748413 -25.448988 -538.717224
-1493.007690 23.562037 -365.600250
-1106.593018 343.447540 119.367912
-1048.040527 427.113159 75.980156
-1043.760742 99.011658 -298.528961
-1141.851807 304.449158 73.925499
-1019.279419 7.753110 -222.047607
-1042.153809 58.271412 -303.637207
-1470.289795 -156.137924 -321.976013
-981.958801 469.198639 176.431183
-1033.742310 427.036804 95.559868
-1153.428467 179.459290 -103.001968
-1067.472046 145.765289 -242.635971
-1039.478149 452.404358 72.596909
-1382.842407 -27.907867 -318.891876
-1489.729980 52.230835 -437.723816
-1044.576538 -25.534046 -222.688995
-1435.544556 -134.243195 -381.291962
-1531.822998 -50.683895 -230.438751
-987.962708 479.961365 98.757027
-1014.986450 475.096100 69.866676
-1150.052612 402.834869 -60.692654
-1426.765503 -1.869043 -519.382263
-1401.656006 -10.360832 -550.804626
-1059.184204 -65.847557 -97.038963
-1073.716064 430.462219 8.861876
-1483.465088 -15.889036 -442.757690
-1538.576782 119.604393 -324.576599
-1167.293579 43.335812 -44.882961
-976.515808 -60.379997 94.955414
-1515.007690 -87.225845 -233.060776
-1179.645874 266.007690 -142.342194
-1203.042358 172.702682 -53.753357
-994.081604 417.272491 213.297226
-1105.996948 180.700455 -197.988220
-1422.722900 -220.325348 -153.144073
-1364.876343 -81.368347 -553.693481
-1238.079834 98.653786 15.245186
-1448.416992 -138.793182 -368.116333
-1173.195923 285.530243 84.356949
-1068.261597 74.955551 -181.401062
-1057.995728 404.616211 100.723595
-1113.145508 289.656769 180.046051
-1395.994629 -17.583872 -554.223083
-1501.978760 87.191376 -455.921326
-1450.550171 -150.021774 -306.801147
-1485.617310 -127.250534 -287.017273
-1515.936035 -172.464554 -204.385376
-1395.078735 -294.611664 -300.735657
-1268.471680 286.995636 -12.944188
-1448.923584 -97.552017 -221.699631
-1759.527832 307.446777 -202.196365
-1114.545410 182.733582 -179.730103
-1478.036499 -173.415604 -290.876892
-1123.729858 278.168945 169.683334
-1435.209229 -190.345734 -357.710114
-1401.978638 -222.736069 -422.949463
-1188.142090 46.719875 20.180542
-1074.088745 216.611023 -306.296814
-1056.547119 -57.956619 -128.383774
-1499.932495 -246.791550 -104.624535
-1408.159912 -227.783646 -384.442047
-1174.168091 197.005966 173.427048
-1499.361206 -218.683487 -187.557861
-1072.222900 409.202820 60.744160
-1377.294678 -64.281395 -576.779785
-1068.664185 166.716034 -226.205994
-1485.245972 -26.534880 -279.748138
-1107.198120 337.727203 79.167305
-1060.892578 353.767609 167.716400
-1174.175049 258.199188 -128.845154
-1017.632141 395.012970 172.197342
-1452.030762 138.583847 -547.111389
-1028.370483 105.096367 -257.627167
-1217.059448 87.817879 10.632354
-1435.432495 105.439789 -576.991943
-1142.393188 369.321472 0.580289
-1129.197754 238.839767 183.304062
-1520.073120 16.993176 -386.218842
-1529.279785 121.037148 -340.003235
-940.603638 357.245453 -226.295532
-1093.243408 216.496613 -280.014954
-1675.555176 286.297943 -293.070160
-1076.198608 342.410919 157.777893
-1394.498901 -82.262527 -509.470367
-1162.079468 70.527206 -28.226171
-1432.001587 12.269363 -521.472839
-1391.427979 -19.670559 -572.202759
-1755.296021 350.317047 -239.408859
-1059.525146 118.472755 -266.261475
-1103.401855 171.590454 -182.712875
-1059.405518 158.733414 -306.621460
-1461.749390 65.849792 -362.854248
-1108.704590 112.044502 -133.398636
-1346.674805 -160.365540 -521.994568
-1409.356934 -3.848532 -541.359497
-1401.064331 -152.106506 -422.971649
-1467.502686 77.329613 -416.060059
-1482.829834 147.631226 -508.258423
-1237.024414 243.319839 -85.716705
-1516.724854 55.677757 -426.499115
-1358.375488 -258.469604 -416.587860
-1487.941650 27.840322 -429.408783
-1238.327393 277.276764 -64.182358
-1423.188721 -211.369095 -360.477631
-1357.296509 -134.602997 -557.779175
-1129.472656 400.198517 -31.406498
-1733.191772 344.641327 -267.904144
-1492.627686 101.509300 -479.227570
-1056.157593 -100.303886 -78.327858
-1153.588501 296.660858 111.113052
-1129.217407 261.751007 167.683548
-1085.834717 266.767670 214.957443
-1008.674622 398.175201 193.063431
-1020.660828 375.059601 205.606323
-1498.772095 89.685410 -452.813354
-1072.822876 -73.636467 -64.484146
-1030.434937 418.591034 129.386597
-1435.552368 -91.676140 -451.198730
-1094.943604 316.217865 -215.092621
-995.524780 446.132324 134.799728
-1042.053467 -59.188251 -161.736023
-1517.988525 9.014501 -386.707184
-1416.821045 -159.905945 -417.628143
-1137.170288 197.948700 -176.127121
-1050.855713 -44.722038 -111.466057
-1612.953003 188.962845 -329.802490
-1377.308594 -122.211693 -471.787231
-1479.984009 -19.567753 -385.686096
-1174.487305 5.881419 52.998989
-1032.114136 99.565323 -317.421600
-1150.609863 317.928680 64.417236
-1056.060913 -16.032812 -101.447884
-1053.491943 148.151917 -255.966675
-1059.539551 471.040039 10.514442
-1055.288818 400.975647 145.006775
-1130.322876 22.380182 -36.404110
-1116.628052 252.056610 -252.851547
-1059.894165 445.942535 13.228397
-1051.939209 -63.587543 -117.682259
-1480.824097 -229.674011 -246.262711
-1444.099365 -125.321663 -349.589996
-1510.487915 -94.899063 -273.527740
-1394.525635 -73.166794 -530.657471
-1421.775269 -288.742645 -283.594086
-1475.748047 -38.528545 -444.265259
-1028.671631 343.752228 236.369049
-1028.356934 477.242035 21.115580
-1048.911499 -83.895325 -132.575409
-1471.061646 172.732529 -591.820557
-1430.340942 70.003128 -579.233643
-1068.944702 284.248932 249.775299
-1505.690918 -213.685257 -163.458435
-1484.293823 20.037825 -429.715668
-1577.838745 147.477127 -326.317108
-1191.789795 217.705872 -93.652023
-1489.817749 38.998959 -451.411346
-1406.898560 -201.688126 -411.860718
-1464.225586 165.457153 -544.544189
-1130.035645 173.544464 -163.776978
-1126.075439 305.606079 124.353020
-1075.980347 310.116364 192.021149
-1467.990845 24.409710 -317.662140
-1502.692993 0.494521 -198.668320
-1524.789917 190.475677 -485.004242
-1032.077026 68.888542 -310.871002
-1656.970459 250.371765 -324.841705
-1455.578979 -17.045338 -462.716980
-988.698120 471.334778 114.935966
-1462.150146 -241.724472 -121.121201
-1369.760742 -249.075851 -415.882233
-1033.043457 -0.006606 -207.979095
-981.973450 358.502716 -216.789108
-1201.459351 22.398308 51.873249
-1435.402710 -204.661331 -184.069122
-1097.609009 20.574163 -77.836594
-1165.148071 133.161316 -78.895386
-1029.390747 392.523560 205.797409
-1495.357544 -17.258789 -395.097412
-1499.785156 -86.677292 -320.486115
-1486.109863 -153.259018 -258.449371
-1025.545166 108.379082 -285.418091
-1057.596680 42.965527 -164.197372
-1003.447937 490.394531 83.983047
-1372.424561 -164.689148 -411.531036
-1336.880859 -157.710800 -515.200562
-1388.505371 -111.175377 -452.601440
-1047.776489 106.639359 -229.761520
-1063.188477 302.670654 264.173035
-1483.672607 101.271248 -405.986237
-1189.358643 100.084946 -9.406706
-1146.004150 365.240845 -57.836277
-996.399048 448.572205 123.062088
-1105.196411 263.423615 198.519302
-1405.395508 -72.511803 -496.779327
-1394.212280 -246.835983 -395.262482
-1651.765747 -15.256810 -151.110779
-1185.868896 117.018822 -29.189600
-1091.688354 31.585510 -127.850731
-1450.443115 -23.057634 -385.512482
-1112.729004 365.858734 68.630539
-1031.435059 378.580811 214.976227
-1109.458740 216.872314 -215.871155
-1079.389282 -14.227155 -53.807209
-1332.248779 -261.353485 -457.082916
-1415.986328 -70.762711 -386.195740
-1437.336426 43.985199 -554.637085
-1471.799683 117.280487 -530.601013
-1093.628174 99.931168 -185.615952
-1492.741455 -6.831151 -373.965332
-1093.470703 211.609848 -269.962769
-1143.470459 178.243256 -126.399254
-1106.195923 47.930309 -95.702522
-1042.289673 36.379322 -175.213898
-1408.244507 -89.371948 -484.238678
-1456.775513 -55.730602 -436.661377
-1067.063110 67.800400 -145.790054
-1168.571411 286.499664 29.837301
-1023.654663 10.097781 -218.293640
-1050.612305 -95.008308 -130.655472
-1232.074829 176.075775 -22.512045
-1152.071899 386.218933 -60.479984
-1088.405518 419.272034 2.854152
-1654.520386 253.551331 -310.623901
-1131.179688 101.627815 -94.347549
-1052.028442 177.221054 -295.346130
-1424.516968 -204.613297 -401.430176
-1492.109985 -99.000145 -353.570953
-1173.502441 247.479385 87.414444
-1111.498291 430.124664 -107.424789
-1054.306763 472.174957 -3.299303
-1093.425537 1.113631 -75.955605
-1406.593018 -66.175484 -522.772888
-1484.533936 -19.879255 -440.503418
-1442.764771 102.731934 -591.795654
-1389.295044 -118.207726 -486.778442
-1062.880493 49.659164 -167.855499
-1147.710693 286.333557 62.419186
-1540.706909 -73.520752 -202.559250
-1178.983276 86.380852 -38.731983
-1398.394531 19.374174 -553.259338
-1531.266724 -91.092575 -179.145279
-1420.307129 -221.029480 -316.861237
-1062.190186 -75.894676 -111.330589
-1109.983887 163.652161 -188.289993
-1184.059448 215.495316 119.514328
-1081.819092 316.617279 184.933304
-1450.420532 -85.540199 -383.389618
-1119.958984 253.626846 206.433990
-1095.203735 -36.465897 -75.117851
-1479.545410 94.372749 -470.132172
-1456.668091 -156.904129 -364.884644
-1056.855469 420.072601 62.649239
-1106.012817 276.526886 196.381149
-1114.467163 300.687164 151.148773
-987.814697 460.234283 130.411194
-1170.716064 214.048767 -138.868454
-1031.582397 460.812775 55.084229
-1069.700928 124.061737 -251.748856
-1378.688232 -123.798798 -530.920410
-1037.628418 425.515045 90.413048
-1011.872925 409.994873 167.683167
-1012.344849 373.845856 229.119690
-1466.461426 -63.069187 -425.855469
-1091.805786 351.208618 91.364479
-1180.839478 94.713470 -19.134939
-1373.462402 -122.861115 -515.604980
-1042.874878 387.854248 177.787399
-1026.623291 101.800446 -256.613342
-1386.755859 -160.891525 -391.637329
-1042.159302 112.177727 -311.572998
-1157.063354 52.291557 -66.087158
-1011.400391 410.730438 234.454315
-1413.973022 -164.258072 -405.854248
-1762.848633 307.322113 -186.463898
-1095.755493 391.497986 51.420807
-1045.367920 356.424683 202.655121
-1622.306274 190.005569 -311.423248
-1135.747925 323.433655 77.913818
-1684.649170 285.260895 -277.189484
-1406.359131 -290.744812 -284.296753
-1018.353271 473.985992 60.653271
-1126.361816 7.269038 -37.767181
-1418.641479 -142.976059 -412.642914
-1215.905640 103.543701 71.976868
-1461.147339 -165.055298 -328.907715
-1490.959229 -185.541855 -222.548431
-1481.426880 -230.472595 -217.555374
-1456.310547 -65.650902 -426.032959
-1046.073608 385.307709 163.760300
-1137.522827 189.476318 -127.656639
-1109.575439 250.945541 195.522400
-1642.647217 178.158356 -308.872375
-1113.842041 247.497482 207.777908
-1490.668823 -180.455292 -192.677017
-1455.282471 132.601227 -536.779236
-1442.781616 103.891212 -426.213409
-1347.040649 -215.103836 -468.886658
-1139.933228 305.381866 113.443489
-1094.403442 154.675385 -196.944992
-1468.435791 -43.545536 -348.606659
-1478.911255 104.436363 -500.461761
-996.565613 468.062103 150.824615
-1015.203552 381.508514 215.419617
-1486.781006 159.366867 -555.791138
-1528.508179 -166.069656 -198.314789
-1519.829346 -77.260803 -224.829865
-1044.834595 -93.419571 -135.380768
-1144.578613 297.786865 98.631706
-1115.299438 158.629486 -154.373474
-1075.728638 -26.484137 -93.622406
-1488.815796 -137.971878 -307.883636
-1387.341064 -91.670212 -317.408112
-1077.350952 127.194717 -172.614685
-1019.467773 -1.289415 -241.964142
-1063.772949 178.444229 -259.197266
-1184.996460 255.242035 76.179573
-1303.105713 -238.288315 -496.629028
-1441.099609 -128.451233 -367.163727
-1238.588989 144.537430 10.993775
-1132.260864 228.522751 -207.899124
-992.205688 388.861450 240.207977
-1185.575317 273.083435 -151.455811
-1080.434204 -24.590345 -87.233818
-1504.867310 -157.023651 -261.741852
-1078.082764 187.427078 -317.138428
-1406.464844 -215.693130 -381.013672
-1357.868408 -155.785065 -474.806122
-1010.337341 -14.141703 -247.345261
-1716.146729 281.826050 -215.666428
-1151.703735 210.029282 186.824951
-1380.398193 -189.577957 -428.683899
-1761.956787 301.375305 -173.401688
-1386.979980 -206.774414 -408.807617
-1155.459595 91.964394 -84.523087
-1426.298096 92.657188 -560.833069
-1066.643799 305.253418 241.521576
-1098.907104 340.532196 91.635254
-1017.177246 429.794128 171.769470
-990.812866 423.786743 201.966431
-1103.925781 71.871986 -121.777580
-1035.663452 57.031227 -283.672455
-1462.081177 127.018326 -560.363770
-1050.816284 449.245300 50.052822
-1161.523071 238.120285 172.488632
-1436.011963 -95.263000 -459.518341
-1588.104126 164.625702 -329.353821
-1012.948486 451.587524 78.535042
-1607.355469 12.696609 -167.391541
-1399.547974 -237.897232 -412.561035
-1518.678955 -142.647003 -245.125931
-1201.084473 186.720047 -66.264420
-1618.197144 215.423447 -188.147552
-1330.800659 -187.312042 -508.479492
-1004.845337 488.483734 125.661140
-1393.432251 -31.937731 -545.414856
-1492.099243 -248.116470 -145.682663
-1048.247070 470.699249 10.401857
-1133.465942 162.523087 -122.075684
-1499.100830 204.949966 -532.539978
-1028.375000 110.425751 -350.642456
-1481.645386 -270.325928 -211.183548
-1104.501099 21.872597 -67.553558
-1144.766357 364.794739 -24.090633
-1503.160278 133.169220 -408.135437
-1465.974121 -37.880226 -375.093872
-1263.946899 175.246780 35.930943
-1109.687866 238.543854 -238.166336
-1129.846191 41.882729 -76.472214
-1009.182190 361.687714 270.038971
-1139.157715 406.033997 -45.266933
-1543.874023 -76.424469 -269.148468
-1115.679321 44.696732 -99.884171
-1387.750122 -60.459438 -533.142151
-1156.395874 196.765259 206.401352
-1485.044434 -214.418839 -188.411697
-1390.691040 -54.521580 -550.571960
-1036.138794 144.752686 -290.241882
-1460.297729 5.809988 -438.695862
-1427.527100 -164.811005 -378.311981
-1350.856934 -168.394058 -439.518982
-1636.239502 234.185501 -179.927185
-1592.743530 233.280075 -305.276947
-1431.154541 -177.703308 -360.781067
-1486.968140 -190.708435 -263.087646
-1196.337769 287.532227 59.244263
-1493.635986 87.642265 -382.629272
-1105.481689 245.283661 244.469055
-1124.649536 340.080475 44.098003
-1118.003540 303.975189 126.170189
-1089.121826 433.953400 -29.326849
-1087.506592 333.660858 169.728561
-1019.026917 4.492928 -261.196655
-1402.346436 -155.997055 -444.557373
-1167.752686 259.739929 81.859352
-1488.457275 181.182510 -537.704285
-1440.491211 -139.916962 -353.911469
-1482.137817 -15.268888 -262.127899
-1426.379150 -173.688583 -336.720886
-1397.670288 -233.740845 -375.966370
-1084.609497 -43.761608 -92.344879
-1346.647949 -86.465942 -388.795624
-1080.391602 104.183983 -217.441483
-1244.538330 119.614922 37.929867
-1049.036011 12.962204 -203.126205
-1457.679565 101.552795 -554.412659
-1030.074097 372.457001 223.204910
-1079.414673 -71.164482 -54.488174
-1143.626953 370.224884 -23.082443
-1453.259033 -214.444122 -187.131958
-1075.171265 421.537476 19.391336
-1623.277954 164.321655 -323.125336
-1187.546509 198.398087 -100.717545
-1033.920776 -35.174255 -196.439575
-1488.754150 76.170166 -444.815826
-1512.054565 -206.436768 -204.418549
-1193.744995 256.068115 87.239510
-1099.220703 446.574860 -31.716070
-1174.915405 105.343643 -34.814228
-1077.689453 372.462189 90.828979
-1178.060547 174.894516 -74.351105
-1169.125488 341.562805 13.743339
-1379.863770 -55.816765 -549.585144
-1072.295288 433.599365 14.058075
-1492.044312 64.119354 -469.510162
-1473.477661 -24.216881 -416.528625
-1069.361572 407.494354 57.702625
-996.932495 482.775482 71.027962
-1023.091614 14.719658 -201.770706
-1592.086548 109.949066 -314.973755
-1115.560669 287.243927 174.494675
-1041.444092 88.650749 -230.735626
-1148.375244 210.449371 -166.228500
-1114.268677 391.693665 26.113358
-1478.340454 -48.665127 -416.548035
-1351.384521 -226.348846 -453.570618
-1063.688965 365.255432 148.240067
-1021.542053 58.343403 -277.767853
-1055.641724 125.769447 -269.716400
-1538.102661 123.499779 -379.736328
-1041.933960 110.735245 -318.212067
-1414.658081 13.697334 -252.955887
-1385.346191 -162.453918 -429.462677
-1481.303467 -215.478165 -254.329727
-1051.867676 -72.915070 -162.288895
-1253.947754 305.617859 -78.240814
-1511.317139 60.568245 -420.193420
-1368.525146 -149.971329 -501.636505
-1446.058350 -226.398682 -347.451904
-1172.890747 46.743973 18.150667
-1034.646118 -6.483945 -179.093475
-1554.317749 171.946259 -374.129486
-1483.545532 -256.806732 -143.018387
-1119.743408 84.376259 -123.635002
-1161.851929 397.755371 -55.280514
-1047.161133 69.241837 -189.193054
-990.357910 472.796143 141.772568
-1525.073242 -80.939308 -277.204773
-1448.465088 -278.151398 -258.630249
-1028.431152 -53.324337 -195.646942
-1044.079834 151.871841 -264.359558
-1456.910278 168.549561 -547.829834
-1518.669556 61.261963 -353.640564
-1054.519165 163.362778 -251.531921
-976.216980 466.163177 152.250381
-1175.768433 379.312286 -50.512928
-1439.721680 -45.141479 -487.501251
-1027.588135 359.157959 204.276245
-1120.878052 283.063416 138.770844
-1448.196899 -252.006073 -274.642059
-1329.706787 -170.133926 -543.405884
-1431.175171 -277.636566 -281.117920
-1068.621216 378.801147 155.928574
-1021.434143 7.312590 -279.642944
-1065.154785 450.641449 -46.339756
-1510.971436 -5.332844 -390.021576
-1075.295166 393.860016 79.690865
-987.076477 446.923187 168.856201
-1058.896362 286.860016 255.138611
-1207.872681 152.560455 -65.590652
-1025.625854 456.277740 53.274189
-1407.638428 9.058762 -297.915009
-1342.430664 -260.180298 -441.118866
-1510.836182 -87.571793 -260.523956
-1074.794189 341.624084 138.931168
-1455.828613 128.264160 -568.015503
-1040.117798 157.904434 -295.508636
-1052.919800 180.786362 -275.223999
-1106.471069 398.154877 5.795826
-1115.671875 -9.291224 -60.047855
-1412.720581 162.966888 -490.256836
-1447.041504 17.361498 -499.786041
-1529.894165 -49.284588 -244.629379
-985.469421 316.174103 -239.281143
-1228.900757 324.967316 -132.079544
-1100.554565 440.023773 -55.542427
-1031.545654 40.442635 -248.128235
-1428.298340 52.132885 -568.056885
-1013.289368 476.222687 29.449860
-1485.500732 54.551430 -423.004791
-1439.093140 31.798761 -492.130798
-1106.073608 203.896774 -236.132202
-1085.049072 313.421844 192.849792
-1030.774048 348.528351 228.536682
-1076.430664 -98.427185 -43.044952
-1492.044434 202.989410 -526.841919
-1050.720947 -56.441120 -120.764603
-1496.782715 167.206894 -512.483398
-1029.217407 -36.932159 -154.468338
-1111.787598 76.628960 -111.694046
-1173.602051 229.700180 -123.644501
-1715.042603 252.856018 -166.878769
-1097.604126 87.909119 -113.201569
-1532.997925 39.486546 -354.975464
-1334.361572 -149.766617 -483.463531
-1027.701782 103.383011 -336.637421
-1031.111572 141.350388 -288.631287
-1034.149292 98.060631 -324.191406
-1031.427490 29.107267 -205.248749
-1033.034424 92.023262 -323.294922
-1017.276794 468.007996 101.652489
-1687.543335 264.224152 -235.593109
-1190.862671 92.610626 0.712021
-1467.682739 -32.165180 -367.515778
-1070.896729 -37.507996 -88.309547
-1466.985107 -202.603851 -283.733154
-1022.845215 54.626938 -292.459198
-1107.458862 279.054657 174.778519
-1011.072632 430.442474 170.944626
-1126.128418 156.214600 -168.468338
-1080.907593 350.553223 152.929810
-1557.163574 112.755066 -362.807373
-1454.872070 83.834579 -533.459045
-1049.176392 368.477814 192.594604
-996.016724 409.826141 218.655441
-1040.271484 -44.294758 -165.094818
-1021.672729 58.862392 -300.928528
-1519.169189 -107.834030 -251.119431
-1068.584717 405.435944 58.676395
-1613.983154 129.046768 -269.905640
-1147.978638 374.516296 -60.275772
-1256.096924 278.160614 -23.557142
-1471.206909 49.375130 -291.559570
-1629.184692 176.777451 -316.835266
-1127.564209 343.740143 63.454655
-1071.058716 13.676479 -126.193207
-1170.976440 193.334229 177.343903
-1233.347900 189.977005 -5.836648
-1035.082642 -44.188454 -199.758026
-1423.291504 -262.371399 -334.348053
