ply
format ascii 1.0
element vertex 1392
property float x
property float y
property float z
end_header
-308.652771 762.817444 -1361.146606
194.384338 724.187256 -1364.035400
17.372635 817.679382 -902.846252
312.337219 735.660706 -1389.285156
-45.180370 612.352722 -904.482605
69.995987 980.351074 -1351.758911
-28.013224 938.845825 -710.045105
35.289852 635.351501 -915.729126
-68.916832 441.792267 -1372.979614
-126.121544 536.248230 -895.876343
120.416679 529.064758 -1361.422241
181.545853 620.902710 -1361.472168
113.218338 581.580750 -903.150452
-166.453552 900.215576 -773.887451
197.399094 551.396545 -1375.405518
-98.249779 604.905029 -923.213379
-218.927597 782.041809 -888.033936
49.337955 944.922485 -627.094177
140.373871 730.453369 -1359.164795
-87.526573 668.156433 -893.927307
79.267982 932.178223 -670.253723
155.489761 571.230896 -1363.824829
-30.699524 490.964783 -941.655823
85.533463 663.950378 -899.370972
52.577225 611.984863 -1383.944092
-182.046249 563.947632 -1378.041992
41.047749 947.757324 -649.470337
-149.223495 522.190063 -925.057434
-147.086227 928.970581 -607.835449
147.273895 597.587341 -1385.413330
177.505463 677.800354 -915.602112
-44.876621 437.035278 -1378.263672
-206.304626 592.064392 -1380.126221
22.981518 483.652039 -932.020264
-129.409363 854.125366 -890.593445
163.370056 538.365540 -1385.854492
4.026104 750.995422 -905.063660
-94.633614 899.499084 -786.437500
13.192165 654.828186 -889.993713
-141.788116 944.364075 -565.315308
-129.089493 702.855896 -1385.127197
44.455734 940.738220 -649.531616
-22.824791 774.728455 -916.490417
213.587708 669.562073 -1363.379272
-147.534286 806.415771 -912.089478
23.453953 1154.594727 -1388.195557
-95.609474 853.487305 -890.305786
174.817093 731.366150 -1373.724121
-106.534935 926.994202 -717.147156
-146.168900 932.841736 -581.254578
137.625092 494.160004 -1375.378540
-115.019295 945.361206 -601.795166
134.958817 751.378784 -1333.406006
-87.594978 935.333679 -682.397034
109.302475 945.629883 -1378.683105
62.037960 778.157349 -917.923157
-80.781380 718.279358 -1371.527954
-243.197021 603.561157 -1368.587524
95.931145 500.412323 -1376.517944
-132.384277 898.618896 -800.851501
-141.043335 915.744934 -731.471802
-80.704185 560.503540 -1399.494873
212.862762 802.875183 -1332.462280
-102.232635 949.684509 -548.592529
214.081467 681.818176 -1386.175781
102.457932 451.246155 -1378.580078
251.342194 671.332764 -1369.117310
-41.021805 947.542786 -585.330750
-222.109268 896.758972 -776.293579
-101.405640 832.450195 -1296.421997
94.507004 716.912354 -921.752808
-142.242752 957.635925 -534.143494
117.980255 927.117004 -668.198242
23.563435 768.780945 -1304.239746
101.758026 827.326782 -898.265747
62.973755 943.115479 -615.235107
-121.051025 499.847076 -1376.945068
111.487694 947.831055 -1359.085449
-135.135803 965.249695 -593.460022
8.997779 557.517151 -1332.178345
86.010155 933.276123 -740.009460
-328.555237 614.345947 -1365.910522
-87.535484 924.743896 -718.981201
-47.429901 695.955566 -898.691650
-34.896481 896.444763 -911.431091
113.116142 675.768005 -913.282349
-232.174255 948.049011 -595.705505
-10.240330 688.047058 -1343.899292
-92.422646 558.371094 -1363.981689
132.961639 770.281250 -898.632385
82.975212 622.150635 -1385.397949
-85.768242 609.658081 -886.197266
33.213001 561.810303 -1376.093384
-61.351604 962.022766 -536.789978
105.701073 446.596039 -1364.776611
286.614685 830.733093 -1361.651123
112.006241 539.413269 -1367.721558
-128.987000 471.883209 -918.481262
145.713669 580.405823 -1376.752686
-166.372864 568.906189 -1377.108765
154.837418 600.360718 -909.738708
249.991333 735.785156 -1335.128418
21.367527 943.799377 -614.168274
153.251282 765.420593 -1302.756104
-8.408158 951.983032 -553.430481
140.642624 621.650085 -908.825378
-136.891251 504.176025 -1386.835571
-249.952164 627.692139 -1366.817383
-115.544182 896.406189 -813.939697
92.120392 546.808289 -907.382629
-188.615997 714.649231 -909.820007
-231.367538 916.767456 -650.520630
111.437294 912.737793 -751.672180
-60.626591 707.950439 -900.395325
5.014150 549.892029 -913.479858
-108.429726 913.894043 -732.045410
2.784778 479.121155 -1370.609375
-63.875439 952.707520 -571.587402
-125.976517 917.786194 -667.137390
-178.282867 642.464050 -904.032593
163.976257 592.561218 -924.184937
151.428207 737.873535 -1377.997803
246.582260 722.336060 -1366.060425
-12.723281 550.298157 -1360.806396
16.365721 908.176331 -803.968689
80.059326 906.482117 -777.453613
-89.102623 799.524719 -1281.855591
81.867340 626.786682 -902.898376
28.426476 510.235168 -916.328918
290.175079 712.342102 -1361.902832
-129.785904 704.716003 -1369.116089
68.907761 640.933105 -914.579285
-118.612923 520.661865 -910.537170
-77.191490 551.630615 -913.067749
-62.636597 757.909912 -917.594788
-154.749435 663.137024 -1357.608887
43.619049 484.492706 -1361.024292
90.395218 790.921265 -912.017822
-123.901077 840.550598 -913.052368
142.748932 619.474487 -1367.858765
75.759445 611.810608 -1365.664795
42.039925 633.490051 -887.312317
-140.739975 746.130249 -921.813293
-95.080971 776.865723 -892.424194
-251.966034 605.445068 -1305.801636
-148.418716 945.586365 -542.296631
-143.557144 679.290955 -1376.547241
27.870907 728.273376 -1374.607544
181.893707 601.118713 -1390.636963
-68.358398 923.717957 -752.016052
95.988602 952.486694 -590.517151
92.540657 934.011963 -675.428711
-159.356064 930.710144 -593.564880
249.082520 709.412231 -1359.110962
-35.209682 774.269653 -903.659363
6.345792 627.198486 -889.304749
7.457310 906.665588 -786.266235
28.175407 589.667908 -1347.700806
20.160664 422.763153 -1384.829468
38.109718 811.382263 -903.522400
-230.516342 924.632874 -632.325928
-130.259811 617.698364 -905.449158
-141.496765 919.593506 -718.651245
41.186165 485.798370 -1369.170532
44.005745 946.626892 -578.327393
196.289246 653.454346 -1377.538818
106.341293 1038.657959 -1358.091797
-172.086823 515.185303 -1378.134033
181.047287 635.789795 -1384.009155
-101.683884 907.339905 -766.121155
-148.055740 946.097900 -559.548096
36.563248 929.457031 -698.213440
42.985775 567.381531 -901.502808
-70.598152 506.321075 -921.790771
151.572098 552.998413 -932.391418
76.399971 932.585632 -715.236023
-31.183668 931.509216 -649.313782
-66.348984 979.414063 -550.212463
-197.954300 542.308777 -903.047241
-35.653004 452.242401 -1372.336060
-275.757568 602.752869 -1342.408081
-95.106949 674.979614 -1379.145264
109.987396 582.152954 -922.939087
80.862076 744.197144 -1316.644653
99.816101 771.566467 -1321.910156
-176.256134 510.445099 -926.150696
130.650116 882.570068 -1364.258179
-12.637155 705.538757 -918.838562
106.709229 532.679260 -934.572998
-133.653641 503.608398 -917.839539
-206.926773 624.049133 -1371.280518
237.205124 641.910522 -1361.363525
112.778671 1083.740356 -1356.888428
-166.043625 901.892334 -762.358521
-79.792435 926.146912 -699.709167
-118.842415 533.657043 -1378.280762
66.832932 964.727234 -1327.839600
231.620438 701.818176 -705.719299
-67.031723 476.637970 -1377.150879
-182.317474 657.584167 -1369.644897
-44.279232 565.132019 -1385.931030
149.184311 597.452271 -924.319031
-21.258129 632.254700 -1340.747925
3.948668 936.496826 -643.129761
-223.448029 804.001709 -890.327148
-146.404480 911.256775 -714.999939
28.350807 643.468201 -890.308716
-67.470001 466.691498 -1374.157471
58.042961 702.745117 -897.789307
-39.763023 959.608948 -512.348450
-231.188889 608.611755 -1356.119263
-22.911537 618.512207 -1150.704468
-46.813038 938.778259 -705.948730
-76.933434 448.457428 -1373.848145
16.229305 550.964966 -903.297363
-218.626297 727.864502 -907.724670
-143.865356 786.587891 -910.867493
-124.202858 951.253418 -639.573730
-38.285580 732.143250 -919.866089
-34.085869 932.304871 -701.722412
84.249367 914.242188 -793.897034
27.576635 532.339844 -1348.089478
79.960716 548.563171 -908.087158
124.767036 790.972595 -1315.669067
99.414299 658.576782 -1393.012817
-173.421036 942.143372 -558.532898
212.128448 578.097656 -1376.549438
26.787306 424.662323 -1373.657227
108.810562 938.256592 -618.986328
38.502033 557.321472 -1347.366821
-106.282761 680.247009 -904.698914
208.547836 788.205078 -1360.565674
-128.089294 940.714539 -637.510132
66.983101 783.849976 -917.688538
-318.413177 620.244995 -1374.640015
120.630020 734.272949 -1358.159424
115.941528 864.777283 -1368.980469
76.029335 969.377014 -556.674805
-225.292252 905.593689 -692.418701
227.118378 777.770630 -1364.533691
-145.365128 583.009399 -903.793213
-113.004982 910.588074 -738.984375
20.834324 945.719604 -595.852722
-134.724625 911.863708 -772.491211
28.492064 928.855835 -739.015076
53.188175 935.411316 -650.247437
-33.756588 872.468262 -931.244141
-59.500446 623.650879 -1340.985474
34.326221 826.485107 -1323.224976
-279.071198 657.423828 -1341.988403
180.366119 600.463074 -1377.071289
114.243462 563.339233 -913.316162
60.863537 508.272064 -913.047974
143.826797 819.600342 -903.307739
-5.210652 907.992065 -1343.061768
-96.488350 602.833496 -913.047913
-239.019318 542.365173 -1370.216431
175.570313 642.080566 -898.286987
105.362617 547.081543 -911.086426
-102.047569 655.863770 -899.239868
77.579666 646.759583 -901.618164
-173.478241 633.530273 -1386.719971
-236.396515 912.993958 -668.281128
92.170776 475.154083 -1373.823975
231.161240 722.008118 -1373.592041
-302.644653 594.820740 -1348.263794
134.208130 567.513672 -917.872986
140.166565 622.231995 -895.793640
-183.982803 551.680237 -904.868164
-75.353371 473.877838 -941.480530
141.976227 700.457336 -911.897156
-35.043324 946.908386 -565.163452
260.597412 670.727051 -1376.644287
-307.846741 702.659912 -1363.903809
-186.591568 615.446655 -1373.852661
8.851998 655.073059 -1371.275146
73.492897 762.993835 -1320.359497
26.240999 948.657288 -586.942444
204.166061 811.619507 -1361.134155
-63.387108 931.807556 -715.760193
-109.859116 924.837524 -642.171448
-67.726425 733.493408 -927.509033
103.636444 583.926453 -895.144104
-37.573944 949.516724 -578.617004
80.280296 708.326294 -1381.883057
5.647557 501.106689 -1385.507813
119.163399 716.338867 -1368.485474
-91.142311 492.114502 -1375.197510
-20.243505 774.980652 -904.045166
139.277756 575.827881 -1375.768555
-161.685425 705.414429 -1367.496216
-20.825102 923.387451 -721.073669
-158.317917 939.290100 -567.633789
-217.910187 819.469543 -1383.740112
-82.568497 924.965637 -803.966492
181.751877 771.507568 -897.068787
-108.221718 922.706299 -742.731445
19.882851 660.879883 -1175.441284
124.039902 495.028564 -1361.217529
10.843431 962.627075 -557.178345
-114.326385 625.006470 -898.623230
-128.859283 923.744995 -641.338928
-18.673609 490.907715 -1367.542114
-287.453217 595.482178 -740.785278
69.504494 967.868286 -1354.916016
-22.565874 555.982056 -920.017944
140.549149 541.849915 -941.788391
-169.709030 549.241516 -906.581238
29.134304 492.889923 -927.913025
-52.053097 937.546692 -630.618408
171.547607 676.848450 -1361.090576
-23.518984 618.321716 -921.218811
-141.273972 585.408203 -1378.390137
-6.364222 555.979553 -905.324097
57.247936 506.077087 -928.575012
137.295319 925.538391 -676.886475
-116.965759 709.230530 -918.017761
49.606625 491.641418 -1350.973633
127.413536 832.493103 -1345.350830
-4.998663 431.984711 -1375.342041
93.394920 952.399475 -1376.851563
121.834427 489.729004 -1378.810547
-201.584991 902.236633 -758.408630
-112.799034 931.306763 -692.727051
92.702721 499.224304 -1365.746826
-164.112625 944.364502 -570.398010
208.374863 637.679260 -1382.656616
43.675537 660.964722 -920.850342
-270.220123 634.166077 -743.469055
-47.718552 979.851746 -528.629028
79.800339 952.850220 -590.765625
73.798965 627.527771 -1394.504395
104.763420 936.973083 -656.171204
-131.264816 833.005493 -907.430481
-1.262160 540.098755 -905.979858
-189.666351 926.378052 -1353.901489
47.504597 574.542480 -903.896545
12.809346 735.779053 -1285.481812
6.774967 904.258667 -926.437744
-27.748875 970.965881 -528.259094
73.466606 740.851929 -900.920349
-103.873802 956.599182 -560.908386
-115.738838 509.448700 -910.219421
20.316561 918.672668 -803.588318
-186.342407 920.651367 -602.578674
46.946278 973.194885 -531.701233
55.816017 971.354614 -560.272400
-111.363617 926.618835 -631.816711
-27.000174 547.514954 -1360.984375
70.303574 506.019470 -916.879578
-20.248491 948.509888 -594.705261
104.204033 505.872803 -949.064819
-79.646774 511.309509 -1397.268311
34.212612 753.850525 -1264.394409
225.839050 717.032288 -1340.676758
128.889587 572.713379 -1384.503052
139.007446 551.400391 -1376.430176
64.490990 766.288391 -1365.552490
-165.882233 501.532684 -928.224487
-120.901741 702.585083 -891.777222
0.812354 551.479736 -905.961243
-115.276352 823.310669 -921.898865
115.401581 676.059204 -888.609680
-78.407402 791.675293 -1304.322388
-153.927567 920.772583 -711.237183
75.621590 923.133362 -743.960693
102.359612 503.984924 -936.954285
93.153969 523.845886 -1365.934448
-146.938995 722.257996 -919.949524
15.983755 718.544678 -1360.925415
-134.359406 840.166870 -1285.051025
122.716705 542.760193 -912.102966
-138.813141 561.066956 -1378.217041
-145.294296 938.285217 -632.290344
-133.431702 603.701111 -1360.923584
235.835129 719.861755 -1368.286499
-30.905613 921.595337 -1313.086304
25.727829 938.197632 -639.819641
112.173531 662.895569 -1379.537842
60.403702 956.668335 -569.291687
23.867182 951.794128 -552.941833
-176.985947 920.438171 -665.852722
-90.251022 833.836548 -893.360474
117.064270 1041.731689 -1357.886963
-97.274506 544.237183 -908.433228
-8.781430 536.718445 -895.443726
-41.908554 938.872009 -612.805298
-113.678207 655.976013 -899.957458
-34.963940 588.447144 -1367.898438
-292.926117 619.742737 -813.264832
-185.472366 515.754150 -1358.499023
224.503265 791.620605 -690.018494
-13.904008 925.171509 -710.441833
-10.336394 734.701538 -909.292603
118.991325 798.229797 -898.379639
-35.677094 955.045166 -627.619629
-214.453751 868.327576 -1393.395996
-29.812933 450.281921 -1372.871094
28.721684 538.060425 -904.476135
105.340851 657.882507 -891.919006
-101.640953 907.651855 -728.674316
70.106209 724.922668 -1387.493774
-20.326887 602.358154 -902.637451
-101.539261 455.509186 -1375.690186
157.895828 607.990540 -924.495789
-150.741516 696.155151 -906.637451
-84.838875 801.179443 -893.976746
265.171173 754.032898 -1376.135742
-287.614105 618.088562 -1379.891357
-134.474121 505.066437 -1363.916504
-261.286713 759.178223 -1358.946167
164.022339 587.240601 -907.560242
61.555981 622.102234 -1381.968018
76.418098 646.566345 -1364.104370
83.498489 613.153870 -903.537964
-133.127670 497.053436 -948.988098
-10.114705 556.180603 -900.934509
32.737896 924.799194 -736.037537
95.832390 935.647522 -653.158936
-106.405952 897.578796 -813.196045
2.105550 507.903595 -1338.693115
105.196274 569.156433 -916.792358
280.287231 753.068054 -1365.367310
90.584908 485.652283 -1382.796875
127.249084 557.492004 -1377.004883
-141.975601 913.328857 -769.549805
-310.598938 643.117188 -1379.681641
-199.344818 761.109619 -1224.622437
117.572578 846.470886 -1335.581665
-31.339888 474.562744 -1373.422852
-50.264740 950.334717 -555.756775
-206.070419 640.095703 -905.895386
93.053276 922.260315 -713.511963
-73.390846 747.574829 -928.716248
223.225006 617.551392 -1384.129395
-246.207535 670.240845 -1309.127808
-305.550873 617.009338 -1327.317017
92.207054 1148.216675 -1369.868042
125.985435 521.612427 -1378.525391
-154.411926 681.518921 -1368.157593
-86.864685 946.902283 -605.936890
9.098815 424.164154 -1390.255005
-138.755325 927.344910 -665.244324
-63.490868 625.217651 -1372.323486
-31.099419 960.161682 -559.634155
85.990036 966.889282 -1317.357910
-180.489532 664.537781 -1365.496704
66.155701 954.380188 -601.715027
-33.693638 939.151428 -606.173645
15.262163 653.264648 -898.968689
80.488609 858.575195 -916.098816
-76.934380 925.608276 -791.856567
127.577042 747.837158 -1377.786621
-200.136871 691.978516 -1360.694336
143.962448 762.199219 -1316.119873
-169.206558 608.056763 -903.014160
12.366495 705.425232 -1365.006714
-128.624832 708.522583 -1376.406250
-9.350708 983.635437 -504.441254
-6.351559 581.964050 -1365.414795
128.166809 516.927612 -949.045044
-86.436302 672.126221 -899.599304
141.660370 555.396362 -1378.273315
10.746088 609.684143 -1264.909180
281.516541 798.031372 -1362.644775
136.519730 527.896362 -942.414490
-127.378586 516.878235 -917.981750
-59.660538 675.340332 -890.773865
35.892487 894.857849 -1377.562378
137.349701 933.278625 -690.439148
145.874283 928.575623 -736.442444
15.083271 917.734192 -744.734497
80.478203 593.914246 -899.202942
31.820986 936.634155 -600.745422
97.592735 924.775757 -1363.469238
105.552673 535.130371 -912.653137
-78.947884 491.256592 -928.974976
8.595146 930.613708 -700.986450
-127.699760 520.642822 -930.938416
83.354858 550.921692 -915.797791
110.512657 934.639648 -693.202393
-135.590683 904.492065 -808.731567
-58.779591 817.536987 -910.160583
-151.212006 589.316772 -899.179810
-106.980133 459.747681 -1372.412231
-45.307068 596.961548 -1331.723755
-19.797085 512.782166 -919.651306
55.152687 586.333008 -1379.811523
-68.596222 935.254883 -594.695801
-171.449966 604.696960 -917.234924
-208.254471 657.612854 -1371.651001
124.868233 471.582123 -1380.793213
-77.893227 664.387634 -1380.695190
25.046871 518.162109 -1363.565674
-7.985085 943.540222 -647.290833
273.868439 727.430603 -1338.733887
158.170944 765.891968 -1339.441650
-22.506016 589.043640 -899.313293
52.873955 917.989685 -722.123901
120.647202 575.328491 -905.266541
81.581505 1010.911377 -1347.004639
-27.669260 675.564941 -1296.682739
-76.253456 641.865295 -1378.205566
199.693527 748.625000 -1374.421265
250.011841 825.547729 -1376.317871
99.557793 925.310242 -737.449951
205.809677 805.071167 -714.239807
34.871376 931.132385 -651.698303
33.150341 676.420593 -898.546875
95.735298 595.893372 -1379.974976
-0.280966 707.455566 -891.303894
210.756912 844.418884 -735.274170
10.120480 590.433044 -1258.691772
95.106300 866.246094 -1338.746216
0.733537 560.612610 -902.992188
91.247719 619.927612 -905.209961
96.201927 770.149536 -912.142395
28.631834 938.767212 -630.141724
-106.477562 511.082092 -933.431396
242.534515 667.786987 -725.417664
-250.556366 631.681213 -1331.419800
-105.176926 781.612244 -909.994812
-97.540405 925.156616 -711.673828
-40.141552 635.936646 -1252.509521
60.891846 560.989319 -894.052551
111.885033 930.473938 -787.408875
-0.032281 913.364197 -774.963074
-76.172928 924.940674 -764.174927
-118.424362 754.923706 -1327.147949
13.970030 488.994415 -927.992004
-305.138641 672.214661 -1359.323730
117.140160 984.699829 -1363.686401
-95.158508 621.716919 -903.434753
105.262390 743.359375 -1302.952881
12.883562 871.036011 -909.526001
-78.313011 521.311218 -1377.997314
14.621231 720.976501 -901.391296
-27.356686 427.772339 -1372.952271
-161.026672 904.885132 -743.001648
68.885468 859.736389 -1334.850952
167.388428 701.439209 -1372.751709
-79.078613 518.811707 -922.018311
-118.893883 624.979980 -1388.568237
29.972878 763.021973 -900.913269
141.623260 706.406494 -908.616760
165.416794 714.862549 -1378.588623
26.242331 950.731873 -558.805115
-89.170906 478.852692 -1372.178345
-137.788315 746.678833 -909.466980
-94.758888 891.791443 -909.406433
11.396915 927.053833 -717.143921
-125.999466 722.119324 -1369.252319
-16.077389 539.622925 -1378.386963
194.185806 607.343079 -1388.618164
7.591667 965.073120 -523.115906
-75.209732 932.342163 -702.648376
91.987335 804.676147 -1329.975952
-220.566101 927.057922 -624.990051
-166.358170 504.289032 -924.394714
210.169907 616.410645 -1377.341797
-27.996794 926.492981 -736.471130
-255.593887 644.958618 -1351.261108
136.720993 537.107483 -942.245850
96.992989 767.060669 -1335.571045
229.218765 706.857117 -700.565063
-129.768372 905.398193 -808.392822
49.800537 787.031860 -1294.440063
-104.183678 518.963440 -1391.744385
-198.652710 924.359314 -621.046448
-87.386871 874.315979 -905.405334
28.775843 452.884338 -1346.875854
174.331573 766.615479 -1330.474121
-215.678772 905.268921 -700.827209
-166.767258 944.621643 -577.093201
24.354567 459.397644 -1364.727051
61.685207 999.586426 -1283.803711
39.431164 698.548767 -1362.790039
108.603218 627.153625 -1380.983765
48.079193 708.135315 -906.507446
-113.827553 890.945313 -783.486572
74.302666 438.992493 -1388.124634
-56.981350 752.839661 -903.612305
114.763145 779.543030 -1329.523438
-93.600967 691.361511 -916.210083
-194.746460 518.122681 -919.598450
-187.839249 903.683960 -802.122070
143.138779 693.780334 -1384.011108
88.556885 711.949951 -1380.741211
12.613704 495.376556 -923.204102
-97.302559 916.298706 -709.666504
-115.544624 476.543793 -1376.495972
-133.682724 744.341492 -1364.750366
89.567474 932.885498 -1380.123535
45.071167 593.423157 -888.942078
-35.028858 430.613007 -1370.061768
10.697970 947.954163 -616.999939
21.762224 833.083923 -905.957947
-2.886890 916.649658 -746.703552
-62.145676 526.245972 -1376.519897
-102.271828 940.285828 -643.459961
30.421726 740.173218 -1320.536377
36.529449 534.749390 -903.345337
18.653898 952.065369 -559.518127
-109.855225 905.351074 -738.804077
72.038193 514.155640 -922.153381
81.759651 699.059937 -1377.055176
-114.414879 850.934204 -920.047791
45.823624 961.459534 -568.565918
162.761597 766.805603 -1365.109497
22.006279 860.799072 -902.836670
8.198131 926.666260 -680.778076
46.319195 934.935425 -719.234802
-69.620178 899.953857 -809.064331
7.619255 456.415375 -1368.635742
57.869083 755.816772 -899.609070
61.330307 951.320007 -619.145874
-50.020214 940.965515 -662.314087
-182.595169 705.130798 -1361.617798
-107.876572 935.866821 -576.505188
-65.019104 924.316223 -756.939697
166.380020 771.928101 -1322.282227
-47.441105 947.776550 -556.427185
-257.074036 689.216492 -1346.109985
21.015310 584.999939 -890.350830
59.032295 555.132019 -904.250488
-25.289495 523.492859 -912.059875
33.392487 936.444031 -637.782593
18.170776 989.452332 -1307.932007
46.118176 743.584656 -1373.912354
137.210846 643.700134 -919.296997
170.307602 634.853149 -889.321106
80.904358 930.370850 -737.837524
173.827118 824.351257 -1356.774536
76.142250 983.741028 -562.798645
-229.710587 872.432495 -1366.937378
-51.058723 499.300232 -941.745789
-41.430847 888.181885 -894.250122
234.584930 729.247131 -1367.884033
-101.965759 633.135437 -1389.368164
-42.423309 582.004883 -899.293823
-138.078949 921.458862 -631.569214
-177.931992 550.692993 -908.629028
4.127763 602.973145 -1302.709961
-84.561028 489.127869 -1378.943726
-59.501198 686.205627 -1370.662476
-154.704224 806.051025 -1357.130493
-150.850494 902.370056 -762.930725
-45.438721 445.176086 -1374.823730
76.238686 696.158752 -1385.774780
-157.469177 620.437195 -1386.862549
-207.076187 903.884033 -726.544556
-25.510876 860.984009 -909.548584
-71.575630 954.383850 -627.521912
74.620644 647.926514 -911.038025
-126.403923 623.221130 -905.206421
-274.909668 728.368042 -1368.780518
116.108429 927.392456 -696.579956
72.792625 1017.125000 -1336.278076
-210.193970 936.012756 -655.339600
-191.695389 710.440308 -1333.768311
30.096855 932.297058 -666.035889
-116.075150 700.547363 -1321.984131
152.388702 578.927795 -913.454346
-119.003883 942.459473 -618.705505
36.932003 603.900574 -915.549805
208.504669 812.416687 -738.606445
-325.070862 673.907349 -1362.272583
107.965210 900.923523 -1364.827393
-38.953087 914.228516 -750.545044
-89.918190 924.862671 -723.056946
-137.450806 553.353760 -889.652283
-13.073662 708.765686 -1359.257813
-186.515854 621.439087 -889.842773
-116.772491 714.442993 -921.207397
-78.333076 968.438049 -519.539612
127.661964 696.084839 -899.515747
-196.529343 516.868652 -910.169922
99.191940 579.117615 -895.387085
96.081207 843.889404 -1355.446533
128.682434 873.497375 -1358.291992
116.662956 977.903137 -1343.928955
-91.734268 724.112671 -908.187622
-9.967719 941.664307 -643.935791
19.961081 558.018982 -1288.608765
-52.343483 962.720947 -590.467285
-125.771492 952.985962 -631.575806
-250.592819 594.061462 -1381.970215
146.516083 553.624451 -943.179382
-140.598175 852.769104 -934.363342
-73.172935 492.611206 -956.133118
98.524071 922.695007 -728.068237
-162.378220 896.451355 -772.439514
-122.753197 735.057983 -1345.557007
65.088112 776.860474 -1325.157715
216.789139 709.940613 -1361.026367
-137.447540 845.250488 -906.145447
-159.451859 630.328064 -897.331055
-74.111916 574.737122 -1380.223267
-206.249603 549.629761 -1375.695435
63.449421 428.208801 -1388.924561
-101.870255 594.073853 -1376.658813
158.858871 627.855408 -913.809021
-63.832981 509.619720 -1387.336914
-214.344833 962.396118 -575.403992
59.410343 547.112183 -1376.592529
-120.101097 954.291931 -536.987671
72.021423 576.016541 -1376.999268
-330.222687 645.325928 -1362.320679
53.287895 553.922119 -1338.622559
245.515793 800.643555 -1340.374634
-122.550713 740.510559 -1338.860840
3.922392 581.091370 -1363.735107
-112.152084 534.709473 -905.586792
-102.481567 530.847717 -916.586914
-22.878855 503.912994 -940.159058
-151.143280 821.618225 -918.779602
179.575851 757.259277 -1322.440063
-203.348328 924.565125 -621.758789
-78.308548 719.028259 -903.658630
169.158127 567.603943 -1375.166992
62.143036 554.839661 -1374.424805
-93.385818 886.922668 -799.188721
-50.888710 501.688141 -1397.240356
-123.950607 839.433350 -1282.454834
-38.788746 878.780334 -898.239136
-218.898972 612.864136 -904.346680
-103.573471 727.778320 -1321.694580
-50.865921 711.334167 -1375.562134
-40.795654 950.845581 -556.290283
-78.871941 561.927490 -1378.517090
53.897114 632.855286 -1394.578979
-76.349030 466.352631 -938.566101
33.831207 947.632141 -1389.050659
-14.401978 896.109802 -929.006470
245.583969 684.520630 -1381.348022
-212.438431 546.690063 -914.489929
14.782879 579.631897 -1337.929443
47.528046 706.522522 -888.189148
197.852081 572.323364 -1383.568848
-51.274319 943.777100 -610.536804
-97.095909 925.984802 -800.783142
-242.831055 572.180664 -1348.858643
113.506462 574.170776 -915.392700
175.825790 654.254028 -912.025452
-148.664978 913.617065 -732.896851
86.205688 950.624939 -612.501160
-221.904633 555.060059 -1359.842041
-97.208099 522.388184 -909.788025
130.405182 488.039551 -1385.861206
100.700798 943.886597 -785.095459
148.359375 528.712769 -1366.744141
93.638275 557.877502 -911.795105
79.556519 701.115417 -899.566345
80.474594 573.300110 -903.589844
-68.590340 907.459595 -757.894592
-218.872467 909.604126 -683.579834
235.625641 691.441101 -1375.796631
-151.379166 868.375793 -1325.431396
-118.872643 970.655518 -534.576904
-170.867065 673.426331 -888.016357
63.915295 701.534119 -889.024719
209.765625 607.983704 -1389.888062
-4.590509 782.570129 -895.230713
-41.531712 680.862610 -906.464233
8.770812 538.978943 -1366.778076
277.780975 694.926880 -1359.578125
96.419014 939.781616 -649.918762
67.026711 426.054749 -1382.398804
69.857117 945.889404 -617.409119
-216.560455 905.767151 -727.241699
44.444328 1085.214966 -1353.051270
114.261314 775.146484 -1316.156006
-80.913162 940.947510 -596.174438
194.387924 808.346313 -1352.901733
-93.570465 963.853760 -518.566467
50.374596 927.584839 -767.900269
0.033567 930.372864 -808.903687
238.426575 704.149231 -1347.473389
15.518497 539.957886 -895.877014
155.576294 546.903809 -1384.491211
264.747131 732.535217 -1355.912598
-131.483383 728.073120 -890.738647
-130.353043 941.768555 -574.944214
-212.266953 812.756653 -889.757385
-0.558573 640.877197 -1339.701416
-249.835281 583.923767 -1387.919189
30.756601 583.630249 -1358.780151
-213.156296 624.702881 -1341.781860
-12.296027 805.729431 -911.625366
-40.918453 730.367920 -926.016235
122.623421 608.224548 -1376.988647
6.077545 808.121216 -911.875549
-178.155426 719.920227 -921.841370
-8.654494 941.899536 -612.685120
60.396305 751.687317 -1381.198120
60.689838 967.226257 -1365.475952
224.428543 620.907593 -1381.435181
-119.887024 730.718201 -1361.906738
124.506470 823.725220 -914.932312
-126.647545 778.122375 -892.755493
-56.760330 772.149597 -928.905334
49.487381 573.374756 -912.766785
111.062485 771.522217 -1326.737549
172.084244 649.869873 -902.481018
-60.690075 935.445801 -627.948059
-41.857143 936.312073 -691.627441
-151.584518 716.738159 -908.162415
-105.484535 574.171326 -920.046936
180.573380 726.578613 -901.250854
139.778473 660.150818 -888.997681
51.652893 955.427185 -564.317078
-325.284607 613.479858 -1371.148560
81.991432 595.280518 -890.876709
76.357193 947.004761 -584.064636
-31.164330 941.671997 -693.591431
-210.641571 534.012756 -915.574768
-66.525085 640.959900 -1382.274658
-180.220993 681.440918 -888.052734
162.345718 638.258118 -1378.561401
-79.395103 925.883301 -694.332397
-45.416191 535.649658 -908.036560
-262.373962 650.370544 -1347.767212
26.019148 742.444092 -1349.758301
0.363334 596.910278 -903.966125
-21.312904 668.011902 -1356.782104
307.564270 727.990540 -1370.883545
225.181549 657.860718 -1384.216919
44.377701 944.927063 -665.327209
-289.589478 573.171753 -1352.911865
47.664234 635.291870 -1381.273926
59.839092 962.514038 -1366.202148
-292.208282 618.349548 -1349.169678
106.124252 678.864136 -1379.662109
-146.369232 718.294189 -1365.981689
85.657707 598.523376 -898.969055
164.205154 632.770325 -913.969116
19.280069 522.859985 -1347.594604
49.314007 949.860840 -580.799744
-37.347248 650.759399 -889.391724
108.218460 730.125366 -1302.719727
74.244980 927.853027 -723.542114
-121.975952 674.537292 -927.560608
-41.462811 540.007080 -914.487427
-168.970718 918.924622 -724.162781
-210.137024 628.776428 -1355.075439
171.537323 577.708496 -1363.611206
24.021231 934.127991 -646.135620
75.279160 940.611633 -626.556885
-57.651196 740.611450 -1336.363037
56.433674 645.619934 -1364.963013
116.766098 951.784912 -1378.578491
-147.187698 752.818909 -908.002380
-24.781038 929.809875 -728.233276
-85.627960 643.112366 -914.215088
177.909805 527.281921 -1360.318115
-208.225632 874.041687 -1340.033691
1.910058 936.186829 -648.318542
226.083481 838.266479 -1359.884888
-85.378830 794.676208 -1278.428589
79.041832 657.229736 -911.489197
-131.918198 757.358337 -1338.214111
152.754929 603.227844 -1377.177124
-152.501175 926.626526 -720.731018
-48.986950 507.230042 -938.275024
-231.332535 606.908508 -1347.205444
140.939697 520.518799 -1376.223755
-29.866257 721.786621 -892.496338
-18.673515 927.709473 -792.253357
48.196251 412.634796 -1360.106934
99.900215 938.710999 -647.862366
-64.544395 949.050781 -581.912476
-121.510231 948.958984 -603.953857
148.136032 745.237915 -1368.378784
-50.556080 454.999054 -1373.806519
-109.197731 954.582703 -619.116394
-58.937622 966.287964 -520.428223
-128.578659 483.703979 -932.031250
-9.451958 485.581512 -1339.272095
25.774155 771.011719 -890.516052
265.988892 860.963196 -1350.613159
7.637001 773.554565 -903.454346
109.249237 463.509949 -1375.493042
-0.033963 470.085938 -1334.455322
174.506256 678.926758 -901.568848
-205.041656 540.914612 -1357.990356
143.365112 707.579895 -1361.982178
-92.344109 511.698273 -1378.077271
67.278435 525.413635 -918.063049
-90.831352 906.264771 -746.661621
-117.032967 494.212555 -928.479126
-252.407120 668.442383 -1342.009888
81.110382 887.421509 -1388.032837
94.726364 939.102234 -640.178223
172.368607 664.446167 -1361.483643
125.666763 667.659058 -1390.860840
39.608856 950.990173 -573.133728
-93.995422 654.544373 -887.288513
-266.547424 637.382813 -1351.401855
31.112719 631.391907 -900.316223
-22.264580 692.311035 -906.743225
214.777618 816.240356 -1365.362671
-151.464844 913.377686 -772.302673
274.262177 758.218445 -1371.480347
172.029892 610.271057 -907.410950
-178.141373 496.186096 -927.312256
-112.611885 773.707336 -1355.873535
178.272491 602.579773 -1377.697021
138.381638 935.016968 -743.721619
125.559868 564.014404 -918.405090
134.080124 584.115295 -918.175720
269.547058 695.299377 -1379.308594
43.849770 931.846130 -705.966553
55.878162 947.431213 -579.970703
-81.824188 930.903992 -676.252808
-51.287601 559.785095 -1393.943726
-89.984955 925.120667 -691.733276
-137.309875 641.136108 -917.580322
278.852478 716.897034 -1374.704468
39.096138 633.825684 -1368.100342
-131.193817 729.898682 -1344.324951
-76.058548 441.822113 -1374.935669
-34.756943 958.121033 -537.497070
27.782272 540.588684 -1371.238403
-83.077026 926.536804 -712.177246
-61.357056 530.151672 -1374.303711
-232.683258 570.079834 -1389.415405
-157.553848 672.953308 -899.489380
-64.970329 570.975037 -1375.583740
-134.761597 649.357239 -1377.292847
118.721916 935.152161 -1369.560913
133.934341 712.082642 -901.257385
100.383057 541.280518 -1384.776855
131.771652 853.066284 -906.995667
-16.957232 590.359314 -1242.759399
178.772293 757.400696 -1340.527954
-101.224785 917.752197 -748.021118
253.580231 799.236267 -1359.075806
64.269310 562.101563 -895.590942
61.619682 604.931702 -1380.476563
-61.001945 818.237122 -891.921021
-174.151245 900.585083 -1366.415039
124.342339 625.072388 -1391.120117
136.252914 643.280396 -1364.191772
266.274811 704.552979 -1366.619385
-133.334320 515.933838 -914.395569
114.546844 628.485474 -919.666138
104.315788 615.753662 -900.272095
-121.651978 909.799683 -712.377441
-108.904839 842.766113 -1325.325073
-177.496033 530.022278 -917.164246
108.448524 670.463928 -913.474854
85.562576 571.767639 -1363.021240
-50.011600 583.345398 -902.024353
60.727840 754.332153 -1342.393066
-115.512146 842.951965 -906.962158
2.021675 591.829285 -899.092834
-193.911240 868.422607 -920.908020
179.721069 548.325256 -1375.592285
-162.715240 514.823975 -1363.453735
-140.218781 719.611938 -1348.322266
67.831741 489.930969 -1376.896362
176.382065 559.176819 -933.873962
-16.680666 858.352112 -911.935791
89.836517 916.254089 -775.622375
65.964279 739.849365 -1297.092529
-28.531534 923.912415 -663.680603
-21.458874 933.056213 -823.991150
-28.382072 935.499878 -690.151428
-120.362167 941.255737 -596.763794
278.929840 713.262512 -1361.872437
25.882832 629.380737 -1373.895752
-68.630020 651.054565 -1372.112183
-135.203247 600.668396 -1378.807861
-169.739746 903.885376 -744.574341
-74.525032 945.111694 -608.659851
-61.754749 931.664856 -755.652405
138.585312 736.241821 -1374.427856
-32.879974 461.906067 -1394.634399
-87.026428 696.289673 -1373.479858
174.764084 893.986328 -757.968994
163.032364 901.111816 -782.535278
-77.130859 612.585022 -1375.077271
70.638367 794.058716 -1336.736450
3.248513 507.382751 -924.055908
47.103283 500.419617 -924.921875
260.613098 828.562988 -1364.698364
-24.326736 937.303833 -617.837891
-100.163719 928.596191 -694.537415
292.083282 777.598389 -1375.910400
136.877151 850.860352 -1347.016968
-200.165710 810.237061 -934.741577
245.186661 660.254578 -1373.504761
162.060303 571.072266 -1376.498901
-42.898506 928.885010 -691.851013
-175.701065 670.192078 -897.932617
121.703606 585.699158 -912.612732
250.270996 820.424683 -1331.480103
-227.513275 684.776123 -1347.132202
-78.675674 706.429810 -891.984131
39.885365 730.112183 -900.588379
-36.799202 945.450623 -608.509094
-24.360260 530.206421 -925.086914
-200.117874 902.097107 -712.214050
55.418125 765.528137 -901.829834
-159.456024 668.236694 -903.391846
-223.680557 649.645081 -1307.354248
189.928116 834.586121 -1366.207153
54.000580 544.546631 -1380.462769
-150.396683 556.796204 -921.302734
83.253891 934.500488 -687.285950
283.371216 708.010986 -1383.944702
-2.655704 532.644348 -897.117615
30.866669 931.432800 -723.455139
-165.253479 716.773682 -891.106445
-11.113949 552.005066 -912.424744
19.440994 577.771179 -920.937927
-101.529724 497.184540 -1395.793701
163.544540 833.470764 -1368.441284
96.126411 549.480042 -909.933594
194.857742 733.002014 -878.982361
150.582153 790.276794 -1332.606079
97.179108 597.843567 -1376.820679
59.440384 482.356323 -916.852051
172.102631 614.334045 -895.429443
-250.979813 852.125488 -1407.220093
141.686661 747.301392 -1369.899780
41.043297 795.050415 -1317.714722
139.943619 750.255920 -1302.666992
-63.896576 715.501099 -1247.011108
-12.717380 670.993591 -922.362610
61.509949 436.946075 -1372.950317
105.612022 940.826294 -754.074280
-111.123901 856.833801 -911.161987
-62.524254 733.240540 -898.141357
-24.821583 612.802185 -912.315369
170.281967 661.761230 -885.687012
-58.166382 544.698669 -903.064758
221.282104 589.649536 -1376.249756
36.092342 759.176331 -1310.057251
-41.756016 961.077271 -566.532043
-168.798111 708.230408 -1341.145386
-60.743225 936.956482 -632.018982
-185.889008 604.268921 -1377.991943
-186.650620 612.084412 -1376.149536
-32.849220 977.942749 -499.307281
-146.694122 513.477173 -1377.478027
114.424103 950.323547 -683.013306
43.755531 940.986389 -623.262390
117.135559 819.391541 -1327.893921
53.419361 523.996643 -908.075623
-1.503615 932.008362 -694.257751
-145.065018 679.644897 -1371.121826
-158.260651 554.941956 -902.771606
-62.925877 931.362854 -747.221252
-110.712440 555.279480 -925.485779
8.970323 961.588745 -562.046875
-3.841874 928.601318 -724.498596
-29.788103 650.873596 -1317.348511
-169.506256 755.421814 -892.229736
-165.773636 935.097290 -592.332214
35.248600 574.617126 -1365.042969
-152.743088 580.230591 -1374.771118
-204.716431 812.293152 -914.901062
49.369526 870.256287 -906.086975
21.315241 954.990967 -570.668213
97.568901 647.618713 -892.202087
-47.536026 700.803650 -1240.090942
67.758247 499.920319 -955.705383
-53.502769 534.903870 -1352.902954
-48.331554 695.250916 -914.886536
58.744656 804.113647 -902.295532
-102.911598 949.445984 -584.354675
-7.091736 791.929932 -902.552917
137.149734 727.494507 -1298.410767
-29.018337 913.714539 -758.979248
-302.993774 594.222351 -1363.559937
120.196388 929.197083 -751.827942
75.643661 525.072083 -1374.428467
95.128990 941.345886 -617.620178
4.394312 727.402283 -1358.576050
-46.436577 489.787933 -906.452820
0.394476 790.919006 -926.517456
-180.774246 559.902954 -905.758484
-62.111660 949.668396 -541.634399
63.695763 707.398987 -911.872192
41.772224 682.279663 -887.766296
-195.671616 624.046082 -1373.675659
-106.464905 534.700500 -910.740784
-264.160004 554.142700 -1355.715088
-52.820900 965.721191 -550.598877
-59.259041 924.543823 -747.085632
-12.066153 652.782349 -921.630127
68.932854 947.816345 -601.892151
8.372587 851.196167 -1278.532349
125.413498 596.225891 -1376.627197
186.466507 623.049255 -1364.001587
183.654510 699.917053 -879.710754
235.489578 681.322083 -1379.373535
-63.463226 921.043457 -751.200012
17.510357 617.948303 -1348.604980
11.629902 933.264465 -660.391968
90.585777 941.079163 -614.706787
-166.329330 682.674500 -899.437073
123.143318 760.284363 -1353.642456
-153.369797 527.426453 -1391.475586
-154.367355 914.906372 -707.421753
155.200882 642.462524 -895.651489
88.249725 937.066711 -706.897949
-55.386494 497.788696 -1372.307495
-122.981110 930.045105 -692.925049
1.242625 951.765442 -557.760864
-67.128387 902.416687 -778.383240
-82.744987 1000.535217 -526.902222
88.448517 698.972412 -901.102600
41.466572 494.776642 -1363.890625
-23.155664 835.820313 -896.260803
-87.657654 619.222717 -893.804138
-157.218597 667.759399 -1366.421753
137.730499 491.224792 -1366.506836
223.676651 606.322388 -1376.592896
29.991703 926.479553 -802.827087
-119.667664 471.560608 -934.861267
-124.355225 956.348938 -576.176880
18.435133 932.738586 -769.278564
186.773453 595.814697 -1384.966431
98.492058 562.969849 -1386.367188
55.238800 562.071045 -1344.075562
-211.294571 933.971802 -635.652100
154.549332 543.249390 -960.544617
-100.359772 842.872070 -909.697998
-78.615829 444.638458 -1360.184204
78.235336 540.561035 -1376.018311
-259.592468 651.889404 -1353.640015
-119.722755 809.916809 -892.798645
-62.403118 581.039917 -1387.936646
-16.924017 726.004517 -1247.182007
-56.073036 824.150208 -891.814514
112.363884 537.508789 -921.239563
112.589867 953.641235 -775.853149
-107.565559 915.110596 -696.279480
14.777535 824.319153 -1357.487183
127.092766 495.262207 -1388.172119
-116.546921 958.586853 -527.842285
91.543892 592.359009 -895.059265
-178.792892 891.890503 -803.481873
165.733734 729.534241 -1356.206543
36.601704 646.794983 -1383.239746
-45.344975 946.944763 -562.627380
-110.240059 568.950439 -920.404114
-42.190228 501.256500 -903.549011
-16.816156 671.979980 -1374.143066
151.214264 575.470154 -935.178284
21.442694 876.589111 -1344.432861
53.237274 418.055084 -1360.120483
-62.586651 926.704346 -721.422180
47.385990 586.457031 -909.477478
204.305191 715.193481 -1377.186157
128.114487 520.187866 -931.869629
0.877895 707.206726 -899.829590
152.425125 590.240601 -909.588135
-206.492203 626.771240 -1370.037964
208.638474 655.438416 -1377.030762
9.752556 488.997833 -935.787903
17.463202 918.947266 -784.957581
104.701363 496.325775 -941.044678
46.900425 519.291992 -1330.809082
-174.967484 920.564880 -700.477112
-64.501678 905.705383 -803.465820
-196.690506 844.898865 -1329.006470
85.415283 656.554565 -897.831299
-53.487728 641.627563 -897.134766
126.087952 1109.150513 -1369.514526
-112.103409 939.750671 -603.693542
0.074019 549.953186 -901.703918
125.176102 591.910950 -1378.349976
117.737656 582.341492 -1389.087036
16.427189 934.978577 -673.018921
144.851181 723.387146 -1368.171021
-82.393211 607.485962 -899.523254
-100.053619 572.337280 -905.501709
-109.383041 752.889160 -1368.797485
128.465530 623.387451 -1388.610596
-17.763426 505.421387 -1354.860474
29.199453 918.313660 -800.706970
-234.295914 905.531128 -703.339294
-102.693642 643.125916 -886.890015
-189.730484 723.893555 -1353.972778
-16.138643 953.144043 -578.261230
-168.329941 685.124634 -1341.610352
66.726242 929.555786 -753.683655
-30.125261 829.989075 -906.765808
59.855469 715.606506 -900.222778
-51.088905 881.923950 -914.420410
-20.204468 610.437622 -1154.682129
128.693542 939.339722 -693.579712
128.562943 608.811218 -1385.641357
-251.993805 798.129761 -1360.751587
-76.390564 730.995422 -892.911255
67.040688 716.806580 -1373.336060
75.615410 997.526733 -1317.130005
-67.296654 442.797211 -1374.994385
-30.690638 694.782898 -1245.122925
-76.124603 484.626709 -937.471619
59.735229 766.052612 -903.184509
256.032593 741.808411 -1367.750000
-74.193710 928.864441 -756.595825
152.226852 519.245667 -1374.388672
-56.676342 617.999207 -913.326172
55.126915 944.396667 -585.848816
-29.985504 546.890381 -1370.414307
205.278122 619.052856 -1388.451538
-56.036591 984.549316 -532.129272
-132.108978 791.323608 -892.436584
246.102386 705.997253 -1375.192871
39.056145 794.071716 -907.032288
107.038834 780.052612 -1336.748413
-61.743023 566.502869 -895.074280
-18.268837 453.625488 -919.912415
2.121385 734.070007 -908.882385
-181.813248 905.454590 -807.103210
-7.177789 874.963562 -905.265137
114.710030 935.893982 -683.981812
109.813652 951.759277 -607.636292
-85.151108 654.756470 -1385.284790
-35.423058 885.925720 -899.226074
9.097771 788.142334 -916.778503
117.424110 740.624756 -1352.664673
33.610439 963.486145 -578.603149
98.968918 707.658936 -1385.776245
129.045181 556.284424 -913.186829
116.894211 776.056030 -1329.834351
-111.540787 611.008972 -898.848206
83.598938 669.631836 -888.739929
101.248627 764.344910 -1306.023071
12.235765 522.380798 -916.132629
-5.786006 1056.942871 -1292.993042
-135.783859 844.256775 -1272.456909
-92.236023 956.483521 -584.665344
-200.097641 711.029724 -903.289307
-9.929725 565.668518 -904.488708
85.632439 548.505493 -913.178406
-89.901970 650.028259 -1391.521362
90.567337 956.601257 -1372.779297
-6.120857 931.721680 -697.343567
-188.309189 831.388855 -919.350708
-80.329956 921.432495 -771.310913
201.849243 624.461060 -1374.221191
85.133301 525.893982 -925.388306
219.544449 744.974304 -686.935791
30.088631 733.887268 -1353.226074
88.254059 950.069275 -586.368835
-100.777908 429.688293 -1363.044189
-51.765156 956.356567 -533.699890
-102.689835 948.967651 -581.887695
-93.015625 530.862671 -895.164001
-203.151962 901.841858 -802.748352
84.268822 637.582581 -899.604431
-39.363140 615.129333 -1368.883667
-252.508636 902.503784 -1384.033203
-118.932823 793.544800 -912.508972
47.773674 553.169373 -902.976074
-333.417053 605.968811 -1348.090210
-190.792252 679.382263 -1315.530762
80.155800 607.640015 -1381.079346
-100.003494 922.653137 -656.030945
144.737457 520.089417 -1387.568970
-188.359940 904.434021 -765.979553
33.062637 929.751343 -642.816467
-140.251328 908.103394 -741.555908
100.079926 547.795959 -914.862183
126.759064 912.885864 -794.367004
-164.182220 667.879700 -901.257019
-112.208176 824.342957 -1345.846436
100.820389 722.012695 -888.737122
4.585780 946.375732 -626.943970
80.334213 928.785095 -654.500244
182.175278 735.459595 -1352.510864
-158.249603 740.944458 -1356.115967
-121.687828 693.941223 -905.114746
108.231117 905.309387 -1365.416138
-92.345451 922.457520 -770.458923
247.106674 774.251526 -1373.517456
-211.029434 714.744324 -906.494019
113.897064 1122.121704 -1355.290283
57.824722 952.211548 -584.405518
-101.931374 849.706543 -909.979492
-107.447273 640.035583 -1396.605103
-205.866516 658.511719 -902.572998
-288.064911 625.291504 -1331.879272
-101.677208 912.085876 -795.705750
-14.624861 940.766968 -623.402405
-32.875797 961.603271 -509.761871
51.245911 826.913086 -901.260376
204.834335 755.529663 -1369.935425
139.644653 537.626953 -937.655518
-17.050682 506.121094 -1368.404907
77.325676 530.841064 -1382.793457
2.292329 926.528870 -759.783875
-103.715958 961.110657 -568.796387
53.780346 495.963806 -1361.510620
282.849060 773.160400 -1382.428467
249.611847 812.259033 -1359.882568
-179.642029 609.062317 -904.624329
57.556396 532.708618 -910.145630
308.315033 751.811523 -1360.830566
-239.859634 663.529114 -1371.244995
96.075432 1061.565552 -1356.860107
73.298241 593.963928 -905.455383
220.643509 751.911255 -1357.893066
108.359840 544.059998 -930.225891
68.167755 930.024292 -700.593689
-68.006088 762.016663 -905.025696
-240.871399 922.274414 -667.080811
168.815659 832.709656 -1334.038574
215.079483 775.419556 -1346.074341
126.296036 645.171753 -889.532471
43.520981 526.484558 -911.166809
-33.032791 618.925903 -1211.912720
100.332916 556.710754 -1383.248779
38.030090 961.772278 -549.861450
-95.829193 602.311218 -889.372253
-25.344782 672.092590 -922.926331
-154.165482 645.729187 -1363.752075
-71.571617 924.653870 -688.398804
-130.366058 568.716736 -904.519897
144.040283 660.030518 -890.049072
58.186779 734.416199 -1384.511597
-0.616870 923.085632 -734.227356
-229.949722 558.189636 -1376.976929
-288.665649 694.981873 -1352.752563
-28.883251 926.151550 -747.334351
11.844138 572.195984 -1363.088623
-78.755974 952.453003 -637.567688
-151.099884 940.068420 -603.279053
233.630600 720.031433 -1375.205566
11.970360 535.971924 -901.762695
104.130272 924.444153 -735.581970
95.564323 790.949524 -1306.006592
-63.872219 681.181885 -912.721924
-157.974426 620.213623 -1389.776611
-243.407547 609.544922 -1373.894409
-3.500214 778.058533 -1261.506714
0.519107 920.735229 -790.310425
-186.901871 598.616272 -1375.958252
192.663513 787.387695 -1316.654175
104.330971 451.173706 -1391.453369
-0.997122 480.748993 -935.874451
94.991676 551.366089 -1377.537842
-143.730148 587.390381 -1378.868042
256.657715 650.668762 -1386.245483
71.447899 690.629578 -906.213928
-88.864250 941.006042 -618.047668
176.097305 558.560242 -1377.179810
-143.389389 923.598572 -682.802917
155.073486 918.900085 -778.323914
-109.276711 463.624146 -926.047974
1.266929 929.576965 -690.626404
-28.254585 934.689819 -634.664307
153.152145 592.097839 -1389.944458
-84.128654 1002.326599 -540.979553
-20.643280 621.296265 -1218.351563
70.526695 726.070129 -900.208191
-227.620071 604.456238 -1354.918335
-24.543211 824.391479 -892.076294
106.883850 1068.617554 -1371.828857
-131.237640 541.176697 -900.395386
72.029839 1071.548950 -1343.604980
37.094814 574.930298 -917.317871
21.369057 475.017273 -1387.137573
43.521187 935.996704 -677.573853
54.569698 692.474182 -906.976074
-26.510023 666.379517 -1339.958740
-132.401688 728.418457 -931.589050
-5.130439 930.481201 -794.605835
25.470772 917.171692 -790.580872
-86.935188 930.916992 -723.643677
124.372528 552.484436 -923.395996
52.832127 986.504822 -540.220215
113.378899 524.641724 -1376.689087
70.898216 603.292908 -912.066101
86.865761 1017.341187 -1301.270264
73.878410 941.600830 -606.328979
-65.253891 792.375671 -903.144348
-232.106384 720.285339 -902.869446
-156.855469 915.908569 -820.428894
-150.467026 914.253845 -695.969849
55.479191 746.673706 -1345.672607
-127.390968 598.845642 -1377.355103
-44.607792 667.477356 -1341.155273
254.670776 708.345459 -1375.118530
-131.236069 924.235168 -733.839966
-302.189758 731.986755 -1375.331177
