ply
format ascii 1.0
element vertex 1340
property float x
property float y
property float z
end_header
-887.144104 -137.543549 1234.176392
-996.733826 -355.349487 1036.750732
-833.174927 -611.083191 1300.112305
-470.015228 -323.032318 1030.279663
-249.607681 -380.034271 1091.721558
-1004.706360 -210.815643 1134.686523
-317.947021 -154.068405 1141.745728
-77.366440 -218.652588 1074.697998
-202.065292 -378.465912 1067.560547
-157.125076 -153.622513 1098.769775
-845.030945 -270.610901 1334.968750
-829.250366 -300.920959 1412.704346
-537.352600 -105.682632 996.057068
-862.577576 -455.067566 1272.907227
-830.909424 -295.450043 1350.487793
-965.571411 -307.573242 1143.927246
-1042.449585 -183.732895 1024.450195
-814.978455 -255.267868 1536.583008
-1016.338013 -334.362213 979.305237
-463.372711 -375.375336 1095.551514
-796.618835 -289.756500 1022.361938
-965.961792 -529.224854 1007.870544
-187.919357 -94.710968 1112.825562
-543.861633 -400.774994 899.067200
-917.982910 -569.077820 1054.530151
-220.560257 -351.451111 1082.046631
-900.542358 -511.243835 1129.834106
-490.712006 -188.974991 1116.760376
-530.401611 -202.834259 988.231995
-888.312256 -515.546753 1130.137695
-343.206512 -111.126450 1156.794434
-1010.766052 -105.405479 1137.831421
-218.453369 -278.242554 1105.644409
-56.844913 -307.959900 1077.730469
-943.223816 -183.711411 1266.859863
-914.576721 -78.772041 1320.307983
-636.838928 -254.174194 793.891113
-1043.683594 -199.197708 1011.339478
-932.242737 -325.027496 1072.792480
-57.922348 -159.130066 1094.676270
-102.503448 -258.992401 1074.523193
-473.936279 -373.650909 1032.308594
-590.593201 -382.623444 799.283081
-891.847229 -368.650238 1155.303223
-943.241333 -142.650391 1229.006592
-614.053406 -167.164124 868.260864
-598.954041 -95.896492 914.932495
-547.924194 -265.622437 945.218994
-141.140930 -344.715179 1069.081543
-314.389130 -194.313705 1137.286621
-513.443115 -356.761902 944.021667
-935.824341 -112.414864 1303.206055
-275.714417 -172.157852 1135.072388
-924.866699 -127.547882 1277.866455
-150.344391 -263.821106 1081.489624
-609.944946 -173.041779 870.698669
-550.870544 -80.487480 992.165283
-940.686707 -525.767883 1042.198853
-595.061096 -102.452721 896.048340
-568.890198 -395.307587 804.742004
-763.331116 -263.085419 1574.061768
-557.267700 -255.458694 881.090515
-1001.459290 -248.328476 1057.418823
-832.470825 -241.362091 1371.401367
-206.561493 -186.516281 1113.435303
-988.815735 -441.960999 972.176697
-207.052261 -407.938049 1068.035889
-518.574890 -337.439911 1001.016968
-868.682007 -275.791107 1255.555542
-565.328003 -73.687363 969.471924
-236.805161 -359.733582 1090.604248
-847.739197 -290.610596 1422.081665
-794.736267 -252.917542 1504.982300
-616.708008 -135.625626 870.291687
-922.703552 -551.461792 1102.370239
-970.038513 -181.371658 1188.091675
-901.163696 -566.602783 1049.077393
-889.711060 -198.668015 1289.507080
-935.195313 -277.046082 1240.482788
-955.733826 -241.325623 1213.978271
-946.913269 -528.264160 1053.454468
-238.694794 -133.196167 1130.428101
-986.622742 -318.205658 1045.676880
-288.904968 -318.116699 1122.640503
-887.158142 -306.487701 1224.373535
-939.955627 -544.442322 1054.496948
-422.391693 -444.456573 1066.984009
-615.655945 -175.661758 837.238403
-159.145782 -313.915802 1074.718750
-976.322449 -132.569778 1196.384277
-971.054993 -274.151367 1152.544556
-936.653564 -283.531097 1234.395996
-999.217224 -295.100250 1069.967896
-793.347290 -353.312347 1136.175293
-1048.415771 -170.980911 1030.641846
-328.502411 -229.316452 1143.096802
-162.453735 -279.070770 1091.165649
-569.612183 -124.487282 911.080322
-608.089661 -254.711746 818.162720
-481.856232 -296.079926 1083.395264
-308.367310 -185.800919 1154.620728
-807.919739 -269.968811 1474.541016
-898.294983 -495.139984 1131.085205
-920.330444 -518.469177 1080.291260
-278.434143 -235.650681 1129.754028
-92.975410 -200.435196 1074.778076
-140.089905 -107.451904 1115.657837
-644.019775 -128.373871 845.142944
-133.960571 -348.745941 1067.987549
-527.023254 -57.479317 1046.059814
-265.203491 -246.796600 1132.628906
-1038.617065 -267.676819 978.759766
-194.151260 -368.206146 1067.107422
-957.859741 -191.763809 1206.139526
-186.549286 -350.941803 1083.751221
-170.170273 -282.537048 1103.454712
-553.426819 -80.300880 985.806885
-536.738647 -258.326965 974.919922
-156.921631 -136.318848 1108.123779
-568.693726 -253.824844 856.749451
-244.546936 -432.726044 1070.013550
-605.505127 -192.286102 828.700989
-176.666351 -248.879852 1098.121704
-535.099121 -145.213455 986.275085
-170.990082 -294.999329 1087.639893
-1016.780457 -422.704895 955.972229
-225.072693 -135.025879 1125.550049
-537.315430 -260.506317 937.722473
-991.660889 -343.943054 1038.277344
-1053.599365 -345.321716 918.654968
-521.707764 -211.023178 963.481445
-548.908569 -359.879456 910.393188
-903.973145 -649.740601 1036.869507
-1021.269836 -195.253906 1068.992554
-798.982849 -344.457062 1393.759888
-987.975098 -230.738129 1138.523804
-535.864258 -259.470612 895.792175
-542.311218 -396.426880 887.898621
-612.696106 -325.728271 812.753113
-921.908020 -234.942230 1218.450562
-947.378967 -158.657181 1223.708130
-257.385529 -396.988861 1079.630859
-535.579773 -216.472321 997.162842
-1000.437866 -76.678291 1170.227051
-615.139221 -99.172783 910.735107
-125.052864 -177.143494 1091.167358
-520.325500 -133.707214 1032.745850
-1030.357666 -392.287079 983.873352
-899.940857 -623.774780 1070.952881
-968.851135 -177.973328 1159.243652
-502.938110 -140.261490 1104.037109
-934.249207 -387.235352 1068.379150
-285.182190 -207.777481 1137.624634
-1029.412964 -205.083557 1074.441284
-464.757843 -429.663391 976.668213
-867.500793 -598.639587 1287.808350
-1063.416260 -246.536987 936.445374
-474.462402 -460.984222 983.694946
-769.814331 -282.452026 1061.660645
-152.676422 -207.008987 1095.175171
-849.534363 -450.098389 1134.952026
-430.140320 -297.760590 1174.759399
-187.560944 -72.820541 1126.618530
-197.384857 -415.515442 1064.645874
-567.869263 -205.344223 935.622681
-495.922729 -387.112427 968.500488
-1012.952759 -406.397491 1002.154175
-907.345764 -150.137924 1235.035522
-974.853271 -171.263855 1194.299683
-1041.076050 -286.982605 952.670898
-1024.283447 -171.454712 1033.908569
-506.739899 -225.923080 1051.479370
-940.235107 -438.912506 1137.187744
-875.704346 -341.305389 1148.415894
-975.939026 -348.894684 1050.843262
-595.598572 -263.882996 815.326355
-987.645203 -482.412842 985.506226
-949.818359 -408.973907 1124.839478
-187.491623 -77.847450 1113.487061
-928.809631 -550.880981 1055.403931
-1030.455811 -377.634674 944.018127
-836.134583 -310.170410 1408.659180
-231.749741 -196.243301 1120.086914
-870.131226 -589.203308 1191.081909
-443.321899 -398.148163 1107.960815
-166.989410 -329.317627 1085.223633
-600.966858 -63.213219 909.112183
-429.259125 -292.063873 1194.080811
-996.080627 -194.357178 1148.424194
-987.180847 -248.249435 1128.645752
-297.856873 -224.790726 1124.923340
-201.950989 -342.590149 1082.473877
-1041.191528 -267.080109 995.575134
-640.168518 -170.898895 821.168884
-998.885742 -423.564392 993.898315
-942.526733 -451.540070 1114.781738
-431.320374 -401.606567 1134.644043
-953.528503 -350.372894 1088.547241
-942.377380 -133.397369 1263.825928
-1051.620483 -263.778351 928.111450
-960.247620 -95.166656 1237.180542
-600.358093 -273.326324 821.933533
-548.892700 -255.550278 870.174194
-573.548096 -342.802612 832.052307
-643.833130 -155.888489 855.249207
-968.421631 -211.933289 1145.127930
-959.601501 -547.432983 1044.632935
-575.849548 -202.325394 908.863525
-905.502991 -459.523285 1171.526489
-994.343933 -439.508087 1002.677917
-292.592743 -173.103851 1145.804199
-976.566101 -263.799164 1038.416382
-152.751266 -327.433899 1078.458130
-593.279419 -273.821533 827.053345
-988.435303 -182.481796 1119.096313
-977.495056 -97.078758 1223.243164
-460.301056 -397.549530 1094.786133
-948.194336 -565.396118 1023.533386
-218.376694 -111.404099 1127.438965
-515.768066 -118.933342 1063.039551
-505.598175 -375.407288 951.797668
-803.104553 -268.319794 1558.345215
-876.337402 -208.655457 1259.696533
-833.230225 -362.551880 1379.867065
-574.284790 -114.812271 966.157410
-126.152626 -334.286957 1059.077026
-1024.341675 -401.715240 981.521057
-1016.961121 -380.174316 1034.284668
-1004.580322 -255.069946 1076.506714
-326.518127 -190.437683 1158.063354
-556.665405 -59.856369 975.140564
-479.674469 -327.482544 1050.931885
-222.873520 -421.421295 1075.578857
-966.715759 -301.889130 1148.171143
-522.071228 -264.053162 975.368408
-522.414368 -371.555511 914.437378
-585.879578 -339.155975 831.175354
-563.094788 -152.081955 922.289978
-303.568634 -276.714233 1116.538818
-443.124481 -323.866760 1129.016113
-297.874268 -312.171631 1128.931641
-534.236450 -238.748581 938.724976
-560.849487 -87.678566 1000.893311
-232.222794 -360.353912 1096.037354
-968.924683 -442.990753 1056.231812
-61.540951 -241.396927 1103.807251
-220.784561 -231.265762 1112.451782
-665.574585 -127.571396 875.781311
-305.295105 -153.772369 1147.241089
-546.737915 -372.512085 908.798706
-571.188599 -324.313385 851.223145
-491.542511 -320.432037 1050.107544
-119.705193 -294.486298 1075.311523
-408.497894 7.408229 990.746338
-997.926147 -176.357071 1099.276733
-584.160461 -206.424255 877.730469
-575.954163 -150.819580 926.294617
-156.052002 -195.040619 1087.927368
-1015.561707 -228.674149 1026.558350
-955.902039 -168.258972 1235.557739
-1007.078491 -380.656403 1029.445190
-467.815033 -165.002792 1176.493652
-618.048584 -107.232689 880.609863
-659.771606 -128.139664 837.845398
-596.559570 -368.621063 790.086548
-910.915894 -241.180511 1252.385986
-593.016724 -285.991425 847.340088
-195.486633 -375.018738 1066.076660
-143.975800 -236.390198 1096.219849
-882.660767 -594.101135 1073.614990
-979.706543 -215.234451 1155.372681
-901.752625 -164.412857 1212.940430
-870.546753 -516.059937 1070.560547
-450.662964 -195.412323 1159.006592
-883.486267 -458.685150 1163.470459
-608.979065 -98.550362 900.373291
-296.669708 -121.979576 1140.526489
-847.313049 -525.651001 1346.153687
-265.568634 -362.519196 1090.626465
-483.323517 -285.769592 1061.484131
-375.468079 -12.490889 977.931885
-541.091858 -209.195847 956.454651
-995.068054 -277.310516 1041.162964
-269.669556 -418.072113 1083.412598
-350.888916 -239.487457 1169.380127
-600.609985 -261.931213 822.486389
-1051.935669 -161.593582 1034.395996
-973.688660 -262.586456 1116.646729
-851.276489 -329.514618 1171.794678
-838.510803 -499.804688 1297.041260
-256.206329 -387.892731 1081.643433
-1003.559326 -250.948898 1021.601929
-998.391663 -475.045807 981.336792
-983.100403 -272.756409 1157.185303
-573.451233 -360.331940 835.278503
-187.836136 -304.759155 1078.659058
-296.286804 -73.642303 1130.536255
-305.485352 23.535816 1042.470337
-167.099625 -385.783325 1059.830200
-954.399170 -299.542053 1138.125610
-847.094360 -563.443604 1077.124146
-1064.624756 -343.729034 929.579712
-479.098358 -240.505646 1116.612305
-996.279419 -322.896851 1031.348755
-1014.061584 -186.495514 1122.538818
-1028.728027 -237.780533 1062.816772
-606.624084 -344.507111 813.265625
-913.248840 -437.063721 1175.161865
-902.874146 -365.700806 1176.104248
-963.097046 -429.168732 1082.584595
-474.268402 -128.671188 1139.391113
-1066.343506 -279.382874 912.041687
-916.039612 -464.379333 1154.236206
-464.670898 -240.443207 1153.301636
-332.383667 -205.392532 1143.529541
-530.997375 -400.554535 837.241394
-899.217163 -303.772247 1257.313965
-993.106384 -165.685699 1168.956055
-513.341248 -353.741211 941.313660
-433.181549 -269.667145 1141.914307
-519.705383 -120.606209 1020.480774
-885.360046 -139.747726 1199.837769
-529.766663 -122.971199 987.883118
-903.049072 -290.632111 1034.888916
-996.975281 -176.978180 1134.065186
-202.389191 -304.090240 1097.440430
-911.538757 -534.250549 1055.244019
-97.951088 -351.359253 1050.484863
-579.057312 -335.370758 822.188538
-775.356995 -371.116821 1564.007080
-122.792305 -379.590485 1048.824951
-912.635193 -481.691284 1114.586792
-922.752380 -280.257660 979.221436
-1066.163696 -216.706741 972.043152
-973.857788 -506.773773 1002.443665
-94.672256 -288.601532 1070.506958
-567.546326 -379.101044 860.532776
-888.479370 -535.986633 1131.476807
-497.298096 -280.192261 1053.532959
-156.788284 -262.560669 1083.197754
-125.713585 -208.784775 1089.801147
-578.458008 -177.363922 900.330872
-158.546051 -179.137344 1094.894775
-484.069122 -345.574005 1050.428223
-615.194824 -218.798401 828.099365
-854.498718 -303.710632 1208.821899
-153.412277 -382.486603 1066.371948
-1036.078247 -343.289978 977.782471
-945.027466 -103.680214 1279.380249
-132.387741 -154.002869 1096.092529
-867.544983 -457.384460 1158.557373
-998.894531 -469.405640 977.775269
-502.820801 -496.065735 920.001953
-585.589478 -338.376495 802.508057
-535.064697 -254.329544 980.883362
-962.866943 -214.098938 1156.313477
-953.035767 -334.539520 1122.200195
-981.651245 -422.927368 1069.628174
-273.786621 -372.866058 1091.098267
-75.334450 -264.097229 1068.650513
-547.428162 -392.985687 838.797302
-39.966400 -300.167755 1069.162109
-973.484619 -516.632751 1015.604553
-936.077209 -573.285767 1039.680298
-262.080383 -299.303375 1119.704102
-266.297028 -189.420975 1119.198486
-71.898399 -301.700256 1058.400024
-1024.184448 -141.237564 1123.823730
-603.182861 -214.865433 830.623413
-255.685120 -133.051041 1135.180298
-631.069702 -77.338783 884.705566
-997.098450 -277.202423 1048.387573
-622.786926 -146.732925 854.845947
-983.303650 -517.567810 986.110107
-948.060852 -449.096313 1107.640503
-996.852356 -279.597137 1090.490234
-120.284721 -161.342667 1088.594116
-562.373962 -62.286701 1007.153625
-563.079529 -151.593857 936.374390
-916.204346 -499.789886 1124.095337
-1001.735718 -289.007629 1032.578247
-1008.510010 -174.756989 1141.576294
-949.710815 -129.575317 1208.948853
-576.801392 -136.877563 916.603088
-122.989868 -270.322296 1067.437012
-544.986938 -98.663811 992.705750
-927.085327 -55.185265 1316.735474
-466.692719 -254.575378 1104.116211
-86.266525 -332.865601 1053.430786
-194.011047 -221.980591 1102.859009
-621.180359 -312.420990 803.420227
-596.692383 -95.065033 897.743591
-954.503723 -446.716370 1096.696167
-551.396973 -298.595062 932.716736
-509.330658 -282.881714 1000.777649
-947.768311 -567.296021 1045.628540
-127.664963 -249.528030 1077.862183
-342.717896 -7.836281 1027.838867
-439.590942 -361.936859 1114.084595
-602.136108 -280.435730 814.149109
-928.993958 -487.805145 1147.736450
-961.224731 -484.942657 1017.755249
-852.885132 -294.846741 994.954651
-515.348511 -329.821320 938.470520
-1052.504028 -323.129059 975.183655
-131.219986 -128.222809 1107.036743
-449.592407 -373.427979 1048.096802
-903.089294 -167.545364 1248.053955
-878.416260 -613.772461 1154.045166
-887.785156 -470.332489 1154.932983
-350.305389 -189.637238 1166.703369
-962.684631 -543.461548 1007.487976
-869.636353 -556.776672 1229.058838
-868.343628 -342.271515 1166.145264
-542.861145 -207.699417 955.338806
-949.359863 -451.880310 1107.418091
-523.813354 -280.708771 944.915588
-523.669556 -294.739990 970.965027
-1036.312744 -388.044037 935.219727
-96.539696 -297.085083 1072.423950
-584.453369 -213.150421 873.775513
-950.324707 -233.816635 1218.172363
-107.126518 -251.445526 1071.159424
-942.089417 -228.398987 1194.222778
-840.970459 -251.853027 1433.587646
-529.102783 -140.553391 1034.007690
-530.429749 -231.888901 989.905823
-488.795410 -280.965881 1031.500977
-467.157379 -353.172302 1059.231323
-320.727722 -160.418594 1137.098999
-561.268799 -333.992981 849.891052
-578.818848 -70.950279 964.667236
-856.036377 -241.954208 1424.312866
-502.946869 -241.316315 1016.025452
-1026.385986 -249.683899 1027.042847
-243.954666 -397.359314 1085.359009
-1035.393677 -275.695038 973.997864
-132.235062 -160.629913 1101.379150
-289.093964 -386.001404 1101.834595
-889.394043 -617.450073 1136.603271
-987.143616 -206.425415 1120.282227
-601.087524 -204.876831 849.775635
-888.056824 -138.384155 1239.894043
-827.243530 -289.558533 1001.888977
-986.201050 -291.705475 1060.850342
-926.941162 -308.910492 1212.391602
-192.216949 -256.008057 1112.779785
-507.041626 -329.475616 968.334656
-446.072296 -223.991928 1157.803223
-555.869080 -310.735199 849.998474
-1023.913696 -178.416229 1102.407227
-984.347168 -471.115143 1039.309570
-1001.221802 -362.242371 1052.306030
-932.403198 -413.002838 1162.771606
-201.048279 -145.726379 1112.177368
-603.921448 -176.753448 832.890869
-973.613220 -447.892273 1043.184082
-932.708557 -503.764130 1102.197510
-70.168892 -355.694855 1065.400269
-849.748657 -249.020294 1201.306030
-182.854736 -303.822998 1093.389648
-623.711243 -388.645142 788.920715
-550.298340 -74.345299 983.978271
-940.687988 -262.749420 1180.740234
-937.766479 -383.391968 1141.252808
-634.061890 -164.925217 836.400146
-624.445801 -196.638992 801.902161
-296.144135 -261.882568 1133.711670
-256.942688 -232.062607 1118.659180
-973.693420 -68.283432 1241.241455
-588.730469 -192.853378 877.555420
-311.147186 -202.892975 1147.777222
-85.675209 -154.326477 1084.168091
-1001.966431 -469.221588 1009.525085
-630.983948 -213.382904 835.883484
-994.206543 -174.321732 1143.794189
-813.605103 -511.338898 1338.462891
-428.489960 -335.040771 1117.751831
-852.293152 -551.905701 1306.628784
-905.337341 -216.949051 1291.734497
-125.403160 -187.862411 1094.989136
-1020.002380 -421.844757 950.748352
-756.778748 -253.551575 1401.896362
-1049.610962 -158.342209 1057.530884
-305.455048 -271.290405 1135.032715
-1055.961426 -219.207336 992.964844
-932.548767 -285.423950 1012.282471
-906.661316 -304.072815 1234.568359
-507.650055 -332.349518 1010.666809
-946.153625 -508.274139 1097.396851
-561.142334 -189.101837 919.552185
-281.412201 -181.614151 1140.639404
-483.461151 -372.777649 1010.877319
-560.875793 -90.638344 990.067993
-136.646591 -323.886261 1060.971191
-1000.357361 -390.917694 1010.916443
-557.861511 -171.432480 930.530396
-986.436035 -176.634903 1119.934326
-440.081116 -370.650024 1112.572998
-179.965439 -425.178741 1046.070679
-492.720398 -124.419495 1065.021851
-979.529846 -413.975739 1058.255249
-540.558289 -216.297607 907.942383
-562.001892 -248.304214 879.899475
-48.800758 -282.876831 1062.569458
-470.916565 -437.665649 1053.543823
-961.548706 -561.552551 1006.946960
-504.472229 -433.742462 961.259583
-971.194763 -264.306274 1168.002441
-769.016357 -456.316498 1295.677979
-950.888245 -279.041565 1160.662476
-863.491577 -251.845245 1436.077881
-201.119659 -264.722229 1113.666382
-609.010315 -202.141983 829.653381
-1020.533752 -189.563248 1073.182861
-134.681854 -357.558350 1090.340210
-1012.036194 -311.633026 974.543396
-246.446152 -386.128021 1080.428101
-600.904053 -414.751678 791.751953
-1001.480652 -464.740692 1001.049194
-97.115509 -323.309479 1058.037842
-552.361633 -291.908752 882.567932
-968.848877 -426.415100 1069.561279
-953.292419 -182.229202 1228.258667
-89.816650 -400.947296 1063.854126
-530.961365 -353.590485 867.385681
-345.282410 -233.502335 1152.265503
-306.266296 -423.276703 1093.710083
-1006.213745 -447.673035 969.954773
-511.058075 -76.119019 1047.670044
-1019.103271 -260.591278 1035.614380
-1040.525879 -249.137695 988.392578
-1034.047363 -225.568436 1053.674927
-511.941406 -257.642334 1008.565552
-947.269531 -351.758850 1040.158813
-1072.855225 -270.664917 932.128357
-481.465485 -303.457794 1057.822998
-599.704590 -115.847549 902.592102
-222.439438 -212.116440 1119.417236
-446.616882 -386.941620 1090.449707
-550.825439 -82.699806 959.788025
-976.169189 -223.986618 1172.852173
-1013.686401 -120.800026 1153.088867
-504.496185 -402.384460 901.962097
-981.430603 -397.580170 1057.973022
-521.190491 -204.992355 981.427429
-894.991821 -509.836090 1127.976685
-635.525330 -173.021225 848.890564
-522.740723 -291.048767 941.838928
-78.345757 -352.626068 1063.121094
-560.023438 -81.484886 972.664856
-85.744568 -236.035233 1070.712524
-977.841064 -313.173035 1052.139771
-956.907227 -239.621368 1191.038086
-932.863586 -398.310059 1130.875366
-1066.581665 -236.403122 946.563416
-120.839249 -266.824890 1073.452026
-959.860718 -353.399994 1080.737427
-936.963623 -117.890434 1237.899048
-290.847870 -390.397888 1094.639404
-119.722061 -114.075409 1125.993164
-931.978882 -211.826447 1227.555908
-249.626740 -108.584808 1148.743652
-550.942566 -311.234100 867.346924
-877.048340 -198.979706 1327.151978
-447.927887 -256.534576 1186.253540
-590.557617 -66.506859 933.529724
-933.899109 -454.922272 1143.760620
-475.360596 -332.741760 1011.801941
-573.981323 -264.629944 849.116150
-560.828979 -196.457825 905.618042
-216.953644 -218.898071 1105.021973
-270.346130 -121.680122 1141.452637
-92.686852 -135.215836 1090.078369
-197.142426 -143.957962 1118.451904
-283.236145 -431.894928 1080.236206
-950.160950 -555.570435 1002.392639
-563.797729 -152.053238 973.262024
-515.017395 -365.897644 917.529724
-599.891052 -316.443176 825.800049
-1015.350586 -245.040527 1019.111633
-187.288818 -332.565979 1073.433716
-103.396431 -228.018372 1073.801636
-956.889160 -466.662018 1082.034790
-815.035889 -281.412628 1387.824463
-611.590576 -192.383347 831.275818
-344.293304 -210.787582 1143.205200
-871.873108 -469.708099 1169.597778
-953.327576 -48.005676 1279.462036
-207.285355 -169.200974 1118.457520
-272.775696 -435.908691 1087.252686
-237.046844 -283.592529 1102.090210
-523.877380 -248.086136 928.545654
-259.664063 -351.185211 1107.982666
-144.463974 -292.048431 1069.612671
-543.309692 -322.010620 890.769165
-1047.999023 -368.467621 912.985596
-485.601898 -422.442047 1048.130615
-1016.607239 -156.618683 1096.089722
-934.944885 -548.660400 1044.868896
-988.001221 -431.852295 1022.124451
-125.285530 -303.189117 1066.165894
-613.726990 -116.271149 880.070129
-144.190414 -370.988403 1064.582031
-1012.570190 -199.794540 1091.516357
-963.200378 -476.662384 1058.938354
-912.751587 -208.886520 1238.907471
-938.467712 -270.877991 1217.512451
-329.131134 -310.091705 1147.661987
-942.516602 -179.514374 1227.613892
-619.200317 -271.589203 797.365662
-642.193420 -216.388367 812.152344
-275.137329 -290.569550 1121.731323
-173.223816 -176.913773 1103.818359
-1001.129639 -219.598892 1065.822998
-934.483093 -98.902725 1282.401733
-645.429382 -115.698372 869.804749
-1011.479980 -361.912537 1028.510986
-939.449829 -408.984924 1142.917358
-186.343674 -449.518799 1052.934814
-299.979126 -184.697067 1142.189941
-1025.301636 -209.271301 1071.485229
-290.280457 -91.404984 1145.383301
-549.721436 -394.641144 834.319153
-832.506042 -530.302490 1352.814453
-966.183105 -55.256336 1215.426758
-619.776733 -100.837555 898.752869
-223.199234 -111.945587 1126.908203
-1017.756287 -430.974182 1006.065979
-188.456818 -210.805527 1099.375732
-828.238159 -234.040115 1439.607422
-989.167847 -381.044159 1012.530457
-943.553101 -82.518356 1211.949219
-955.616394 -461.086609 1078.919434
-295.091614 -153.476730 1149.306396
-106.312981 -268.546051 1084.401367
-165.442856 -377.745361 1062.128906
-203.112534 -344.460297 1085.377563
-978.241638 -469.885895 992.318298
-205.385773 -79.368843 1130.271973
-816.791321 -348.897522 1161.225220
-962.320374 -524.044312 1037.750000
-299.489441 -409.352356 1092.489990
-950.224976 -579.388794 1011.049744
-1001.259338 -220.196198 1143.013672
-1025.100830 -170.557816 1040.566650
-631.875061 -125.240349 851.049927
-238.777237 -95.163956 1122.992432
-963.887878 -500.857605 1007.930908
-968.555176 -540.169922 994.972778
-1037.023926 -295.618805 964.085693
-215.830734 -246.820328 1119.513794
-105.556404 -284.410400 1062.560791
-296.796265 -314.133575 1128.503174
-972.820068 -484.391388 1081.402466
-937.773376 -614.080811 1032.918823
-183.441620 -201.035812 1106.373535
-625.798462 -108.510872 885.803894
-1028.773926 -292.117371 990.147034
-81.086449 -362.615417 1051.244507
-613.347778 -152.762329 856.317566
-223.375992 -151.236221 1120.544312
-890.651001 -81.750717 1234.024170
-963.315552 -54.927280 1290.016235
-892.154053 -202.031723 1276.449341
-956.315125 -486.711914 1022.652405
-541.918152 -327.316284 856.472290
-246.268234 -139.701828 1118.725830
-991.130981 -208.626953 1137.128906
-58.330662 -226.872665 1070.213013
-865.348999 -258.705048 1398.382935
-599.790344 -152.910614 862.712463
-907.510193 -237.186218 1264.782715
-610.701843 -193.783493 813.964844
-30.807404 -270.987823 1063.670654
-994.385864 -237.479156 1119.173706
-308.686493 -199.286499 1151.431030
-583.297913 -77.949806 943.176819
-482.927704 -231.597000 1087.877930
-181.053726 -146.292313 1113.800171
-451.209717 -393.791016 1034.840942
-564.796875 -284.501068 857.620178
-973.638123 -139.426132 1215.945068
-431.115448 -351.528107 1097.100952
-904.518127 -172.905106 1302.935791
-590.711487 -97.401649 919.967590
-505.957428 -406.994690 927.918030
-575.182739 -218.917191 904.147705
-586.314697 -253.654831 850.671570
-437.284515 -351.303589 1134.343018
-232.608276 -430.253540 1069.903442
-967.990906 -269.662811 1101.186279
-920.400146 -318.507813 1225.992920
-952.239990 -106.176567 1207.222290
-136.697586 -146.712250 1092.338379
-917.045166 -299.483948 1248.630249
-953.688660 -190.915421 1196.269653
-73.698929 -361.341187 1045.919434
-610.133972 -81.684235 917.067749
-585.885071 -287.428101 841.075867
-614.033569 -329.636536 800.732422
-596.779968 -340.171417 823.700562
-965.543335 -28.672941 1275.695313
-989.712708 -271.425201 1103.256348
-956.407593 -280.387970 1202.575562
-912.758057 -553.398499 1046.155640
-522.659790 -305.827667 909.100159
-274.600677 -192.148819 1132.302734
-1016.372925 -386.840332 975.785278
-149.321381 -295.417023 1085.473633
-611.929932 -321.381897 795.217102
-1004.415161 -417.694153 990.301086
-503.023438 -70.096855 987.375732
-1013.113708 -242.684006 1071.322144
-200.731232 -139.105621 1120.384766
-959.017578 -414.319092 1053.720947
-481.350189 -358.961029 1089.409668
-201.291885 -163.551056 1111.101807
-597.453735 -116.728096 888.442261
-999.072449 -78.063225 1190.424194
-913.746033 -299.721466 1037.720459
-1011.134399 -403.902100 977.489197
-866.093079 -444.705231 1205.932129
-1036.595459 -191.922852 1034.141724
-263.722900 -343.085907 1105.511353
-605.899658 -124.833069 865.132629
-593.018311 -287.477905 814.371338
-488.639984 -68.518967 1064.472778
-798.956543 -307.092255 1358.812134
-496.731232 -297.765533 1004.132935
-1023.475037 -124.261780 1123.974243
-518.316223 -330.125336 899.140991
-580.327271 -231.597397 888.505493
-273.003540 -109.822273 1160.469604
-265.369507 -417.949677 1080.321655
-559.594360 -344.252197 850.179260
-501.097931 -282.603149 1002.320740
-1031.111572 -400.785553 932.200745
-959.380859 -303.306000 1055.386597
-862.754639 -253.701141 1405.015991
-309.786072 -178.448059 1144.807739
-615.090637 -298.786316 789.708130
-908.077637 -499.965088 1136.607544
-1014.273865 -229.533829 1106.161377
-107.968758 -235.507507 1080.086670
-966.878906 -408.694000 1091.142822
-264.705017 -351.202759 1094.747925
-882.067322 -166.425262 1212.140259
-1027.606445 -363.472534 952.100525
-932.155457 -79.515251 1317.853149
-928.524658 -172.566330 1305.372803
-124.511673 -141.500244 1112.409424
-466.802490 -360.303009 1046.076782
-204.412552 -406.200073 1072.738281
-251.204910 -257.891571 1111.909668
-826.921326 -306.119324 1167.576050
-1037.399414 -296.178558 936.880737
-1060.578125 -213.649872 961.151062
-852.467651 -225.685806 1374.600952
-606.653442 -349.957672 769.688477
-140.653824 -398.827515 1050.670410
-968.041504 -287.294312 1153.059937
-963.703369 -263.196411 1179.462524
-1009.012634 -241.291397 1044.126953
-1051.800415 -279.517517 954.133362
-952.751892 -276.502045 1151.534668
-552.125244 -150.208740 977.727844
-552.311035 -128.070541 957.588135
-926.129456 -454.835724 1123.852661
-890.348511 -494.388916 1081.659668
-576.538086 -314.093140 825.534851
-923.491089 -69.862579 1213.787842
-898.341309 -454.624756 1192.540649
-221.969467 -301.070496 1094.577881
-1055.846924 -237.892166 986.557922
-87.972496 -167.459335 1087.385376
-856.123474 -283.964142 1369.630371
-947.653931 -440.471039 1071.596924
-133.741013 -141.380234 1094.788574
-442.825073 -340.298553 1114.316772
-593.153198 -174.780579 847.712219
-951.189819 -564.756592 1007.010254
-82.059547 -177.296677 1092.848633
-100.830559 -323.254913 1072.250122
-958.443665 -193.485092 1222.577759
-1031.931152 -326.948120 997.749573
-76.247215 -206.384613 1072.872681
-266.988556 -189.606125 1134.867310
-285.762573 -187.901779 1140.486694
-142.543121 -176.848236 1095.717407
-585.253052 -240.114410 881.321106
-205.437897 -127.581566 1122.292480
-497.627930 -352.206970 1051.165283
-462.646057 -323.908569 1146.474609
-1034.119507 -203.871613 1034.248901
-945.469604 -334.126221 1054.764038
-659.598145 -121.753517 849.256897
-922.216309 -319.884766 1000.326111
-879.247925 -285.169067 1342.584106
-283.217651 -265.428131 1131.806885
-932.750305 -299.987640 983.752747
-752.281799 -405.840881 1559.927002
-938.238464 -109.889587 1276.309326
-992.559204 -213.174362 1129.953003
-478.144562 -373.361786 1026.254883
-516.633545 -248.896545 945.567688
-467.647247 -299.651367 1098.608521
-570.876404 -58.271446 989.095520
-301.468201 -161.342575 1150.858887
-941.857666 -304.231689 1008.477112
-876.401917 -288.764160 1237.327881
-956.414124 -283.729706 1176.367188
-468.887390 -346.351593 1099.687500
-567.436218 -206.042862 886.271240
-952.574646 -314.099731 1135.807495
-448.118958 -358.792389 1103.462891
-244.567474 -275.034943 1106.197388
-856.990723 -240.431091 1340.586060
-934.705444 -81.880585 1215.907837
-359.718109 -471.660583 818.700928
-251.101349 -221.907898 1122.569824
-149.288147 -164.614502 1099.684448
-591.353088 -247.290955 820.655762
-163.605118 -173.092728 1106.033081
-825.289429 -506.007965 1326.114868
-547.356995 -401.176392 837.323975
-632.273193 -209.244370 793.666504
-963.134155 -318.825409 1126.595459
-565.552124 -207.072083 917.138123
-834.310669 -250.569031 1418.617798
-519.589600 -222.138275 961.882202
-843.033020 -588.535828 1102.135498
-187.154541 -189.158142 1107.599854
-958.726501 -59.700600 1269.242432
-337.026550 -256.235565 1159.977295
-973.668274 -513.336792 971.810059
-982.570496 -449.869507 987.905396
-287.338959 -116.532211 1144.325195
-850.869934 -424.956573 1214.464844
-620.683716 -110.577164 875.452454
-780.245605 -360.868347 1556.200684
-229.993118 -466.712463 1072.969604
-992.193420 -280.870911 1061.277222
-541.366150 -202.818573 947.466492
-1053.560547 -277.348541 910.297302
-985.677368 -75.741959 1176.729980
-144.846832 -102.946007 1119.955078
-337.698029 -98.127281 1163.691895
-247.112732 -333.400177 1108.695068
-595.162964 -106.073685 905.524292
-522.280212 -336.766937 909.264893
-841.682739 -278.713226 1276.734253
-1034.210815 -178.365021 1085.155640
-1023.878357 -168.484604 1089.367798
-63.965046 -178.621887 1124.846802
-198.920044 -193.449814 1102.906006
-917.903503 -646.847961 1044.089111
-597.161865 -146.857529 862.505432
-527.196594 -161.846146 987.351624
-525.812561 -235.079254 971.124207
-66.016708 -237.131119 1087.449097
-495.883301 -170.991928 1089.711060
-974.114319 -515.059265 1009.201965
-198.537476 -318.513824 1084.733765
-138.768890 -294.035217 1073.788696
-453.951416 -183.325119 1192.088257
-496.458160 -435.175659 984.172913
-854.440857 -267.739380 1383.574829
-241.272614 -255.647263 1124.994263
-258.403778 -88.145844 1124.827759
-872.480713 -271.161255 1355.677124
-968.622131 -194.878403 1152.189575
-109.470779 -157.448135 1100.844116
-979.524597 -478.973450 1045.778442
-954.898987 -263.790741 1184.684692
-333.841522 -202.178757 1148.743408
-478.132629 -344.071045 1038.326782
-941.789246 -273.965057 1204.864258
-519.861938 -307.999969 981.108826
-996.088623 -205.146927 1083.593018
-587.754395 -274.478546 827.142273
-175.352936 -250.809586 1099.484131
-477.167297 -209.408096 1117.965088
-497.041901 -315.709839 1034.784668
-539.649231 -243.488678 987.667786
-1054.960938 -292.071198 924.091736
-975.645142 -405.022217 1058.812622
-724.780090 -351.168365 1439.497803
-618.049561 -278.062134 808.757507
-617.631592 -63.029823 906.748901
-819.698364 -314.881226 1424.622070
-325.649445 -243.010727 1128.026245
-828.689331 -262.744598 1424.378418
-577.986572 -352.570923 809.632813
-196.447388 -116.080772 1125.269165
-105.814011 -387.735748 1048.593994
-1031.749390 -271.646484 986.011963
-112.044975 -115.952141 1124.303711
-832.016418 -556.107971 1332.410645
-92.314812 -139.633530 1093.435425
-560.644470 -352.131439 869.453430
-882.055054 -242.414703 1369.076904
-48.592041 -247.720673 1067.489746
-529.620239 -181.515823 962.755981
-540.592834 -253.299408 924.004822
-332.905487 -281.736877 1141.953613
-1033.032104 -377.749603 915.113770
-480.670837 -423.098114 937.954834
-222.924698 -233.057510 1113.550903
-1033.652710 -236.969360 1014.162476
-944.187012 -328.100403 1154.728760
-597.044495 -128.724472 896.052734
-605.475159 -307.583923 814.947937
-930.159485 -197.786652 1256.551880
-551.730225 -320.615570 895.028870
-624.758179 -128.844376 854.721985
-294.437073 -193.065979 1135.967285
-519.507935 -391.894379 973.639221
-1008.233826 -343.884491 990.982849
-933.834778 -535.178955 1067.977661
-523.318787 -287.807831 922.194702
-46.529251 -201.148254 1072.722778
-976.616394 -270.989563 1099.959351
-533.845520 -161.054138 973.776001
-978.410278 -498.444366 996.613281
-196.061615 -309.064758 1096.815063
-284.048798 -279.551208 1136.389038
-962.808105 -321.734283 1109.113159
-616.770081 -96.065193 891.083313
-795.278259 -401.451660 1230.590210
-79.278336 -258.067780 1066.680420
-972.918518 -245.540833 1187.886475
-1036.155029 -236.935654 1041.959351
-876.211975 -266.094452 1190.582520
-962.548950 -565.838013 1005.805481
-166.590179 -231.992172 1095.873657
-464.759918 -239.836823 1114.785156
-490.101410 -283.826935 1094.325195
-498.703583 -301.867676 1016.104431
-551.461609 -282.495697 939.434875
-95.002914 -301.090637 1060.090942
-875.540955 -632.416504 1199.432251
-319.360718 -148.984573 1166.247314
-1064.047729 -269.712585 928.235229
-463.714569 -257.756073 1141.521851
-312.936066 -354.489899 1124.048950
-186.148193 -210.235367 1106.568848
-439.035034 -336.184479 1093.503418
-854.469910 -241.018677 1391.339844
-161.342819 -269.576172 1081.372437
-929.183044 -331.589539 1012.407471
-265.731445 -397.214600 1082.545532
-939.295105 -531.881287 1052.955322
-265.479797 -240.231735 1131.928589
-988.302551 -339.402618 1005.218994
-870.891357 -254.189972 1280.549438
-79.356316 -137.591309 1093.171753
-467.309998 -412.204132 1020.079041
-852.963684 -414.620850 1204.424927
-1005.728638 -264.222900 1001.828857
-986.504150 -405.283600 1048.384766
-933.904114 -472.093750 1120.124756
-180.364410 -301.614258 1084.359131
-882.013306 -181.866211 1224.090698
-889.519836 -570.132141 1084.622803
-988.219788 -44.652328 1242.170898
-114.219276 -335.772095 1058.411377
-193.436234 -83.912666 1130.130493
-1015.424194 -175.911163 1113.231445
-948.261353 -92.555862 1252.842041
-1008.237000 -275.899292 1020.346008
-860.745300 -553.391113 1287.086792
-337.785278 -192.425873 1157.755981
-638.708679 -145.964096 862.823120
-580.313293 -46.733463 937.465454
-470.614166 -229.017868 1162.901367
-522.601868 -200.176895 989.935059
-234.287659 -282.026733 1105.509155
-983.938599 -256.159363 1090.192017
-942.173584 -58.818192 1278.984497
-1000.917969 -413.346863 996.514221
-224.741165 -214.515945 1112.278076
-989.668213 -299.657349 1096.883057
-235.887787 -141.712723 1125.515381
-530.617920 -243.588501 922.103882
-322.630035 -136.187622 1151.139771
-339.657593 -141.065643 1159.898315
-854.055664 -256.124817 1407.601563
-591.325867 -203.914093 855.120544
-992.938904 -260.115601 1010.746033
-921.069336 -277.850128 1257.066284
-864.012878 -499.776917 1109.172241
-95.287735 -327.040527 1068.043091
-956.162231 -523.994202 1051.470215
-120.121002 -420.434204 1047.216919
-431.127655 -376.244232 1090.733398
-998.530273 -119.071251 1175.302002
-272.637421 -338.753693 1105.536377
-558.673828 -141.479095 973.740662
-941.997375 -142.926483 1212.141357
-870.263977 -318.549042 1211.666748
-229.809036 -324.825439 1104.314453
-993.366394 -311.412231 1006.539734
-646.073792 -96.130066 883.173584
-253.981750 -267.145142 1120.148315
-54.578632 -202.289597 1068.099487
-1026.449097 -405.574799 941.671448
-446.148224 -437.620239 1015.757324
-554.163025 -208.755264 967.786987
-579.117126 -120.956032 910.434448
-609.150574 -344.401489 811.392944
-859.688293 -489.351593 1175.635742
-218.109131 -142.502029 1116.619629
-944.386475 -92.060776 1308.047729
-1027.687988 -391.026276 974.550293
-914.447021 -284.344025 1197.986328
-139.065048 -195.363708 1087.283569
-993.198669 -473.842560 1011.532288
-772.267212 -461.613770 1255.669067
-306.208069 -289.037598 1131.473755
-934.448425 -530.031067 1052.105347
-330.013184 -218.069321 1148.923706
-58.647449 -261.874817 1065.735474
-1011.513550 -393.854523 1018.397461
-1046.053101 -227.066971 1006.391663
-78.981483 -297.438171 1078.776123
-979.390320 -146.509399 1206.025879
-113.808014 -171.454453 1088.290527
-625.330933 -136.236023 858.328125
-858.076294 -509.441376 1242.695190
-1017.213806 -123.865601 1107.464233
-330.101196 -287.024536 1141.584473
-249.852707 -316.879028 1111.592773
-173.911636 -286.019684 1077.556396
-866.425781 -557.790527 1195.458618
-973.230347 -300.842743 994.451111
-950.498169 -100.772217 1253.573364
-921.795227 -322.775269 1177.326904
-831.783997 -250.753738 1427.359009
-875.160950 -445.850616 1180.031006
-1005.709595 -152.356720 1128.006592
-903.386108 -196.820465 1226.955933
-932.772156 -313.434326 1011.471191
-921.142151 -530.987854 1106.229736
-311.562744 -412.552338 1099.293335
-256.793579 -174.045731 1128.828613
-143.387131 -278.750031 1091.008789
-163.402756 -188.652435 1094.612915
-944.232910 -503.052490 1104.176025
-561.763123 -222.968781 931.945129
-204.041870 -85.918190 1116.020996
-1004.275879 -368.284912 1005.731201
-984.401184 -288.124786 1140.197388
-922.337341 -287.877716 1250.396606
-342.314148 -165.762207 1164.068970
-449.149933 -328.901459 1072.261841
-482.813202 -419.368011 977.232239
-947.869751 -403.125061 1139.472412
-957.643250 -72.072693 1290.432129
-999.653442 -325.178864 1017.493408
-467.622406 -227.769165 1151.757813
-911.261719 -225.964752 1216.231567
-534.916809 -195.507797 1007.919006
-534.557190 -420.849365 843.164124
-270.603058 -275.823517 1125.829590
-557.661011 -340.803253 855.417480
-340.712921 -3.751913 1031.887573
-594.296753 -348.574127 791.864136
-642.803650 -154.836884 845.340637
-870.475769 -192.966995 1264.278320
-503.835999 -434.743835 986.755005
-456.601349 -220.331451 1112.266846
-67.595222 -329.933807 1070.073486
-227.747345 -391.647339 1072.258179
-957.710815 -325.835876 1152.595093
-550.460754 -402.757660 840.166138
-53.419785 -263.697632 1109.034424
-546.027283 -72.963844 1003.840027
-253.258408 -397.270447 1082.640747
-451.910614 -298.526062 1158.864746
-185.478653 -379.535919 1074.554565
-467.672791 -277.540039 1151.538086
-557.750549 -377.597504 832.332458
-1014.984863 -165.867477 1120.565674
-501.485474 -97.267395 1067.176147
-215.025574 -237.931229 1120.312866
-1029.647339 -138.131790 1098.338745
-974.924316 -162.719009 1187.050415
-1003.411926 -386.275269 1010.263489
-910.912109 -330.191437 1013.605225
-873.218933 -638.001831 1138.079102
-350.264587 -110.695839 1159.960449
-291.720642 -185.337082 1148.761597
-976.812195 -470.518585 1019.071167
-537.715088 -387.401459 873.068481
-530.081970 -266.662811 951.488464
-93.165977 -302.648621 1077.463257
-493.112030 -376.799225 1022.081848
-502.272552 -178.421051 1035.910400
-167.842453 -186.696060 1099.278931
-973.281677 -186.835205 1198.007202
-1057.246094 -255.067322 914.580872
-981.116211 -502.427399 1054.150024
-1001.200989 -94.463135 1190.822632
-492.685516 -214.005417 1098.279785
-977.058960 -270.419464 1033.000977
-147.425491 -194.042908 1086.130859
-537.247986 -403.908142 848.892578
-878.646484 -290.571991 1250.551392
-1033.113647 -262.565338 1000.580688
-962.760681 -45.574162 1234.931641
-565.101501 -278.239929 831.471252
-980.757202 -78.095665 1186.670044
-488.852051 -104.174774 1101.773804
-255.459930 -106.419487 1137.894775
-309.515320 -139.864014 1148.440308
-960.370850 -144.716507 1211.005859
-1033.169067 -171.360901 1079.095581
-189.507599 -171.335480 1110.466797
-436.519196 -349.692932 1092.830566
-604.901611 -325.826935 806.944031
-75.071518 -225.092636 1070.241211
-475.657684 -233.466965 1107.364868
-963.564575 -77.087128 1258.966187
-896.174133 -557.943604 1085.284668
-792.609558 -251.310959 1538.201050
-909.762512 -420.296021 1166.604614
-115.028076 -124.639046 1110.903809
-257.827667 -380.320007 1094.362305
-933.850342 -504.596710 1075.507813
-955.953369 -347.918335 1035.708374
-622.766846 -123.559067 870.457703
-421.372192 -264.147980 1177.797852
-158.621002 -284.549316 1083.700806
-218.306152 -128.023849 1124.018433
-1046.443237 -192.425064 1050.972900
-248.422562 -102.825478 1154.510010
-895.387878 -261.092316 1369.773682
-992.523071 -245.590042 1116.347168
-229.510529 -122.198708 1127.657471
-253.157242 -158.853577 1129.184937
-921.814331 -591.335571 1034.355103
-1040.781616 -289.194305 933.094727
-482.939331 -316.049255 1034.146973
-882.612366 -516.049927 1071.811768
-975.978943 -273.420837 1003.522156
-1001.775208 -250.750214 1094.763184
-139.635468 -314.812012 1079.618896
-217.796158 -260.652863 1108.199707
-229.075974 -291.929047 1104.426392
-132.744827 -179.863922 1094.724121
-468.077209 -283.103180 1121.879395
-923.268372 -113.478065 1330.531128
-336.305786 -366.548706 1133.234009
-460.583008 -254.745377 1107.156738
-157.471054 -370.536346 1068.042114
-994.287720 -235.010452 1130.189453
-299.687988 -144.590408 1152.773315
-1014.244507 -146.800827 1144.484131
-934.881042 -468.487274 1086.833374
-1057.029419 -213.976746 970.070740
-967.350708 -525.175232 1006.914490
-228.089203 -165.528687 1118.913208
-96.969070 -367.544983 1050.590698
-981.790222 -430.515808 1040.221802
-986.315979 -160.040344 1140.475708
-117.974815 -117.929413 1099.010376
-1058.381714 -279.507172 907.577087
-607.948181 -231.517029 818.499634
-519.511902 -247.810486 967.696655
-162.981064 -250.899185 1093.948364
-81.549820 -201.610046 1080.717896
-568.287720 -155.696075 933.651184
-618.225830 -212.109741 799.227539
-1024.457275 -221.213409 1045.282349
-486.608154 -294.147858 1032.450317
-951.987366 -492.726959 1072.850220
-986.126953 -257.817749 1103.583130
-239.402954 -157.876282 1123.996338
-972.301270 -254.947327 1157.602783
-627.724121 -287.740601 799.997498
-581.653198 -237.134552 845.112244
-1042.158081 -298.556702 929.506653
-634.625122 -294.225952 809.864136
-125.129944 -318.368378 1061.456177
-559.963562 -85.458763 958.495850
-148.711838 -290.266113 1070.487305
-949.789551 -33.196918 1275.563965
-1001.035278 -131.629135 1179.242920
-542.455811 -325.371765 870.803284
-275.420135 -354.962006 1094.847778
-168.221970 -243.749741 1099.961792
-1021.144653 -149.357025 1091.434570
-877.520935 -511.055145 1135.124756
-999.608887 -441.477478 1031.246094
-960.814819 -398.665680 1068.251221
-902.091736 -241.814911 1309.034058
-545.957397 -203.208237 977.993469
-1018.679688 -224.092087 1060.071777
-190.133957 -194.355316 1106.049316
-554.695374 -337.715637 907.225037
-163.108124 -131.885086 1103.742920
-1052.227417 -280.813507 938.962219
-275.361084 -255.242767 1112.740112
-531.617798 -149.113052 1034.118164
-929.267212 -313.790588 1205.971924
-781.478394 -322.453033 1575.152466
-948.147644 -74.488914 1295.207886
-514.327881 -227.160446 1058.628418
-128.447708 -143.958878 1107.182129
-986.407288 -514.084045 1007.911926
-889.993164 -204.370178 1287.339111
-385.350677 42.139603 950.093445
-553.489868 -382.026520 834.091248
-911.623596 -390.679108 1193.533936
-514.961304 -369.850037 973.229919
-856.344177 -608.908447 1218.061279
-1023.060913 -219.277374 1088.879150
-498.701752 -417.652710 962.690186
-528.510620 -398.883484 911.969849
-967.758667 -407.794495 1089.887939
-948.632568 -63.780476 1225.219482
-840.698364 -578.488098 1269.640991
-964.723816 -84.314934 1215.844482
-78.183441 -275.775421 1078.247437
-968.647522 -434.725189 1060.389160
-923.108459 -578.206116 1060.743408
-240.681091 -421.892670 1067.333740
-305.851074 -312.002838 1137.572510
-593.894348 -352.105591 801.972534
-1022.531189 -235.636658 1012.223267
-1034.627197 -178.533203 1057.551514
-455.684875 -366.570282 1111.588867
-533.041504 -101.140511 981.151978
-663.745117 -153.590317 840.145264
-486.400787 -394.431946 1019.850464
-782.279968 -454.412201 1220.413696
-305.907074 -167.710358 1143.039185
-559.012573 -330.169525 825.169678
-1042.724854 -302.156342 972.822327
-975.916748 -434.264160 1095.155151
-606.962769 -89.160988 893.215881
-971.846802 -221.757187 1132.825317
-536.411255 -186.595535 981.272095
-942.828674 -451.057739 1121.136963
-1073.492676 -249.078979 933.002930
-586.421143 -220.741165 838.727417
-196.696075 -342.126282 1074.309082
-104.420853 -187.476471 1084.872192
-455.865417 -407.114105 1126.395996
-482.614868 -378.829590 1013.516724
-1043.137085 -312.442139 952.429382
-1004.453369 -231.843719 1111.933960
-449.168793 -350.968658 1102.578735
-1041.609497 -368.505585 951.757813
-526.985840 -240.697372 958.034607
-999.761536 -381.212555 1012.296936
-1018.892334 -265.776428 994.732300
-862.698181 -605.417175 1203.350342
-119.614304 -132.255295 1092.146240
-1024.055542 -236.246414 1035.201782
-369.451843 33.466816 959.614502
-341.620087 -366.942078 1120.850708
-97.313766 -151.680588 1093.765381
-514.065491 -267.965240 978.293518
-988.676208 -438.959045 1016.737976
-1031.370728 -112.231697 1110.229370
-499.441742 -404.607483 902.172791
-257.595123 -174.681183 1132.142578
-603.781128 -267.897247 819.157349
-557.629944 -385.507538 830.375793
-473.206207 -438.081909 988.797302
-973.319946 -202.171677 1173.735962
-988.085876 -426.247772 1057.651978
-526.542847 -429.714905 874.681396
-517.732178 -354.990967 932.786377
-962.514709 -124.471069 1239.688110
-559.323853 -168.608414 929.584473
-550.142151 -342.440277 869.077637
-509.528992 -112.148979 1066.718384
-590.780701 -369.526611 817.437256
-555.887451 -138.157745 975.201721
-588.299805 -309.138062 819.854736
-966.925964 -76.068214 1241.356445
-538.269836 -203.645737 996.197021
-171.861801 -337.187378 1077.751099
-196.897659 -162.585556 1102.900024
-937.444214 -79.289635 1296.693970
-1052.529297 -310.109406 929.689941
-613.756470 -189.477249 855.200623
-1025.348145 -261.205444 1040.543091
-353.539246 -155.515533 1154.576416
-570.429443 -106.080299 928.437561
-993.062195 -463.787842 1034.832520
-967.354248 -395.575500 1109.897339
-186.297394 -411.198914 1060.309204
-145.949112 -121.976891 1108.187134
-883.029358 -147.422485 1343.343018
-164.499374 -167.421951 1100.655029
-914.889038 -634.806641 1049.334106
-1004.027344 -126.388596 1144.322632
-986.974060 -256.835052 1113.230957
-248.390198 -193.127136 1126.019775
-573.103943 -239.327835 840.283936
-878.298401 -144.509857 1263.764771
-999.627930 -165.185013 1092.850342
-956.566223 -76.227844 1247.741699
-152.989288 -336.268616 1077.089600
-989.572937 -185.135880 1150.038208
-1004.231445 -392.737213 1001.772766
-146.255661 -226.624039 1085.032227
-945.907837 -237.140808 1181.471436
-908.578796 -272.774475 1250.792480
-41.237534 -260.662292 1103.944702
-898.139343 -214.348618 1233.498291
-929.392761 -628.089661 1004.994385
-952.916504 -236.150772 1196.102417
-981.308411 -157.024384 1183.059448
-1036.112915 -157.082092 1056.216187
-963.017822 -134.561554 1211.864502
-861.158569 -303.640228 1220.576050
-186.146561 -268.985687 1084.732910
-1060.653076 -268.979065 940.201477
-884.579895 -433.261536 1203.240723
-168.087875 -323.031677 1073.092041
-325.048584 -308.222778 1134.252075
-335.414124 -336.841156 1134.389771
-867.130127 -281.725006 1411.227905
-544.692200 -414.864502 807.618652
-314.334198 -116.071678 1145.213013
-638.640564 -236.615295 802.626038
-819.224121 -318.253876 1366.875122
-1044.512573 -253.659531 960.059814
-160.274933 -158.891083 1103.669678
-579.832397 -254.003967 841.292603
-853.472107 -296.148529 1271.028198
-144.668365 -241.244034 1088.630371
-148.798065 -248.378342 1095.234619
-534.179565 -240.443130 956.976318
-193.083740 -307.201752 1086.619263
