ply
format ascii 1.0
element vertex 1346
property float x
property float y
property float z
end_header
-1512.707764 -334.291138 279.835876
-1633.591431 -354.560089 610.178711
-1053.669189 -193.146973 353.458313
-1028.323364 -189.373169 244.928543
-1506.534668 -231.678360 195.613068
-1480.267944 -279.144653 119.507179
-1055.256714 -319.850067 408.642578
-1535.025513 -338.860565 502.117218
-1518.122192 -158.472015 118.535393
-1004.106384 -255.716141 225.840485
-875.413696 -115.925346 703.579956
-1481.306030 -219.638168 275.274841
-1522.535767 -213.619720 212.820480
-1095.843628 -146.132477 408.607666
-1093.213989 -154.749420 407.535370
-1027.674683 -483.730438 395.710388
-1033.070801 -435.227966 368.415497
-1534.630859 -145.378235 210.687653
-1478.559082 -270.088409 262.375092
-1449.015259 -286.382141 291.042145
-1006.782654 -215.582870 601.377502
-1073.055542 -113.554482 225.961746
-1056.859985 -112.726036 312.927490
-1414.405029 -366.804474 -46.581486
-1004.092041 -440.540741 326.555298
-871.809692 -99.447067 710.001709
-1063.720703 -194.912506 365.722168
-1029.188354 -202.139862 597.255066
-1424.751587 -339.271759 289.390472
-1011.870361 -205.003494 185.365997
-1404.224609 -327.319397 87.824486
-1423.007080 -569.708679 174.109726
-1465.164795 -455.685516 218.329758
-1128.667480 -253.078247 515.652832
-966.533875 -334.751465 622.347168
-1562.634644 -259.589661 447.335693
-1482.213501 -162.546143 244.724121
-1442.766724 -285.109100 275.918213
-1356.383667 -620.344910 80.878815
-930.361145 -436.552032 606.331360
-1506.052368 -125.277306 284.792023
-1076.262573 -87.962135 332.400635
-862.373108 -136.408554 702.929810
-1004.060547 -233.810211 601.367615
-772.820251 -250.979156 748.085632
-955.634033 -463.087952 600.271851
-1451.168091 -563.652161 279.374329
-1065.468018 -103.327675 608.949890
-857.993591 -263.261932 672.472168
-1563.631348 -113.780235 303.775177
-1393.583740 -478.020874 71.452827
-1034.205444 -210.262466 178.303024
-1041.875854 -169.160538 287.039642
-1087.407959 -76.623917 333.747314
-1438.347412 -467.180389 144.798187
-883.126099 -219.143845 677.254883
-1598.986938 -320.120239 556.914734
-1535.931030 -105.275040 267.266663
-1077.721191 -322.758850 510.617706
-1025.012817 -266.490356 297.519287
-963.166687 -441.746796 192.981415
-1035.054688 -165.250610 240.202911
-1458.234863 -198.884094 21.595478
-1100.770020 -350.071136 505.100952
-1071.816650 -72.484566 298.753632
-1532.977417 -107.653511 275.316711
-779.105225 -375.688690 698.707031
-895.070557 -165.530045 677.540527
-989.963684 -296.633881 596.585571
-1459.687256 -175.402924 42.824409
-1140.662354 -140.282745 492.106537
-859.768494 -364.283203 652.741211
-1511.460571 -327.003784 251.718262
-1402.169922 -469.675964 9.117177
-1508.381348 -163.788803 168.418518
-958.289978 -217.483261 636.082153
-1389.188354 -501.359802 39.501431
-904.372864 -263.343719 646.743958
-1511.874512 -151.729492 130.750870
-996.067139 -447.745239 377.630676
-1411.550659 -305.972107 -20.514555
-1110.074463 -313.722992 540.688416
-1058.896606 -171.411652 352.455200
-932.338867 -401.408966 601.682556
-1006.632141 -348.154541 305.834961
-1462.501343 -469.482239 171.291916
-1029.324341 -211.046722 159.904099
-959.755981 -282.155457 616.072205
-1070.904663 -138.038712 186.169113
-1396.359741 -325.103302 -48.988979
-1461.743286 -267.560272 103.649879
-972.606201 -334.640594 174.583450
-1058.404785 -408.734131 447.404358
-1540.051636 -333.425385 366.833313
-1030.286743 -170.884232 283.339905
-1426.392456 -521.037659 106.561111
-976.886047 -394.826782 253.698868
-1073.630005 -430.089111 476.407379
-1487.941650 -274.427643 120.089996
-1427.189087 -408.503357 34.278919
-1454.753174 -231.936310 63.841179
-1509.171021 -199.797363 115.924004
-1465.715698 -538.777771 286.488098
-1374.735107 -399.609131 315.688538
-1077.118164 -70.139191 264.397766
-1030.108154 -177.904373 204.018723
-943.233276 -112.513313 644.961365
-1021.628296 -293.346313 312.716187
-1389.925903 -452.753754 -6.062938
-1074.029541 -75.542641 291.428009
-1010.108582 -465.008484 425.583130
-980.393127 -439.477753 307.573090
-1516.076782 -284.750824 313.947205
-1514.411011 -144.847641 172.472748
-1562.301147 -101.496788 288.568481
-794.984985 -242.236343 743.273499
-1490.258179 -243.038681 105.625320
-1597.147949 -302.648590 424.700134
-902.245789 -162.643799 674.861206
-874.980835 -150.104889 692.454346
-1050.824219 -418.678009 455.535095
-1355.500854 -680.655762 161.500076
-805.130127 -349.312653 705.937317
-1593.753906 -285.469269 525.920105
-957.306519 -406.582367 599.970520
-962.984497 -425.783264 176.616150
-1428.644653 -536.547852 178.311035
-933.941772 -340.208374 630.100891
-1527.958984 -209.358307 177.756516
-1050.048096 -265.997467 369.102081
-979.337646 -390.526062 598.016418
-1417.706543 -524.628784 146.748322
-1563.707886 -74.917267 306.118439
-1013.145752 -461.665405 431.468658
-977.175598 -117.208084 650.723999
-824.677490 -334.425171 691.889893
-1519.475220 -268.560730 363.183960
-1431.184814 -394.190033 227.121948
-1420.476074 -347.808441 67.526711
-1486.723511 -176.710541 265.748383
-1044.077271 -116.624527 213.578262
-941.257385 -245.039383 642.966309
-1030.044800 -157.344818 222.274872
-993.606812 -285.806671 220.492737
-816.069031 -173.137375 733.471375
-1495.713501 -189.427185 95.939560
-911.729004 -264.161621 662.266602
-1527.858032 -152.385574 242.108673
-987.112122 -340.530396 160.058380
-1384.383667 -487.545776 205.678467
-987.824646 -423.412598 157.343765
-1493.264160 -162.878876 87.308998
-1576.238037 -299.614166 390.307037
-1520.677979 -211.900131 184.900894
-1385.274170 -371.783630 -69.071823
-1410.351563 -509.466156 84.655235
-1586.882324 -77.606728 264.930206
-858.610474 -291.326569 677.091675
-1491.163086 -220.875381 91.722763
-1477.124512 -256.891144 100.693642
-1057.335815 -451.010132 487.348816
-1461.719482 -254.613220 15.427776
-985.080750 -190.515778 627.680786
-1507.686157 -153.422745 168.176605
-962.922607 -417.167969 176.629410
-1539.162720 -121.642960 232.636169
-1438.551758 -336.242218 96.248131
-1369.530518 -394.590485 266.739197
-1452.655029 -391.295624 199.325638
-869.961548 -190.138519 687.362976
-1391.170776 -291.267944 41.022133
-971.708008 -206.680679 631.850037
-962.555481 -117.632919 655.449341
-1402.566528 -523.073303 128.229965
-1524.031616 -588.002625 418.658569
-807.200989 -376.370605 701.590332
-1050.802124 -110.865372 242.312073
-1445.179321 -500.795624 217.225372
-1611.507935 -338.026855 599.897949
-1376.431396 -380.322601 -50.727367
-1399.501465 -346.019440 -54.521816
-1063.736450 -350.497955 397.875122
-903.765442 -440.032928 612.638855
-1495.415039 -621.776428 406.743225
-1402.352173 -361.925812 -49.642235
-1515.858398 -156.618057 277.937653
-969.828064 -398.333557 190.837067
-1008.051208 -264.317535 158.893082
-820.367249 -182.248734 751.068604
-1011.491394 -227.600067 211.670532
-1037.766968 -297.160217 359.146027
-881.566528 -155.653351 689.620300
-1100.883301 -318.544708 534.683716
-981.573669 -342.516815 195.470886
-1065.000000 -109.141113 273.673798
-976.933777 -340.914703 195.586273
-1097.430054 -53.940578 345.963959
-1466.834106 -377.007660 230.976242
-1473.013550 -196.023605 43.178398
-1431.894409 -586.913330 269.244354
-1391.327637 -299.413086 80.025261
-1062.376099 -105.242615 332.613220
-991.932373 -279.661072 627.785767
-1045.450195 -247.780853 341.944550
-963.805786 -467.743988 277.854156
-1032.037598 -431.521790 453.461548
-1485.233887 -262.330902 169.722290
-1414.673706 -321.819000 8.338314
-821.706238 -170.618256 710.822815
-969.922607 -357.662750 603.884094
-1005.285339 -218.190903 619.856018
-1543.583862 -337.464325 497.251251
-1464.056152 -592.758789 335.797821
-775.975037 -381.953308 730.685852
-1064.086060 -94.798691 297.058228
-999.120544 -221.222580 610.593445
-977.190369 -175.286118 642.616455
-1001.566589 -269.433960 160.279068
-1027.165894 -126.000877 610.861938
-1537.041016 -139.170837 175.527405
-1043.772461 -143.683960 188.975372
-1471.060425 -295.666260 287.838470
-1519.834717 -267.922455 355.392151
-1416.002563 -585.974365 172.299606
-1426.157959 -658.498535 227.324142
-1451.491699 -379.839661 146.231918
-1567.277344 -79.142105 215.245728
-1491.177490 -133.656616 110.606361
-862.273743 -205.083191 690.170532
-1051.693726 -212.944748 319.461731
-1488.950928 -148.077164 277.513062
-1549.311279 -109.339775 212.698807
-1042.113892 -167.573059 272.407410
-1080.613647 -358.232269 484.332428
-881.528625 -285.882141 657.553589
-1035.541504 -306.575012 336.952515
-1531.352783 -183.960098 202.721039
-805.328918 -247.752319 712.155151
-858.623108 -126.758057 700.137268
-1535.358398 -246.807297 250.601929
-1064.256592 -147.889267 175.142914
-1564.861572 -148.205460 323.545227
-1037.400269 -217.965637 601.311768
-1496.451050 -250.497513 300.403046
-1459.643799 -482.000183 178.152481
-950.498840 -319.396210 619.985168
-877.860901 -247.957153 671.888855
-1412.209473 -566.272644 81.267967
-1413.712402 -364.153595 171.166779
-903.987976 -210.400146 680.216370
-1539.786743 -213.403152 349.267456
-1358.333862 -351.005219 99.957985
-1621.277222 -293.563354 541.692078
-985.077759 -419.940552 330.261017
-1587.486694 -298.291382 454.982300
-1407.658813 -309.548981 -5.775014
-1409.528198 -365.778198 13.804576
-1025.370605 -272.336151 335.224701
-1053.916748 -273.574158 316.937805
-1443.111572 -450.026794 100.424370
-1378.584229 -547.730957 40.994678
-910.693542 -125.945671 665.336731
-983.288818 -236.723679 631.583130
-873.473083 -266.027039 663.505310
-955.988892 -377.353516 609.528564
-1458.335693 -351.885132 278.546936
-1507.269775 -342.195648 254.354614
-1461.579102 -308.646362 258.318176
-1385.218384 -675.590576 212.596649
-1497.003784 -252.893188 143.512985
-1526.591064 -130.419876 190.350494
-1576.600952 -64.092064 298.693817
-1661.200439 -318.231873 628.194580
-1034.145386 -241.535248 272.046722
-808.164612 -488.327545 362.419189
-995.032410 -329.752869 586.965759
-1375.215576 -362.552399 306.290161
-953.096375 -115.018097 659.297119
-1374.437866 -331.625641 -76.975143
-1045.089355 -140.145233 205.400955
-1422.067139 -289.773041 -32.583965
-1542.899048 -148.635025 207.617081
-1285.353394 -285.253632 249.288376
-1045.882690 -292.542542 306.848694
-1548.295288 -89.296654 226.116547
-1478.327148 -205.736160 112.588867
-1013.116272 -241.202087 163.126785
-955.060730 -328.807770 624.835693
-823.413940 -374.746582 672.265442
-1037.421509 -245.655472 322.579437
-1424.804077 -495.702667 126.487640
-854.387390 -319.708252 680.704529
-1050.639526 -271.109344 318.625763
-1462.406738 -207.649734 279.714172
-988.927551 -308.229797 268.574188
-1488.306641 -197.181351 286.690552
-1055.057495 -141.175369 280.584686
-1076.021851 -275.414368 460.794159
-924.611938 -449.400787 600.535950
-916.293579 -343.896729 630.038574
-963.863037 -432.479126 589.104065
-1586.309448 -282.357727 477.735931
-850.151550 -106.479851 728.519165
-875.609741 -351.867188 653.446960
-1416.864990 -363.700836 138.886795
-1010.039307 -205.887680 193.840897
-996.440002 -445.883636 324.839783
-1456.264404 -213.431671 22.317644
-1400.999146 -437.819855 254.834137
-1435.913696 -269.249451 -24.134600
-1035.035278 -165.246399 173.741913
-1071.191162 -221.237457 345.558105
-1439.369385 -312.969177 32.931938
-1546.207642 -93.472954 175.899445
-866.615784 -119.355255 695.170166
-887.466187 -298.573395 677.971008
-1041.406616 -229.941696 580.628357
-882.386780 -250.480392 660.246521
-982.060181 -367.287415 161.848312
-1382.193604 -547.661194 54.232082
-1543.040527 -245.142197 366.098511
-1442.870728 -503.553223 143.998764
-1541.260864 -128.497849 213.789536
-1026.696777 -179.762650 271.472900
-1060.325684 -155.008194 172.238968
-1482.544434 -347.150665 253.275482
-1403.649048 -333.397614 29.218763
-912.510376 -402.917389 627.857849
-827.067993 -404.713348 665.606567
-1569.232300 -294.215332 396.882324
-1097.321045 -101.095825 392.471893
-1414.683228 -293.930298 37.221607
-1088.303589 -240.277969 453.632263
-949.162292 -436.627655 588.980530
-917.143372 -101.553558 668.265747
-1427.589722 -289.840088 28.455519
-1558.774170 -320.060760 388.161499
-1514.635864 -263.193634 288.814209
-1419.349243 -472.607513 60.913662
-880.651733 -247.537292 674.860901
-844.455811 -192.442062 700.759521
-1060.610596 -397.536835 444.409698
-907.532471 -118.714378 678.633911
-1137.452881 -95.831726 459.400116
-995.932007 -388.976044 282.457672
-1486.535400 -154.074127 73.253418
-1578.205933 -286.080627 468.411438
-1418.318604 -330.308380 -23.429724
-861.522888 -156.149643 692.276367
-1098.862671 -259.705780 517.691589
-1532.323120 -221.206635 250.859207
-1503.729736 -145.914490 111.736740
-1401.942383 -566.276245 144.363724
-993.155090 -363.187927 205.824066
-1454.301392 -609.728149 286.484863
-1089.115723 -186.539520 421.035431
-1007.711060 -248.273911 613.401245
-1053.458252 -462.536041 463.744507
-1008.549438 -266.078735 287.702393
-1403.228760 -591.972961 200.851730
-844.172058 -354.819855 663.721313
-1091.318115 -161.390366 378.701416
-1016.893311 -233.488083 245.542419
-954.427856 -426.021515 588.903809
-1386.403442 -495.796204 28.319172
-1430.850586 -428.483490 84.224297
-1468.599609 -290.565918 141.385315
-859.467468 -140.472000 706.507141
-1580.686646 -112.535965 331.069977
-1033.729858 -181.293411 219.537323
-1341.684570 -587.619141 167.949234
-1068.828125 -99.626175 303.231659
-1486.838989 -311.695923 260.650757
-875.934570 -240.018829 682.373657
-1340.176147 -356.971008 268.521454
-1417.895630 -235.950134 -35.871330
-1052.034180 -102.120277 208.757080
-1460.305176 -294.793823 69.235695
-1501.183716 -259.794128 252.052460
-1109.132813 -115.062523 402.082916
-1547.614014 -123.835518 184.610367
-1386.815674 -316.122284 -16.101759
-982.335388 -476.767365 301.759766
-944.975647 -146.112885 658.446472
-1015.709290 -341.383942 265.000916
-1005.993835 -267.438538 272.217590
-1384.887207 -661.619812 123.640137
-1122.403320 -272.228790 532.813904
-1498.707520 -576.331970 376.017822
-1456.796387 -425.221191 119.671463
-1353.556396 -613.674438 158.354050
-1496.990723 -260.229156 253.981873
-982.217957 -382.823700 244.689072
-1001.696106 -133.130310 642.113586
-1021.791931 -445.919495 398.483124
-1380.307617 -596.544861 100.116554
-1486.144043 -214.718292 99.621017
-1415.263794 -324.037079 -12.825821
-1444.868286 -480.686859 237.172272
-1499.373535 -310.312531 514.133972
-964.362549 -400.739990 177.831314
-1515.499756 -212.709290 171.053207
-1428.930664 -506.898468 142.631210
-1400.335449 -424.747589 2.452941
-1070.140137 -397.330841 445.349426
-1468.978027 -449.582123 242.854477
-1451.013062 -282.312836 35.130569
-1076.629761 -370.377258 473.098724
-1116.253052 -218.505463 470.649139
-1571.602539 -79.407516 249.987701
-1582.908936 -267.064209 396.509338
-1387.499023 -525.932983 40.688660
-1516.952026 -279.564972 193.777802
-1403.550049 -559.432129 180.497574
-1457.433472 -421.590851 118.049599
-888.520996 -131.973434 693.449768
-918.559021 -299.004883 632.740051
-1429.748413 -481.516571 193.749786
-1093.498901 -429.480713 539.494995
-1488.972534 -228.661865 274.682770
-1005.518677 -133.244720 626.504822
-1036.976563 -415.718109 394.335419
-1063.079712 -152.628326 361.246002
-1497.921265 -203.250854 298.769775
-1392.427368 -410.934204 -18.612259
-1399.186768 -296.306915 -63.468090
-1408.652100 -291.832642 -50.904957
-813.429443 -483.374268 305.129730
-861.897156 -423.971619 638.509277
-1052.645508 -195.487259 269.823273
-1447.340942 -376.164673 76.343491
-1577.098877 -252.486786 438.596924
-845.618652 -271.415436 706.156677
-1043.439575 -219.905243 323.857635
-1030.907715 -199.140778 308.868744
-1541.601563 -136.424484 189.171234
-1451.533936 -398.379211 95.073639
-1441.601196 -362.638092 136.058029
-1555.138672 -66.119690 216.463318
-987.962524 -383.252472 182.248169
-1411.407593 -495.243256 81.675049
-1470.744141 -216.223114 56.389141
-1384.934692 -488.408875 50.286270
-1475.573730 -368.293304 255.667786
-1555.687744 -189.236496 276.134583
-1055.547119 -104.538994 202.728546
-919.760193 -273.271271 656.313110
-1126.279541 -227.199066 497.299683
-938.658630 -240.113647 641.272522
-910.630493 -397.494080 644.001099
-1368.190918 -359.696045 259.908478
-1034.288086 -165.970566 600.403870
-1363.119751 -340.671112 136.446182
-985.546265 -335.532379 233.019547
-1536.719604 -197.516953 218.268890
-946.164551 -122.663719 664.127625
-1399.221313 -555.784363 173.631821
-1487.811157 -624.705811 357.143402
-1530.570313 -132.566025 253.851547
-1383.202026 -302.800018 -2.483813
-1555.620605 -181.789597 324.016541
-1386.044922 -559.623169 128.125290
-879.536987 -284.028442 673.410339
-1084.235229 -176.599274 393.222412
-1019.897949 -344.409637 337.723877
-1400.635742 -638.575134 133.212540
-1595.588623 -264.371979 436.012695
-912.746155 -309.986267 634.254761
-1113.967041 -142.580872 428.631500
-1401.975098 -321.477448 28.386642
-819.559326 -256.384247 694.427307
-1399.526245 -542.371704 197.794083
-983.674316 -128.084351 636.442383
-987.763794 -375.567657 272.791351
-785.287048 -393.782410 698.967163
-791.695923 -316.343872 704.392212
-1390.075195 -611.832642 172.924347
-877.485596 -267.600189 664.843567
-878.169556 -210.708115 674.913635
-1056.063110 -287.671722 395.447571
-1466.444092 -647.206604 282.775330
-1046.403809 -231.105682 371.447174
-1072.058716 -224.071960 336.131256
-888.845032 -166.538788 680.686890
-1456.181030 -403.396271 161.406830
-1468.581787 -282.792053 97.395348
-1065.640259 -207.390686 370.331726
-1416.817505 -245.485992 -36.610497
-1551.985229 -199.931076 328.821442
-1034.106567 -411.913025 391.015015
-1446.851440 -254.633743 -16.182985
-1443.361572 -386.873077 50.187824
-1069.700806 -197.224442 381.571472
-1080.556763 -154.601746 337.520386
-1088.781616 -354.739807 505.571014
-1585.869751 -120.211510 338.315979
-1369.982422 -341.089569 130.018219
-1415.240112 -278.986816 -37.744713
-1481.929443 -307.416138 225.314377
-1087.616333 -159.265762 375.757965
-1536.138916 -224.263718 338.797424
-1041.349365 -92.263191 367.775665
-962.861084 -126.386406 647.285400
-1022.482605 -360.293304 282.429169
-903.097778 -142.895645 673.485962
-1556.245605 -118.158859 276.025726
-1012.371399 -255.379288 215.829453
-1475.409546 -347.052338 225.985474
-1343.683350 -588.201843 193.890518
-840.466370 -376.160675 663.440247
-1134.167725 -192.873138 498.067932
-982.593018 -341.674500 263.732819
-993.711609 -304.273682 229.511505
-1094.681030 -377.751312 501.787567
-984.379761 -372.452362 586.000732
-980.408752 -117.876740 657.019836
-902.834595 -154.130783 671.621338
-1555.231689 -98.237610 230.871811
-1090.905762 -141.492432 398.235352
-1417.123657 -561.335999 221.973801
-1405.847412 -388.546997 6.306500
-1032.401733 -167.061981 248.047684
-819.957336 -382.426270 672.377808
-966.310059 -424.381073 210.999222
-1375.436401 -370.750092 -57.782295
-985.554321 -211.697952 636.344543
-884.161926 -249.223938 679.285767
-1007.898560 -263.502472 158.815109
-1437.491455 -361.095154 44.420368
-1006.737610 -136.650269 636.868835
-996.759155 -361.444092 221.942032
-1414.527466 -430.995819 294.689728
-803.498901 -327.392395 706.126587
-1428.589233 -472.165405 66.644211
-1458.153198 -426.732178 162.601135
-1396.106201 -364.748322 42.122166
-1001.290344 -285.229370 240.425125
-1029.291870 -223.549072 260.814972
-822.139648 -334.107147 690.730225
-919.615601 -177.014297 667.470215
-1013.757690 -474.931519 360.321045
-1093.798096 -143.445862 423.853973
-1438.982422 -326.256012 84.722847
-1386.455811 -556.092651 110.033821
-1009.143372 -199.077866 219.838852
-831.874573 -425.807465 656.552612
-1484.621460 -227.957520 283.512848
-1391.996826 -332.689758 24.874031
-1051.662964 -350.539948 389.499939
-1003.785828 -171.726669 621.507019
-1515.381592 -328.056000 393.730865
-1070.255127 -112.908112 298.356812
-1091.109253 -257.824432 474.338745
-1569.078125 -328.622345 443.968781
-1016.906616 -319.324371 146.550171
-1033.511475 -172.270996 171.280167
-990.953552 -405.688385 188.868073
-1407.205933 -593.172974 170.448822
-1439.881836 -252.728500 -8.101720
-1593.212402 -260.222382 453.390137
-1482.239868 -332.407867 312.417694
-1006.927734 -100.687775 625.830627
-1051.713379 -244.446350 383.176453
-1004.167908 -212.907608 215.094406
-1438.409790 -517.233643 169.742798
-845.118530 -193.129471 699.791626
-1570.280396 -117.485001 311.244232
-1003.742676 -328.393250 158.866272
-1059.313354 -177.143387 300.020233
-986.040894 -347.133972 192.757294
-981.044189 -417.040009 588.899353
-793.038208 -242.190582 715.645386
-1650.589355 -269.475525 582.733337
-1005.995239 -298.215820 268.198730
-1392.431396 -581.756897 179.689590
-1125.771606 -245.240204 506.364410
-1451.263794 -645.088440 291.316010
-915.913696 -431.838867 619.797913
-1490.336914 -601.196899 387.060242
-1078.602783 -85.024071 274.867035
-1057.460571 -279.209747 328.577118
-1013.366760 -186.654449 610.107727
-1574.304810 -118.680252 308.717926
-1468.417358 -451.629578 199.291626
-1501.517334 -135.317413 101.338364
-1508.739014 -185.185669 143.339752
-1379.788452 -631.268738 130.262131
-993.611694 -412.233276 295.158569
-969.415283 -358.438416 171.987106
-798.897522 -264.080902 714.820984
-1004.113892 -373.061462 300.024384
-840.357544 -183.852081 703.140076
-790.982483 -291.006500 711.267395
-1403.901611 -408.609039 68.953667
-1394.458374 -559.172668 103.235542
-1041.476074 -437.581482 487.718506
-1434.798828 -524.628662 119.967270
-884.290710 -209.949112 672.005188
-812.853516 -206.401108 736.612671
-803.477173 -359.434113 687.145264
-919.564575 -432.917877 611.226929
-946.689941 -377.211151 616.914124
-1075.275391 -357.416840 432.849152
-1400.687256 -581.951477 158.752411
-1435.692017 -310.579224 -0.453575
-1418.629028 -498.623871 111.642670
-1441.525635 -328.867065 94.247925
-976.158569 -146.609360 633.501099
-1454.342407 -450.857361 181.113525
-1454.837402 -293.024536 302.471008
-1069.319214 -82.318474 304.419189
-1440.193726 -655.694519 269.965759
-1565.053467 -88.311790 251.617340
-1383.650513 -312.646240 -13.779068
-854.115479 -250.684250 687.596008
-965.640503 -26.987749 368.679535
-1487.135620 -198.819672 95.601814
-1001.094116 -224.663162 223.974503
-1568.495972 -89.909866 282.646790
-1035.875244 -366.354919 373.409729
-1118.286987 -166.903519 465.506012
-1075.690063 -178.141693 346.150818
-1443.225586 -483.168732 347.838989
-862.371826 -120.323959 732.833008
-1525.380981 -112.078506 143.837799
-1060.088013 -340.943665 468.645050
-1517.777222 -189.380676 134.259872
-895.235168 -270.097900 667.222778
-1018.217651 -191.489487 198.063797
-1064.801880 -279.080322 414.102386
-968.016663 -383.133606 170.726608
-804.096436 -182.647568 721.936157
-1370.088745 -623.988220 106.184120
-1416.912964 -342.695618 0.767278
-977.588196 -249.467056 635.095398
-802.321838 -156.537933 747.904846
-1449.305786 -488.736877 241.605392
-1494.055664 -217.404129 282.886993
-1045.223511 -344.478851 382.624146
-980.288879 -174.533432 620.466064
-1017.304504 -358.701141 334.766815
-1483.570801 -294.493164 110.432510
-1524.782593 -184.031158 235.243881
-1512.670044 -244.609299 206.456635
-1544.699097 -99.244980 285.966187
-871.685730 -393.987579 638.279907
-1537.968506 -269.535522 347.303650
-1423.841187 -389.174133 54.670776
-1109.322266 -266.453552 516.861023
-1462.658936 -425.920013 222.207611
-1070.371948 -119.467224 177.806122
-1108.524414 -269.277802 507.197418
-1090.926636 -217.667374 444.388275
-909.909241 -307.581238 644.145691
-1485.927368 -157.949249 72.252403
-1466.579224 -160.263733 257.804901
-1074.010864 -95.552994 273.735443
-1424.273071 -374.801117 33.177124
-1660.248291 -286.180176 660.255493
-992.256226 -428.103485 235.810379
-903.001770 -424.885254 611.955688
-1393.497925 -308.709717 -77.760345
-1482.532593 -218.580490 287.917175
-808.154846 -352.363922 696.344727
-864.957336 -301.865601 680.340271
-1424.476074 -386.917816 -10.677511
-1121.590332 -214.268234 511.553406
-1103.684570 -352.012939 508.147736
-1097.781616 -226.255432 470.218994
-1600.044556 -249.411270 503.767548
-948.297485 -244.775681 639.625916
-940.854919 -205.217850 636.633301
-1517.207031 -206.342560 239.113632
-1001.726624 -295.318970 210.532578
-915.915466 -319.773651 634.384460
-1047.471313 -122.813988 288.104828
-1462.608398 -235.792160 44.148731
-957.101440 -141.854202 655.506348
-1405.237427 -447.812775 41.162483
-1479.887817 -286.586121 124.345993
-1501.394409 -301.410126 241.904175
-1451.704956 -491.645782 134.147003
-1386.256226 -309.279053 31.527794
-1036.570557 -136.645889 195.395020
-1051.193481 -103.707817 220.640717
-830.948547 -333.459229 688.478210
-1455.130981 -278.483429 57.804245
-1076.894409 -337.801819 476.002533
-1050.710938 -207.156250 367.260651
-830.650574 -210.856720 699.948669
-1076.744995 -110.633240 186.803635
-1280.235474 -295.652374 252.464325
-1087.187500 -98.828041 391.819092
-960.638184 -157.539658 647.625916
-1019.058350 -354.587585 284.712341
-928.427979 -291.422760 638.774048
-1032.425659 -391.028229 394.726685
-1504.333008 -302.577881 277.745941
-1532.223145 -141.482712 232.166046
-1486.271240 -151.871643 271.476074
-1004.567505 -422.222351 295.212738
-970.916870 -359.060242 176.607590
-1438.559570 -288.405579 268.036438
-1414.679443 -311.570618 66.379753
-920.627686 -321.550598 641.740417
-976.825562 -137.464310 639.189026
-860.987122 -319.182556 677.436829
-991.954285 -123.641640 639.916626
-785.741638 -396.057770 715.473389
-1104.002930 -304.344604 517.228882
-1036.637329 -196.385635 311.776733
-1416.074463 -323.280975 35.695244
-1585.610352 -257.574127 428.715515
-1389.283325 -315.987366 -46.142380
-881.808960 -334.584412 662.446472
-1120.636353 -282.842987 543.584961
-1534.372070 -107.973007 223.495178
-950.764465 -316.829346 633.284485
-1396.709106 -350.399719 156.229828
-1576.021851 -82.854843 248.415497
-1430.520630 -499.601227 220.205368
-1117.657715 -204.031372 482.046143
-1626.895996 -325.134949 585.370850
-1456.153442 -492.673065 211.981171
-1059.503296 -160.760941 280.596924
-1030.895630 -130.624451 628.418396
-1058.705444 -119.827927 608.135498
-1399.647583 -552.248779 109.650314
-964.864380 -313.537781 603.553833
-988.518982 -306.772186 612.256470
-876.478149 -348.070984 643.685425
-828.433289 -342.493225 684.881226
-1083.941650 -95.583061 314.490845
-1020.305176 -204.832764 184.378067
-883.856628 -220.390533 680.461304
-1515.737183 -286.716278 185.447968
-1493.383179 -181.774353 132.424713
-973.161743 17.964872 350.864838
-1053.708740 -341.939911 390.257507
-1486.052246 -253.489731 116.257942
-1561.939941 -48.046715 246.033539
-921.958496 -375.057129 628.811462
-1013.656616 -318.858917 606.745483
-1562.853516 -180.186447 354.908081
-1439.755249 -375.688293 138.027161
-1649.099731 -268.560516 604.962402
-979.481995 -374.385895 242.861847
-1081.826416 -68.318069 309.488678
-1451.943970 -193.905273 42.185802
-1004.517212 -266.406128 154.143433
-864.545532 -136.303467 689.880615
-1047.239990 -465.070282 443.995697
-853.509583 -121.828102 702.856812
-1564.303833 -321.887817 404.103455
-1051.026367 -328.137451 369.376068
-1502.130371 -307.022217 161.644379
-1058.475586 -238.929581 341.587280
-1412.434814 -505.849976 139.351578
-1036.925781 -346.773560 381.778931
-1115.838989 -261.902588 491.893158
-1500.526733 -238.788086 255.936462
-1403.636108 -342.172089 43.948395
-1469.036987 -159.555588 67.991379
-963.383728 -457.460541 212.206909
-996.203613 -354.007477 593.289551
-1013.198792 -317.690704 587.268250
-1056.029419 -151.232254 173.636734
-1408.856934 -447.174652 246.258591
-1049.873291 -311.355499 423.871368
-1398.397949 -392.641785 332.328400
-1362.686035 -326.887451 122.513237
-1407.427124 -348.717041 74.854599
-878.337891 -93.402138 718.014832
-1441.444336 -478.891846 147.787109
-1057.135986 -214.486984 334.808411
-1102.939941 -162.005692 400.962097
-878.490723 -125.454071 699.363281
-1332.906006 -304.463013 135.834656
-1504.447998 -204.454987 143.873398
-1617.017456 -261.415192 555.436218
-982.086731 -320.154419 198.459152
-1541.524780 -85.451523 261.590881
-1588.334229 -277.931244 468.285828
-1498.708130 -286.180023 162.429321
-1515.161377 -284.168427 177.200302
-1507.310669 -543.334045 412.809113
-968.509399 -175.051422 638.620300
-1012.560974 -306.304535 160.006485
-988.200745 -426.803925 289.080963
-1041.840820 -191.728195 178.861847
-1368.492432 -574.518250 63.300838
-966.796326 -197.465973 634.960632
-859.056641 -384.418030 658.135681
-950.831238 -398.158569 606.955750
-1438.940063 -533.358826 156.320969
-1049.179199 -190.984589 594.784973
-1426.620605 -358.624420 39.865189
-996.508179 -443.383575 584.919678
-1417.857056 -386.046021 214.514160
-1007.096985 -388.451538 333.127350
-1405.419800 -435.192535 33.697117
-969.472473 -394.272339 213.660828
-1562.849365 -106.913887 259.780640
-985.806885 -495.368042 306.593140
-1017.280579 -119.531731 627.655884
-1416.155884 -399.650543 38.809048
-1536.888916 -261.248688 481.025635
-1381.436646 -527.185791 205.647842
-1065.706787 -216.329483 411.071899
-1406.995850 -436.197021 23.000143
-971.352966 -348.692841 203.614059
-958.727295 -371.845856 201.905258
-1401.486084 -308.622253 12.955740
-1496.720337 -189.656586 73.083092
-1019.521423 -354.518646 271.100067
-878.255005 -229.111313 679.154968
-924.469971 -219.774612 644.065491
-1413.024292 -544.115601 119.228195
-1549.454102 -107.218201 209.967133
-1448.723633 -255.049911 33.594513
-1009.528809 -292.713531 207.417145
-1543.062500 -130.648056 256.633148
-820.980469 -178.682251 709.421509
-1391.043335 -310.031067 -77.167763
-988.893188 -278.824188 180.321854
-855.989685 -144.257248 698.895264
-1488.861694 -314.696869 141.762085
-1014.802795 -354.501740 285.345001
-792.882385 -308.483063 706.418640
-1457.211304 -466.300751 142.184219
-1061.596069 -242.132690 380.437927
-1425.130249 -321.818756 27.074152
-1435.630615 -445.241119 121.258476
-1533.700317 -126.237328 180.028748
-1428.116089 -324.691010 171.852249
-1552.127563 -66.870071 226.488159
-1018.243774 -205.158997 603.237488
-1095.341675 -84.518272 450.328979
-1037.788330 -254.968658 598.477234
-1439.588379 -477.569885 146.274841
-1472.109619 -450.637299 226.381912
-1431.273438 -560.867798 261.647278
-1021.002197 -373.059570 315.793915
-1071.542358 -152.346619 341.857697
-1096.058228 -354.747833 524.487000
-1505.257080 -181.301392 130.345032
-1479.466919 -200.107727 79.671204
-1003.078491 -263.831421 605.016113
-994.952698 -372.504547 599.973267
-867.758606 -175.904770 684.005981
-1426.921753 -365.127563 99.048073
-819.396973 -197.447327 717.244324
-999.013733 -305.900177 237.927277
-1451.744141 -394.756195 95.206627
-1432.918091 -519.737183 96.262299
-1061.910278 -111.839066 204.031097
-1038.850098 -313.112396 348.134369
-937.552612 -345.474457 621.675903
-1054.442017 -127.367844 250.293381
-1014.328857 -276.316040 205.822189
-1008.978760 -174.232315 625.200623
-1381.826294 -582.690125 69.911888
-1486.512573 -285.779297 134.128983
-1440.006470 -553.837463 177.195633
-1492.147827 -254.890869 269.739075
-905.342773 -205.814087 669.106567
-1412.029297 -379.581573 12.087524
-1055.726196 -150.561249 309.452209
-865.998291 -136.147324 693.835388
-1061.581177 -453.517670 456.559631
-1460.601440 -251.293625 41.911034
-1424.441895 -288.145935 -36.903759
-1002.067444 -271.956604 241.789307
-1397.142212 -538.027832 67.481567
-869.579712 -88.798347 713.209595
-1567.473511 -85.607254 231.747482
-1557.147461 -148.054642 279.258698
-1028.000977 -172.137299 228.939865
-1637.406006 -256.369415 616.657166
-1088.555420 -227.420410 419.158051
-986.401123 -401.055908 200.396637
-819.774231 -325.957947 702.188354
-874.521545 -370.203766 648.160461
-1499.100708 -169.524353 146.540710
-903.529114 -175.184845 682.873230
-1398.666382 -299.086243 -75.088318
-850.706848 -151.861511 703.304199
-1403.146240 -572.709839 235.891800
-1487.292480 -234.521927 76.872047
-871.804016 -194.915604 684.014526
-1036.934204 -107.411171 611.004883
-1460.119629 -244.717529 19.525152
-1085.275024 -191.971024 418.369507
-1392.647461 -495.793701 32.637539
-1469.996582 -299.708221 291.003418
-949.214783 -13.090067 430.417694
-1479.006348 -152.440033 242.177750
-845.191528 -160.570572 712.043030
-1007.578125 -477.386780 375.022064
-1621.695679 -341.992249 633.604919
-1428.987427 -520.668213 180.331787
-954.995911 -232.108826 635.332947
-1461.062988 -244.951202 286.177124
-930.452942 -376.641449 614.737488
-875.573303 -182.904373 683.224915
-1426.885132 -327.894958 61.790936
-1408.354980 -546.951050 112.639885
-990.378052 -330.487457 259.962036
-1027.589722 -159.275940 208.765625
-1038.696533 -134.256393 226.664200
-1113.223633 -206.124054 427.440857
-1007.588440 -148.267380 633.529602
-1555.066284 -144.436554 289.502686
-948.689514 -410.843140 605.829651
-1420.727905 -232.006912 -30.675011
-1392.242310 -337.492279 -73.182671
-1489.267090 -217.183701 66.181198
-1390.217651 -533.837524 103.151665
-999.312683 -363.275574 294.863708
-1061.372803 -167.910904 357.475372
-851.128967 -297.587891 698.236572
-1493.447876 -335.578400 212.182861
-1093.908936 -107.634933 345.837311
-840.600830 -411.583221 655.130554
-1493.562988 -274.559387 295.979980
-1401.761597 -349.579895 -45.052887
-1571.962036 -38.966534 271.348785
-982.685486 -253.965454 626.192627
-1105.472778 -332.268219 501.402557
-998.776611 -331.023468 196.402573
-1424.005493 -360.962708 123.505814
-1372.418823 -598.114197 124.841965
-1430.417236 -531.411194 176.469971
-987.540283 -272.939301 228.244583
-1538.140625 -154.091263 218.931122
-1492.327637 -144.183167 109.044060
-1056.905640 -292.148834 367.215485
-1475.735474 -182.399704 264.067749
-988.033447 -329.260223 233.267609
-888.789795 -250.974121 662.760376
-1502.953613 -170.534607 270.754089
-1069.435669 -79.791969 248.147873
-786.630310 -384.386200 686.424744
-1576.741211 -121.841698 293.430511
-925.751221 27.620562 440.568146
-989.624634 -374.674500 311.938690
-1487.036621 -281.015137 126.775894
-1389.279907 -640.620056 130.478043
-762.289368 -246.094971 739.648499
-1537.346924 -145.433487 221.932526
-828.307556 -403.704407 665.784668
-1432.487671 -300.441376 31.417658
-1099.052856 -229.611923 497.640259
-1050.264526 -206.617935 270.254578
-1606.582031 -254.326004 504.329620
-906.712708 -246.622421 659.754395
-1012.095642 -277.029449 235.443039
-957.819519 3.108831 461.408142
-989.990540 -297.472321 589.018738
-1356.342407 -342.125000 206.631058
-1002.273560 -290.397522 156.105499
-1022.923462 -235.411163 190.355820
-1466.733643 -302.708923 104.899223
-1066.142334 -128.703644 602.741882
-1051.950928 -107.190491 201.534576
-1471.961426 -430.736176 214.392471
-916.897705 -93.677826 667.113831
-1052.686646 -248.679611 357.378265
-1062.425537 -401.620361 421.735168
-941.750061 -178.806000 655.079651
-779.515381 -384.039673 691.224976
-1012.699463 -471.508240 438.182007
-913.332886 -111.331207 679.769653
-1057.512939 -250.099686 605.841187
-1028.331299 -278.488770 252.005341
-1121.805908 -185.784225 506.861664
-1034.334717 -376.711700 380.900238
-1509.378540 -324.528748 188.212799
-1515.777344 -569.647400 390.612610
-1455.891846 -449.944702 227.253906
-1032.752319 -254.011414 276.316010
-819.192139 -236.055756 702.532227
-923.407227 -222.922760 656.790710
-1031.912231 -283.812042 357.653656
-1032.830933 -243.141006 154.373184
-1026.158691 -257.283112 160.112961
-916.141541 -273.216858 652.263245
-1532.968628 -128.661667 212.489227
-908.136658 -270.823242 645.802979
-1518.323120 -267.297302 184.263672
-1431.965332 -497.315765 103.917908
-1490.545532 -290.565399 208.515121
-1444.101196 -487.442627 128.544861
-1071.640137 -112.460564 320.446014
-981.083801 -137.998917 628.697754
-1087.354370 -252.745514 476.585724
-1067.733887 -91.332237 305.153503
-918.075317 -118.661293 685.344238
-1462.533447 -415.203369 212.812393
-1476.978271 -212.217712 260.746826
-1081.043945 -321.053802 431.636932
-1408.150146 -486.604156 37.103073
-1468.481445 -285.026184 92.849403
-1091.900879 -85.270294 352.525146
-1105.082031 -103.143433 375.694031
-966.643433 -437.432312 182.809418
-1394.050049 -354.978088 -47.091213
-958.702881 -315.199066 633.007935
-896.263489 -203.737381 670.040344
-953.574768 -317.675049 612.200500
-932.519348 -414.717041 601.279480
-1045.833374 -167.679306 257.787018
-1588.948242 -424.064209 557.164612
-1048.784790 -161.552734 303.830750
-1426.534424 -269.885071 -61.469364
-1514.431396 -244.656448 222.166962
-1434.120850 -358.797485 102.807823
-996.592468 -280.267792 270.488007
-1505.387573 -174.798080 167.916916
-1397.296021 -326.523529 26.909040
-1403.089111 -581.581177 202.629807
-1424.848999 -477.638977 165.755768
-1432.392944 -490.943756 370.078644
-753.974792 -270.455994 755.134583
-1337.326050 -442.287506 210.708252
-1384.458496 -504.130127 16.139172
-1451.553711 -282.061981 129.598068
-1528.091797 -231.872284 234.554474
-899.397400 -421.361969 615.206482
-1519.716309 -213.422760 333.478210
-994.225464 -435.051880 312.449310
-1449.633179 -506.275909 251.905792
-1377.486694 -625.459534 184.171494
-808.927002 -226.543671 734.247681
-1472.351440 -205.985626 23.571198
-1537.143921 -115.130447 183.281082
-1561.218018 -144.036392 299.745056
-1025.632324 -152.274551 605.075745
-1442.152588 -293.389160 48.361412
-958.419373 -349.903198 617.627136
-1074.366089 -131.722610 181.103745
-802.245422 -390.908539 697.679016
-847.863403 -296.744812 687.239563
-1495.950195 -258.881195 205.056107
-1636.548096 -278.991211 629.364258
-1390.765015 -397.495911 -38.717346
-939.263245 -237.679550 652.136108
-1433.921753 -466.363312 122.732124
-1438.131104 -278.572601 0.547600
-1359.201782 -638.572266 168.842880
-989.559570 -327.055908 180.773788
-1054.969482 -184.415314 269.384430
-795.421753 -248.605148 720.344666
-1580.565430 -77.266533 254.041245
-1376.968994 -510.278320 259.287628
-912.041138 -204.522552 666.228516
-1481.963257 -313.245575 150.080154
-1438.872192 -354.277405 151.619537
-1499.926392 -287.990326 177.306366
-967.216309 -368.186279 228.920746
-1443.354004 -492.628235 222.569870
-1064.464233 -246.188904 392.328217
-863.059082 -200.387772 679.656311
-908.165283 -329.331512 641.305908
-1373.892456 -364.373657 259.926880
-1404.522339 -369.270142 84.196823
-1596.673706 -256.634918 461.300690
-1429.865723 -498.463867 86.850014
-1434.977417 -250.927551 -11.824590
-818.145874 -210.203430 711.937805
-1519.650513 -257.314697 227.818512
-1401.015503 -493.330872 50.184963
-839.371582 -279.456451 693.583618
-1053.254761 -188.864853 598.249756
-1508.332520 -142.843338 125.737465
-934.394958 -397.111053 605.488953
-1103.623779 -310.081421 457.447845
-895.570984 -140.383682 688.851318
-774.178772 -343.620880 707.303772
-1455.682983 -281.298889 292.577484
-980.080872 -383.639648 595.904297
-1556.845459 -310.707733 408.502167
-1034.616455 -276.625885 367.641541
-1092.107910 -316.791504 498.159302
-993.148804 -364.423798 137.231384
-1587.019287 -263.212860 485.663208
-1499.481445 -213.434921 315.221619
-943.833008 -240.124588 643.581665
-1072.630981 -303.109589 376.975037
-1401.398438 -325.532654 -4.224397
-1627.997559 -336.314636 645.714722
-1002.467834 -425.773224 336.974670
-1410.683472 -269.760529 -71.532036
-835.612793 -214.411163 710.372559
-1478.900635 -347.503967 271.944733
-1560.507202 -314.701569 351.120758
-1042.319702 -158.155258 223.794327
-987.897583 -343.305206 185.179932
-930.122314 -111.052582 683.536865
-1386.634277 -386.740631 -15.991118
-1638.117920 -266.151642 568.327393
-1071.552124 -279.739044 433.134186
-1063.698975 -181.311920 596.853821
-1088.620728 -68.284889 271.207001
-849.159424 -186.225998 701.884277
-1060.296631 -435.904663 451.828918
-825.693054 -384.236694 688.377747
-1040.009888 -244.450821 293.401733
-1466.114868 -239.335037 299.462585
-1563.541260 -321.265930 471.898010
-990.627563 -381.124573 581.148071
-1507.573975 -131.692734 117.667770
-996.403076 -164.266434 627.082397
-1435.371460 -335.655548 298.009003
-1032.036011 -150.877274 209.818619
-1086.336304 -78.104042 273.688568
-802.038513 -362.577759 695.276917
-1457.596313 -357.084656 369.394318
-927.985779 -177.035767 662.329346
-844.873047 -311.807800 689.895813
-1066.733276 -140.791855 190.064789
-1410.841553 -561.525330 193.723801
-908.552795 -316.223572 642.532532
-1094.416382 -59.939556 362.293671
-986.419800 -243.706924 624.893799
-1493.799683 -200.680023 309.119232
-1411.248779 -418.311523 187.214386
-1056.753784 -202.908371 312.470764
-1096.310791 -87.321442 307.502045
-975.061584 -172.792633 634.262695
-884.198730 -403.968109 643.592773
-795.846863 -290.954346 708.770874
-1421.892212 -547.470032 161.821136
-1383.057129 -467.215576 36.252773
-1505.838745 -255.078171 155.549591
-1475.991333 -241.741257 306.817047
-1485.270996 -317.556580 283.673126
-1490.538818 -254.203690 112.914551
-1031.560547 -300.621765 274.202454
-917.115784 -137.474319 670.517517
-980.277344 -370.991669 603.354126
-1431.524902 -289.150330 -34.695553
-1521.924072 -160.165253 248.788300
-1518.039795 -297.981171 274.801575
-1436.741943 -471.735321 85.411453
-1417.926392 -505.618500 174.321823
-1504.846802 -609.697388 397.088837
-1040.278076 -138.158890 249.947144
-1404.910400 -314.261230 23.093908
-1127.955444 -246.767166 517.967590
-1484.340942 -277.016998 285.166168
-1383.340332 -299.485504 84.946976
-989.355835 -180.918198 626.950623
-1104.518311 -238.467987 496.289154
-1537.756348 -113.916420 153.699982
-1537.038940 -291.087463 432.296753
-1545.090820 -140.076477 190.113098
-808.392517 -230.185089 780.518005
-1423.914307 -453.159363 29.154514
-1494.157349 -258.722290 146.392212
-1484.962524 -285.828949 137.083191
-1519.340698 -616.307007 404.672394
-759.259216 -284.055206 753.201172
-852.107910 -165.751266 702.253479
-984.259094 -364.622589 599.490784
-1029.559082 -257.409302 594.961670
-1332.789673 -560.866821 149.790436
-1101.160156 -188.016129 407.430237
-1555.890381 -92.024551 190.226959
-1055.520142 -440.413544 476.261108
-814.601563 -265.585846 732.366211
-1014.733276 -305.737152 290.659363
-991.560486 -350.426239 262.622864
-1492.507080 -262.608490 128.404724
-1065.579590 -79.981461 330.920746
-978.169678 -340.273987 248.503036
-1035.842163 -150.094666 280.757019
-1382.497192 -615.302307 104.842133
-1436.465088 -429.456757 98.056244
-1045.021851 -262.189117 353.692505
-1525.743774 -229.258026 212.666992
-1574.681641 -175.890457 315.825470
-1400.377441 -659.539856 169.191452
-1514.786011 -215.622131 294.879761
-1468.378052 -222.477936 103.346359
-1420.360840 -525.516846 126.976181
-1486.394287 -248.217667 116.684242
-1594.307373 -299.588226 436.363373
-1575.645752 -321.792328 464.264435
-859.097290 -402.205933 644.969849
-1414.440186 -309.108368 -49.814327
-1418.662720 -594.501953 240.758835
-1528.412598 -313.659698 396.025940
-1038.000610 -313.357788 323.523895
-1401.861572 -365.150757 65.763382
-1403.701660 -355.902161 49.980160
-983.505859 -401.247498 251.125580
-1385.510376 -345.614288 -76.439476
-1066.528931 -434.795471 503.812042
-981.089417 -286.310547 191.339325
-1109.398193 -240.330124 527.455933
-1469.662720 -107.000961 252.141235
-985.790283 -141.200256 644.840454
-1512.935059 -191.951202 262.920563
-1554.393311 -366.908600 369.807159
-999.436279 -284.267487 281.973877
-1402.523560 -539.980835 162.482040
-1014.787659 -358.397522 321.448914
-814.885376 -204.165176 722.533081
-991.301331 -379.370209 286.036774
-1435.658813 -471.348297 124.593933
-1389.546387 -365.800812 -9.413914
-1454.119385 -302.698151 72.694908
-1004.552185 -240.520294 220.325684
-945.720459 -158.714752 642.648132
-1077.760620 -335.443085 454.894043
-1436.574463 -390.919800 209.720993
-1020.308289 -477.884491 389.573700
-1021.825500 -208.654388 164.981537
-903.393250 -300.086853 645.528687
-1024.674072 -302.676514 321.440948
-1042.260132 -327.418121 314.641327
-1050.576782 -277.388947 377.751648
-842.696045 -165.243423 703.977234
-1380.098633 -435.533447 273.565155
-1008.578064 -267.972321 597.116516
-774.600708 -350.864563 745.413269
-1011.739624 -229.776031 189.516068
-1088.854614 -297.087311 437.932861
-1080.684448 -366.380676 472.097443
-1008.559082 -138.491455 633.014954
-870.884155 -414.364899 650.169373
-896.408752 -245.574417 680.621704
-1550.576172 -251.482376 318.454010
-913.480835 -400.872559 623.874268
-1380.333740 -353.741058 -57.860611
-1001.031250 -256.389038 222.579117
-1042.044067 -315.117615 340.579956
-922.773438 -439.044617 605.199951
-1499.076416 -153.772858 133.579926
-1303.670410 -346.336243 182.722260
-820.627258 -356.339844 674.650330
-1023.494873 -283.785736 293.646118
-900.911377 -305.933960 640.614807
-1545.533936 -124.963890 245.042084
-1030.815918 -340.979065 292.777924
-1505.271729 -252.349640 289.841003
-1528.802979 -176.594696 156.388535
-1391.506348 -385.652679 -0.480264
-1034.642212 -202.627396 316.377991
-821.986084 -357.447601 678.257996
-827.879150 -394.676819 668.214722
-1463.735107 -433.369385 244.417343
-1021.382263 -171.222595 621.894287
-1034.026489 -148.457489 220.706421
-1402.931152 -629.051758 159.834885
-1424.926880 -300.321533 25.941771
-1498.653320 -136.999237 133.020294
-988.583252 -218.400589 630.639954
-1047.107178 -111.038109 232.346161
-1475.321899 -446.897919 278.089874
-1530.332275 -264.097076 257.696930
-945.732239 -24.703360 458.294098
-1371.752808 -322.018951 99.525085
-1582.376465 -276.325531 398.151947
-1364.076538 -517.073914 207.802719
-1104.802490 -166.299866 461.153015
-1544.731934 -157.209427 235.975250
-988.891785 -311.148834 175.723923
-1422.810181 -544.581116 139.132767
-863.311218 -151.566376 694.097412
-992.583435 -370.889526 212.231842
-1067.009277 -393.123047 481.372467
-1046.562500 -155.682373 593.760315
-1495.927612 -586.962097 406.905884
-944.146667 -397.364075 604.308899
-1408.650146 -540.982056 82.287010
-1372.480713 -584.387146 89.373062
-1104.881348 -147.105896 427.867035
-872.706787 -123.999977 686.037537
-979.872070 -147.259186 640.769348
-1077.541016 -319.084656 396.486725
-974.570068 -173.804031 634.992004
-1069.181885 -255.511887 358.814362
-998.660889 -376.892670 328.796600
-1393.914917 -380.087555 130.738586
-1340.948730 -424.016602 231.156647
-1432.270020 -425.656281 161.783447
-953.560181 -195.880859 643.407837
-1059.194214 -114.128487 255.485367
-1036.515869 -143.729034 266.566895
-1060.148560 -167.987503 335.775330
-1399.726196 -544.253540 149.125458
-1033.588257 -153.573593 266.617676
-840.400818 -156.392151 718.876831
-1007.266174 -470.764709 343.344299
-782.506470 -293.418701 718.652039
-801.055542 -259.181122 709.818970
-1015.588135 -451.358398 376.726044
-1501.208496 -144.818253 137.131195
-1506.524048 -273.927216 214.902542
-1479.870972 -213.898514 288.944641
-1049.130371 -450.755219 465.175629
-1530.549683 -317.696381 422.160004
-973.642761 -230.353180 638.317566
-1400.780029 -435.822266 -10.631374
-1075.151245 -144.776794 344.753510
-1394.119751 -366.392700 6.152012
-1413.445557 -334.993103 10.095700
-851.733765 -288.927277 699.618713
-902.837708 -308.909546 639.462585
-866.731812 -453.618439 627.726196
-1064.142334 -313.468170 462.843201
-887.690125 -156.318192 683.711121
-999.778137 -273.056671 171.520935
-1510.279907 -277.764923 220.330780
-935.301697 -307.726715 641.869385
-931.345825 -309.268066 638.350403
-1555.550537 -139.082306 281.745697
-1043.813721 -154.984512 597.258972
-1469.502075 -578.604370 387.089508
-1403.600098 -556.667480 232.317551
-1081.930298 -74.175560 328.270386
-1128.585815 -265.911957 502.360596
-1521.184326 -256.628143 200.626877
-1053.456421 -211.399124 593.746765
-786.123596 -361.082764 704.761108
-1407.969360 -284.003571 -40.395016
-930.560852 -220.202957 658.129700
-1435.904419 -509.540771 178.246582
-1522.774414 -268.357269 282.934174
-1429.867554 -365.092560 78.445198
-971.145630 -141.293457 649.999084
-939.646301 -181.828217 653.553223
-1580.941406 -125.178680 305.249725
-980.794495 -335.237122 614.943909
-1014.467834 -136.761459 634.191162
-1468.073242 -185.783234 275.009125
-896.757202 -378.670624 655.646484
-803.339539 -273.116058 708.307007
-793.750427 -185.905807 728.553345
-908.556274 -186.352249 666.654358
-1407.803589 -310.244629 -49.226868
-1471.878662 -368.918274 252.122086
-1418.183594 -272.276154 -33.874889
-1559.159790 -117.841980 272.748596
