ply
format ascii 1.0
element vertex 1357
property float x
property float y
property float z
end_header
-794.242310 604.537048 -483.592438
-762.220520 537.629395 -538.766113
-1151.086182 494.657074 -834.871582
-1073.990601 669.325195 -860.930664
-921.351807 762.872803 -227.794327
-840.468323 621.360474 -436.076508
-808.195313 557.045532 -453.412537
-820.372498 758.331970 -78.192642
-755.063477 497.456604 -552.909607
-937.793884 617.039612 -364.863068
-993.851746 847.379028 -803.752197
-1004.497009 469.112579 -911.892761
-821.778625 487.202179 -497.748840
-933.713867 544.313354 -956.374878
-1214.137939 764.081787 -728.519836
-985.815430 533.543701 -363.734222
-993.780579 461.395172 -932.208374
-1319.245239 875.332520 -595.252930
-984.951477 584.228271 -923.350769
-991.898254 641.778809 -200.013718
-918.174561 418.952332 -428.220276
-1394.576172 945.795227 -571.189758
-851.013245 403.112946 -476.471954
-983.096252 874.664429 -869.878540
-744.387451 563.559143 -521.200195
-824.060608 449.671967 -484.700073
-908.510498 692.781677 -91.732521
-1115.946167 739.955688 -722.229492
-915.593933 678.056335 -68.514626
-794.657654 623.367065 -489.287842
-938.984497 388.569427 -435.506958
-903.897156 726.790649 -139.537811
-854.807983 477.422791 -443.318024
-1141.337280 561.219788 -764.224121
-770.994568 607.739197 -483.253204
-1046.816040 454.801575 -900.566711
-849.480225 711.467285 6.045212
-865.439026 720.127930 -79.835121
-933.752502 448.471649 -408.166870
-857.517700 410.462128 -452.119690
-826.977966 756.895264 -42.792374
-741.689575 676.924744 -499.453827
-852.149658 745.593811 -100.013771
-794.345520 476.299469 -529.196411
-1079.879517 572.084900 -325.739166
-930.676086 567.099976 -945.543091
-1066.235474 661.943359 -842.352539
-802.200745 749.006592 -417.971680
-863.094788 700.590820 -37.716175
-1008.701782 793.923706 -867.335693
-979.570862 690.916992 -359.256927
-982.261047 651.062683 -357.058044
-751.315308 566.264893 -512.145935
-1075.994751 382.591644 -880.358093
-861.484070 714.237854 -61.083260
-825.210388 781.335632 -36.967548
-1093.323608 741.041809 -729.830994
-1029.391113 684.858887 -880.293274
-978.494019 937.141846 -859.655090
-813.584534 385.093994 -538.228577
-878.801575 724.306335 -129.507156
-838.312378 764.669373 -128.565369
-1013.771912 809.643311 -851.288147
-1108.054932 627.005798 -829.863098
-832.605164 729.957275 -16.100193
-737.609741 550.409790 -546.624817
-908.085083 328.907837 -449.975922
-1327.671875 491.990448 -697.560181
-803.022156 554.368164 -469.897217
-1073.500366 687.754395 -860.004028
-736.160583 645.517944 -505.715515
-930.165466 541.751465 -394.598694
-1057.990723 766.227783 -825.280273
-800.590942 520.522522 -485.809113
-828.432007 541.162842 -445.331329
-983.760437 720.226501 -907.288147
-877.633972 716.156799 -110.754227
-901.467896 654.852966 29.569862
-908.397705 688.457092 -383.799713
-900.283142 805.910583 -217.352676
-800.239685 425.547821 -520.840759
-772.656494 689.233765 -464.236877
-895.196777 768.128357 -251.458588
-1008.810669 560.790710 -62.654022
-937.867493 612.571411 -13.458550
-763.108765 645.833374 -498.816223
-881.327759 658.445068 -407.376648
-1243.552002 647.122681 -675.349365
-970.844604 691.761536 -355.911469
-1125.951294 459.583191 -848.947266
-1115.251465 760.981934 -789.974609
-1312.343750 643.094177 -676.631165
-814.738708 487.595581 -464.084778
-1160.994629 466.101440 -855.039917
-1042.958252 508.196198 -316.431702
-850.787415 743.590454 -93.752838
-826.503967 771.232056 -112.143082
-977.530457 574.274048 -24.382339
-948.832886 595.875000 -31.280174
-1215.466675 839.939636 -697.858337
-1016.900269 543.406250 -348.849030
-890.231079 566.803772 -413.345642
-895.412659 697.649780 -107.670120
-933.772583 651.422729 -46.579426
-1025.349487 567.704285 -346.443512
-744.234131 628.209229 -506.767059
-978.569702 886.148438 -875.571960
-1229.101929 817.431458 -749.965210
-843.375122 687.692261 -438.268921
-771.549988 523.738403 -528.473206
-1231.749878 386.715729 -762.311279
-956.544189 709.452759 -930.395081
-1118.429810 745.234131 -805.946777
-881.729736 587.975830 -415.845673
-971.564697 833.231506 -887.997314
-792.884460 492.606873 -491.364410
-924.575439 555.302979 -953.221985
-916.238220 684.178955 -126.788490
-855.402039 726.083740 -412.695587
-1057.515015 614.950684 -856.283447
-1087.457764 739.903809 -732.358215
-1105.036499 599.628296 -827.773743
-1342.433350 950.025330 -605.328613
-1037.613647 887.661560 -836.850952
-1047.594360 453.171204 -926.205078
-873.632935 715.739258 -66.402824
-814.194580 467.922607 -481.364105
-729.960571 553.419067 -557.346313
-962.578003 563.056519 48.176300
-985.550171 513.605347 -856.323242
-849.689392 692.006042 -408.627716
-877.883545 684.275391 -22.717356
-1011.361389 644.513672 -347.833679
-905.609070 710.651917 -150.349182
-939.974304 694.390137 -930.658203
-1069.947510 675.186951 -870.829468
-1230.756592 775.914551 -733.170105
-998.988525 470.176208 -349.769806
-893.891663 690.933167 -63.698265
-1031.993042 541.541687 -878.438660
-1232.803101 507.448334 -786.578491
-999.405029 510.557770 -910.484253
-743.477051 678.830261 -507.705780
-1048.770020 531.690796 -135.934860
-1086.620605 769.539307 -821.447937
-1279.265991 374.173004 -780.708008
-848.982544 651.937073 -419.754730
-1114.086670 813.479309 -762.449036
-1015.250916 610.596924 -138.028946
-920.435425 739.385193 -189.695358
-1013.944031 829.129517 -834.327698
-1377.657471 634.804565 -689.194885
-862.642639 774.616394 -150.825272
-1180.855103 542.032715 -806.463928
-1145.316650 526.861084 -826.784363
-1017.374268 508.848602 -351.627686
-1081.330444 776.304260 -801.270691
-806.515991 415.090637 -548.052979
-1004.522156 800.119202 -850.370667
-1004.750732 616.062866 -165.131729
-1055.681519 822.745361 -812.984863
-1065.279053 913.284973 -804.767090
-1177.112061 499.254303 -816.168457
-1182.630493 573.802002 -697.356934
-920.135376 740.123840 -187.706161
-1110.296021 634.170227 -791.244141
-937.472717 581.980347 -949.799072
-1124.901245 586.050720 -800.663818
-742.788635 611.418213 -497.893036
-1148.553589 571.263428 -822.471313
-1030.259155 526.182190 -360.008606
-879.789368 751.997498 -144.779602
-827.760498 509.028473 -485.347107
-1003.665283 410.789154 -371.550354
-1085.767944 875.338013 -792.027832
-1410.856323 974.962830 -596.844604
-1249.475708 366.350342 -765.200745
-1086.784424 598.956787 -837.657532
-959.672241 661.717590 -924.356750
-864.627197 570.174194 -455.377411
-787.006409 501.079529 -502.014709
-1047.746826 531.978088 -111.592636
-1052.026733 811.488220 -844.769775
-1105.288086 721.274902 -726.600037
-866.580383 702.331360 -38.105785
-998.639771 543.588257 -905.775269
-1215.785034 551.507324 -729.192993
-1224.496216 527.883179 -792.145752
-982.361572 847.468628 -865.253723
-1145.409058 777.636230 -721.362915
-1201.547974 446.786621 -816.318970
-770.938110 531.808472 -509.167145
-1270.878296 432.800568 -685.079651
-1009.913391 581.819092 -101.538727
-1097.575073 589.416748 -772.711060
-857.621338 500.468719 -449.692719
-1188.891968 654.193176 -652.966980
-855.651794 786.100952 -164.401093
-922.290039 719.989990 -174.704712
-1100.313965 639.412231 -840.700195
-995.289368 649.268921 -357.724213
-1392.320557 972.538391 -592.173584
-1149.349976 699.202148 -798.250427
-1006.182434 541.852844 -49.327251
-987.527954 646.517578 -163.715881
-1042.255249 668.038208 -873.045288
-725.825928 568.419800 -553.078430
-906.909058 441.201935 -430.026031
-828.990662 732.087280 -4.382323
-776.656433 534.675598 -495.316101
-972.652161 499.444733 -963.056274
-960.261963 531.899780 -893.987427
-1063.716553 524.801086 -138.954712
-1225.067383 509.745453 -769.423157
-1112.301147 777.748413 -793.624023
-998.120361 416.773346 -366.692871
-843.326721 585.822205 -439.550507
-1036.560181 544.973022 -112.444077
-899.179016 658.365845 -27.372419
-885.546387 727.985229 -134.761810
-783.285767 489.018555 -564.619751
-1131.975830 796.506470 -732.054810
-982.833252 832.404114 -859.955322
-1031.463623 609.587769 -899.005127
-951.820862 693.928345 -374.261292
-957.124817 668.363342 -146.703949
-1213.385620 383.425659 -806.944519
-744.008362 556.328064 -557.225281
-1078.542480 620.174744 -700.134094
-937.159119 594.031982 -961.206116
-832.633423 746.464661 -25.297852
-1403.763306 597.690186 -684.664551
-1140.169556 452.657990 -827.357361
-1085.206909 640.831848 -830.296814
-763.569885 721.484680 -417.048340
-962.779724 628.691406 -937.875977
-921.839905 334.080811 -435.615814
-1211.545166 579.053772 -734.035706
-1048.017212 503.730865 -885.211182
-871.346130 666.126465 -405.437469
-1168.509155 793.282166 -740.195923
-943.424316 344.500092 -428.672577
-1216.166016 834.294739 -743.667847
-1018.772827 840.265076 -833.708008
-814.969727 771.903442 -65.682404
-1191.965088 488.479980 -808.022339
-929.859802 343.519562 -437.888855
-892.148193 679.979675 -17.495373
-953.904846 719.573669 -347.614471
-900.506775 673.112366 -74.587700
-994.286560 641.076416 -151.331650
-921.983521 598.489319 -388.484985
-1110.670166 620.675842 -779.871460
-964.763611 637.460754 -102.552940
-958.863647 598.238586 -387.008698
-975.361633 422.169067 -940.518005
-833.041321 579.928223 -444.436829
-825.998657 410.510529 -480.726410
-938.685242 673.471191 -381.748291
-1166.693237 719.954224 -773.845337
-835.653503 714.867798 1.289283
-1015.584106 810.060669 -844.504517
-1043.705078 725.915161 -877.934082
-950.469910 638.606323 -353.942139
-865.907166 715.105713 -76.506027
-1039.174316 923.145874 -824.555664
-957.184570 635.290894 -937.084961
-1025.044067 660.317566 -350.332642
-1066.059937 677.986633 -839.253052
-998.557983 631.620728 -138.118652
-825.892273 588.836609 -459.840759
-1071.805176 840.613403 -822.472473
-823.931946 493.395905 -470.902252
-952.071350 655.833862 -98.656876
-883.485474 695.343628 -31.230253
-1031.475464 811.959351 -774.610840
-977.105591 564.335449 -932.132446
-957.468994 658.860229 -928.719116
-991.360718 553.615906 -815.262756
-828.083984 758.554565 -22.065563
-960.100464 525.701965 -378.241730
-1048.911621 501.633575 -337.064209
-1199.333618 411.937836 -837.834778
-855.139526 817.603943 -248.294601
-1024.569580 559.985901 -113.472260
-1141.150391 513.656677 -861.887390
-861.624146 469.826538 -475.193329
-1055.933838 780.178528 -846.212952
-824.055359 772.526794 -38.287899
-831.300476 748.433044 -28.837677
-1116.790527 689.692444 -834.513672
-1277.954712 602.436035 -715.326538
-1141.109375 488.859802 -851.351929
-746.807251 555.096802 -551.214294
-1193.156128 517.158081 -786.672668
-959.999634 671.855042 -165.734711
-1026.741699 629.469543 -187.145203
-776.458557 636.021484 -490.922638
-852.532166 775.101624 -144.524734
-980.944763 785.639221 -773.730469
-877.964111 414.638855 -448.790436
-953.022339 527.767700 -970.567688
-949.511597 537.960754 -385.692596
-1047.062134 505.506226 -350.168945
-905.771484 701.771240 -379.970581
-962.718506 555.069031 -943.770447
-974.378845 630.147278 -364.049011
-1005.443848 561.187744 -357.345703
-1015.712341 624.973267 -176.659500
-869.125549 743.492126 -415.232361
-1028.839844 559.407043 -129.073425
-835.961853 403.349274 -511.820557
-1201.405762 611.063110 -708.350403
-1035.018555 553.905823 -365.421875
-1057.940796 560.304077 -166.025085
-988.429138 573.959229 -917.386169
-989.133118 427.923248 -381.565033
-773.017517 508.462402 -496.348755
-1040.127197 508.107605 -28.023438
-1349.735596 451.159485 -692.926392
-897.344604 723.802246 -130.642593
-822.697266 748.920105 -47.318439
-985.570923 785.453796 -894.096680
-918.408325 617.671631 15.128719
-1082.625854 477.953613 -332.021851
-836.531067 745.112488 -49.886532
-960.608276 576.005188 -939.000671
-865.092712 708.209045 30.094446
-845.377075 705.629822 37.545227
-919.791931 545.606201 -389.234283
-811.041443 440.993774 -550.077881
-966.168823 598.665161 -950.894897
-1059.728638 617.137207 -724.581909
-1036.367798 442.506989 -914.842712
-1016.241455 738.148132 -890.098816
-836.908630 732.254150 -20.198523
-1237.659546 375.225159 -775.912598
-889.882202 710.434204 -103.093887
-1324.534546 956.122498 -635.802673
-751.921509 705.879578 -485.021698
-957.194641 746.453247 -918.089722
-989.062439 482.304321 -387.954742
-854.878052 744.018188 -423.792664
-941.718872 694.968506 -935.368225
-923.467957 601.286255 27.470617
-989.087341 556.709167 -863.789368
-989.281128 873.283081 -855.946533
-1254.422729 445.566925 -730.159058
-981.686401 852.745605 -862.956238
-819.876892 744.771606 -44.829121
-1167.370850 543.481262 -797.062317
-904.232300 681.435120 -388.583313
-987.387512 789.198608 -784.565125
-1111.961304 681.750916 -816.853516
-967.581604 670.998535 -198.514908
-1199.827759 439.720917 -808.453064
-813.021790 779.735168 -70.085358
-1104.404419 740.106201 -819.703796
-1018.609558 585.420654 -162.131836
-944.771851 640.379822 -946.307251
-949.855591 648.511780 -94.052696
-1119.855225 740.195801 -259.814941
-1082.771362 551.274048 -283.767609
-1034.705200 540.757141 -342.633148
-840.290100 723.932434 -19.354353
-1030.574097 680.009644 -309.663574
-1398.686401 956.513062 -608.767517
-1006.551575 825.061340 -837.378967
-1246.328979 533.477661 -714.890259
-907.011353 419.405487 -412.037720
-939.516541 506.566711 -960.596741
-990.229736 664.192688 -368.128845
-1170.311401 391.314453 -832.139709
-1168.292114 687.668091 -789.073120
-928.164795 683.352783 -110.886482
-1060.934937 639.897339 -864.327332
-1047.651855 604.316895 -317.815125
-940.264465 618.027832 -53.369560
-1021.705505 465.830139 -926.519165
-1135.379639 449.419769 -844.728821
-934.218018 419.211700 -408.525391
-787.058899 567.182556 -485.009460
-794.856628 526.766663 -508.712036
-698.699829 747.312500 -292.154755
-1101.661865 639.119629 -828.478577
-807.386780 770.611633 -52.766247
-983.382568 448.401306 -377.025177
-794.556946 526.722107 -483.847565
-933.662598 722.343140 -195.358109
-1346.560303 516.503967 -699.166382
-765.326416 627.167603 -475.669861
-1015.905579 636.543579 -334.501648
-879.422729 448.516479 -446.677551
-944.459534 531.848816 -937.653259
-1391.954346 944.861450 -578.876648
-764.334167 621.806335 -506.006012
-886.298950 641.429749 28.427296
-921.450745 470.595001 -433.417114
-744.033691 654.814697 -513.611572
-1246.838623 762.828613 -692.846436
-1027.953613 477.976349 -908.062134
-746.257568 554.044128 -510.417542
-1044.769897 591.572815 -189.260590
-757.735352 498.390930 -539.594604
-1052.593872 546.720581 -750.867126
-870.963196 729.455627 -91.861214
-998.720886 458.120850 -368.264709
-1363.521362 948.452942 -591.992615
-861.914307 753.849487 -113.772888
-972.866089 474.824707 -396.455444
-946.232666 618.724854 -66.548073
-751.823120 627.654785 -494.197235
-852.432556 803.965759 -181.022583
-836.612915 716.641235 -5.145892
-997.788269 861.065308 -857.102600
-1052.689941 550.052124 -173.437378
-743.777039 647.500671 -514.335205
-853.286682 372.618713 -472.428650
-1213.303345 829.807556 -694.309509
-814.471497 449.477478 -493.107788
-1051.056519 555.097046 -160.235672
-963.679260 529.262756 -913.935608
-985.913818 601.233887 -114.838921
-863.812073 750.725159 -396.218872
-1087.097656 785.923584 -739.947388
-1199.566284 882.095398 -632.415588
-1053.308105 779.609741 -797.926453
-1121.471436 718.857849 -821.774841
-872.809021 359.218262 -468.086761
-765.196838 717.221008 -444.490570
-1029.990601 527.042542 -845.339783
-1009.472168 446.326355 -392.463104
-1141.163940 429.918243 -827.891724
-952.311523 599.171875 11.712804
-1010.939758 570.373352 -874.357056
-942.121887 560.774536 -965.804993
-967.727966 585.626709 -352.134247
-1157.401123 674.599487 -749.159119
-860.577026 395.118713 -468.122498
-1033.464722 582.749207 -335.391510
-1226.945923 559.431274 -751.655518
-919.979675 359.946228 -435.819763
-1197.916626 573.947327 -784.568237
-1215.359619 841.471069 -717.252869
-1043.824097 840.124695 -839.642212
-1003.020813 653.896118 -177.472565
-1027.588379 575.258301 -336.869507
-950.829468 771.443787 -917.709412
-1203.399902 836.254700 -702.720276
-756.987000 541.098389 -550.046326
-915.463684 732.406006 -179.941238
-1200.419556 892.602417 -711.861511
-902.771240 432.614655 -431.520874
-1059.969116 551.589355 -142.869461
-1171.092285 382.052704 -835.880493
-1189.287842 414.783417 -809.147461
-1127.753174 535.493042 -840.225525
-1038.705200 583.120117 -167.230103
-863.848816 723.876465 -32.883026
-814.980225 536.101501 -452.075867
-1185.425049 391.064941 -825.396973
-923.163452 663.061890 -98.027191
-1231.757568 763.942261 -755.653320
-900.457520 508.518127 -414.597443
-1052.904297 527.517944 -892.266235
-1140.795410 718.825623 -754.465576
-844.991516 638.645447 -432.914795
-1052.078979 408.509094 -360.646271
-964.086060 483.037292 -951.045776
-1287.795288 362.276764 -753.868286
-750.138000 574.023865 -578.636108
-885.723877 732.668518 -119.617012
-1022.012512 610.838684 -206.678055
-1105.725952 707.899353 -761.690857
-1104.411865 495.384338 -864.643799
-859.169006 723.329834 -50.984558
-752.309814 546.488953 -533.439880
-976.845398 536.791443 28.642399
-957.756897 719.962708 -932.096497
-1159.970703 416.683990 -833.996399
-1026.921631 570.455200 -150.723892
-975.738037 843.773254 -833.542358
-1238.438843 388.533661 -802.248657
-1066.898071 778.413025 -785.211670
-850.421936 683.472961 -420.250763
-839.892883 526.784851 -457.937531
-1001.462341 589.098877 -911.648315
-1225.380615 425.666199 -728.468140
-1128.045410 547.339600 -831.633179
-1086.930908 846.820618 -759.939087
-871.041504 590.568054 -411.876434
-756.523682 707.750366 -480.298676
-1118.632324 614.934570 -803.803162
-884.845154 793.151611 -239.328568
-826.419861 528.017883 -460.654572
-735.473572 581.315552 -521.852295
-981.847534 678.584045 -916.494385
-985.094604 357.048553 -402.069550
-886.066833 686.140076 -69.961899
-914.062683 636.503845 -32.375156
-968.896851 672.741150 -348.117279
-851.600708 621.822388 -420.855804
-877.175903 443.112885 -438.023315
-1073.848389 588.843079 -850.599243
-834.383667 774.139771 -107.180969
-1058.488892 805.691467 -762.212463
-1021.676941 807.870728 -868.125671
-749.216309 529.969177 -527.996277
-1024.900269 722.507935 -318.390381
-1140.442749 507.580811 -851.791809
-1159.994019 805.932007 -716.437439
-933.066223 685.083801 -126.313339
-973.004944 415.020386 -390.398407
-977.101318 497.857574 -936.203979
-834.349792 744.546936 5.823750
-1036.383911 825.240662 -807.230286
-1036.357788 674.529358 -877.313965
-985.033325 697.770264 -904.439636
-1062.016846 510.796326 -327.557770
-1231.469849 401.529602 -772.730652
-947.270691 401.082977 -413.732483
-901.084839 759.750061 -190.366028
-991.610168 710.375610 -334.105347
-961.238403 506.483673 -397.661011
-855.283203 379.002380 -483.401398
-1198.090698 548.883423 -769.929321
-1251.535767 478.623138 -752.538635
-925.130676 632.354248 -28.671091
-1040.961060 493.650085 -335.430084
-877.486267 445.305511 -460.601593
-892.032593 764.574890 -374.621490
-1040.160034 463.239685 -928.804993
-880.777649 615.329590 -438.839874
-1051.717529 926.749512 -807.380493
-1025.395508 652.463562 -900.227051
-808.767700 522.981567 -499.067261
-815.490601 477.668213 -493.462402
-1047.908569 801.675354 -787.958496
-850.047241 741.095276 -77.589897
-1024.211670 623.814392 -195.542358
-1000.045593 888.293335 -868.218750
-978.369507 714.656006 -345.292480
-764.376770 489.745850 -540.428284
-913.074585 451.577820 -407.132538
-853.092468 761.488342 -129.802170
-1008.676208 657.067322 -915.017639
-864.498962 736.582947 -102.846893
-1104.380493 518.342102 -306.898193
-900.045532 706.560303 -112.428413
-1191.146973 777.198853 -737.376282
-996.071228 656.382690 -177.450562
-880.982666 770.313904 -205.322510
-839.164490 741.366028 -67.379265
-1012.227112 545.665710 -355.294403
-954.314392 543.243774 -376.143707
-1221.473389 398.924896 -792.528687
-821.419373 424.000336 -543.180969
-1005.620911 482.831177 -907.899353
-832.511414 751.978516 -47.416977
-936.968384 577.413208 -952.597717
-841.307983 742.549988 -30.173376
-909.915955 623.704590 63.839432
-885.871887 506.923737 -427.156982
-1207.738892 777.038147 -680.802063
-1012.131653 660.086670 -344.283752
-1087.435547 440.198608 -903.596008
-870.817993 359.545898 -487.392242
-1112.838135 753.347351 -808.256653
-950.037842 610.563477 -22.078875
-1095.156250 704.008545 -814.130676
-921.957275 609.715942 18.615442
-877.710449 752.009949 -126.141792
-889.090820 351.264740 -458.473236
-1044.579102 522.601929 -108.516937
-1211.435547 426.082336 -737.968262
-871.436584 755.185791 -148.205170
-765.976501 497.804260 -542.125244
-1047.375122 784.209351 -848.579407
-1038.052979 561.471375 -146.040344
-1002.422302 584.370911 -351.509796
-1222.570190 896.064758 -736.200012
-896.250122 700.241455 -99.104828
-1235.244385 514.962097 -776.174988
-1129.300659 434.556030 -878.040283
-920.906616 680.072327 -85.064240
-1017.350098 656.496521 -892.995239
-1066.872681 901.584595 -803.381775
-1213.183594 441.283325 -717.427002
-776.855957 573.978149 -484.583252
-1109.059204 478.957611 -843.247437
-726.831421 613.909973 -563.960938
-940.090576 602.481445 -24.893438
-753.240906 548.979797 -553.672852
-966.580017 695.015076 -900.079712
-692.625610 780.749817 -252.764679
-800.238586 509.293701 -484.437469
-762.692444 589.122742 -494.912384
-1204.930786 626.091614 -679.951599
-934.890442 732.789856 -914.474060
-863.878784 703.690369 -17.712385
-1057.231079 804.337769 -768.846680
-895.149292 734.517822 -389.181122
-1054.246948 901.200134 -838.862671
-1032.537842 497.173004 -901.900024
-942.423218 765.302307 -351.969208
-1020.556458 440.723907 -918.537048
-838.132751 797.199951 -170.411560
-1266.017212 422.590454 -732.006897
-828.889832 475.422913 -492.922913
-1126.695190 528.944214 -685.201904
-860.295044 781.592834 -173.691528
-1061.322144 596.217712 -309.434418
-1159.882690 589.505737 -791.253906
-1092.667480 642.009644 -673.891174
-1023.417908 567.023865 -103.596176
-1235.427856 464.824860 -750.992859
-753.331421 671.876587 -494.018646
-841.628235 756.619690 -89.761360
-1029.745361 598.873535 -897.308960
-853.751465 811.359436 -221.322845
-975.674011 857.093140 -837.533875
-848.509460 723.279602 -25.415537
-979.869446 615.789734 -97.497589
-988.992859 608.817139 -928.193359
-827.080750 784.998352 -67.249229
-827.335571 549.686096 -476.339935
-1050.106079 745.939880 -865.647766
-1225.500244 514.439514 -772.220032
-1047.392578 510.368744 -863.495911
-980.172546 846.633057 -849.914673
-1290.540771 635.267212 -692.262451
-993.400208 815.044434 -845.430054
-1155.902588 422.664093 -842.028809
-1052.540771 640.272949 -307.284698
-1226.876587 400.231445 -781.801880
-1046.778320 489.664764 -344.654510
-966.957031 681.071594 -191.990555
-850.678101 484.509338 -444.389374
-1324.295654 530.451355 -701.300293
-1107.339600 766.213806 -804.467712
-957.409241 624.079712 -79.296577
-804.867798 447.230103 -507.153046
-1114.031738 747.661194 -259.233154
-1054.296265 787.110413 -769.700562
-1040.804321 835.767212 -790.764465
-999.409363 621.664063 -360.136963
-996.765198 630.625732 -907.754517
-912.506104 631.370178 -418.139404
-957.528687 686.416626 -162.352432
-1196.171143 388.561646 -794.562622
-843.468933 358.619629 -526.596741
-996.950195 728.301453 -907.894897
-953.213867 664.999573 -909.692444
-819.468750 784.258179 -76.952408
-890.915100 426.226746 -438.665863
-1163.477905 423.462708 -858.202515
-1189.399292 474.351227 -836.059998
-1001.597900 592.996826 -364.942963
-836.580566 645.929016 -442.681732
-1337.678467 991.425659 -636.759583
-819.653015 481.687897 -478.112854
-844.279724 727.718689 -43.842159
-1102.745972 478.949768 -317.454407
-1028.731323 615.101379 -893.089844
-1013.615784 789.768005 -849.745300
-1162.830078 828.561157 -734.830566
-1044.935425 779.987610 -843.163940
-967.999023 301.239227 -235.962234
-977.296936 630.482178 -81.341080
-984.794495 723.711853 -880.740417
-769.503174 645.927856 -487.701965
-778.780029 707.001709 -462.276398
-800.895142 470.009979 -506.669220
-1128.595093 493.360962 -858.438171
-907.772766 348.033539 -447.093964
-1113.869629 731.042297 -816.067993
-1042.471924 540.416443 -870.542236
-1176.937988 546.735718 -825.627625
-1280.878052 850.600403 -690.518066
-775.620972 416.891815 -536.868042
-983.299805 577.462463 -67.040131
-848.520874 509.642334 -437.057983
-1050.373535 475.815735 -921.556519
-858.313721 709.848938 -17.810137
-913.702759 658.483948 -378.903107
-983.063965 467.342865 -374.771240
-893.758667 483.426941 -431.457672
-917.583740 670.349976 -393.864929
-789.647644 490.157654 -485.091705
-1227.388916 450.774261 -758.216797
-1193.435303 368.732422 -817.638184
-982.119812 657.537537 -162.913666
-895.090149 596.746277 -407.698883
-899.429504 733.886475 -155.994186
-1055.306274 521.296753 -863.204163
-1006.870056 565.486755 -86.874123
-897.432129 689.051575 -86.136215
-990.710876 617.705261 -89.025764
-1241.396851 392.497070 -747.263428
-950.264465 585.712646 -941.852234
-821.555115 653.595703 -459.822784
-1153.655762 477.002747 -814.206238
-1249.238403 760.540955 -726.612488
-1028.220093 770.678894 -257.653534
-1134.757202 687.081787 -768.579956
-1087.863281 471.044128 -871.900879
-901.955566 694.960876 -87.142944
-1084.421509 628.139221 -864.573730
-927.642517 618.946533 -8.896420
-1036.659180 522.109131 -30.154455
-913.055481 586.465027 -396.842957
-1176.269165 540.300476 -807.309753
-958.957458 650.445557 -351.003632
-1245.843262 456.612946 -748.104065
-860.415161 720.173706 -58.747753
-1367.761230 577.222229 -677.734070
-860.351318 712.095520 -57.425785
-825.753967 769.855530 -77.951637
-1251.973755 433.146515 -742.505188
-958.799683 698.588074 -370.251587
-1132.186157 813.808350 -738.713013
-1250.033569 492.704132 -782.989380
-1222.725098 904.452576 -712.403198
-1212.158691 844.104431 -719.359131
-805.743347 436.452393 -489.827026
-1339.542847 906.370789 -584.838318
-865.250916 707.790405 -420.299103
-1056.616821 553.180908 -329.643890
-880.770020 658.063049 63.305225
-988.525513 631.550659 -919.727661
-747.682495 499.971527 -552.082275
-1224.592407 917.057068 -712.356384
-863.608032 802.543457 -217.650024
-1001.626953 467.892120 -910.536072
-1151.007568 504.706970 -829.784424
-1104.891846 558.199097 -853.445679
-1062.538574 562.746399 -862.715027
-1007.112549 604.028503 -659.799683
-845.843689 709.172668 -18.178356
-1097.463745 587.317017 -750.178223
-1007.356628 581.408264 -894.653992
-975.507202 669.051636 -160.256363
-956.130615 655.625732 -157.479935
-1220.568115 387.906616 -799.453430
-869.011902 717.408325 -80.465050
-993.698364 602.501282 -131.861755
-1364.983398 565.765808 -693.646057
-746.180054 655.073364 -503.198334
-1014.884399 827.303833 -834.957092
-817.051941 551.352600 -465.588959
-1272.154419 547.315125 -711.050842
-823.447693 762.495544 -57.841278
-1329.128052 425.829285 -703.240234
-964.362366 645.339905 -924.752930
-947.471863 575.227173 46.186275
-1215.318970 606.763367 -727.213440
-876.235718 428.693909 -446.512329
-833.263306 442.078979 -500.982788
-912.453796 655.516602 -27.130375
-897.196716 779.427917 -233.747192
-927.073853 372.173859 -428.350861
-883.028320 665.170471 -5.987933
-1274.783936 360.988037 -757.278076
-826.154785 766.503723 -26.596588
-893.898804 449.490112 -430.409668
-883.752625 743.551208 -149.699249
-1196.406738 393.153656 -814.135986
-1230.220093 426.598907 -758.231567
-988.120239 527.691528 34.543736
-1222.425049 863.501282 -725.368774
-1015.430664 582.155884 -880.426147
-1058.312256 449.732117 -882.670837
-906.330017 739.323364 -180.639191
-1079.303223 607.540100 -307.020599
-969.888489 550.534790 21.157234
-1071.041382 746.254517 -771.689697
-988.003235 569.051636 -342.305206
-793.121643 546.978516 -494.426819
-1005.468384 586.637268 -123.578011
-1303.382446 450.374512 -714.539978
-1059.787842 804.735107 -783.017822
-943.997375 635.964783 -389.111084
-1034.211914 541.326782 -114.780777
-951.838623 723.205811 -918.512756
-981.489990 487.179871 -901.164612
-762.260986 760.001160 -446.844910
-878.302002 670.222961 -16.615778
-1288.323853 935.666870 -641.382080
-793.227539 450.506866 -510.286957
-1042.086304 550.011353 -347.926086
-1144.655884 457.309448 -837.912842
-921.433105 420.603180 -426.002014
-1205.826172 509.942963 -786.635254
-888.752380 760.545837 -175.132248
-838.233582 761.694641 -101.639595
-978.671448 895.704529 -864.763794
-1014.337219 558.544861 -94.895973
-977.849304 670.982483 -929.933899
-894.556580 655.076050 4.132274
-854.186890 619.824585 -454.068848
-1256.260010 948.837158 -665.645081
-1044.790527 580.195679 -176.837372
-1042.165161 549.297363 -131.741562
-932.750427 614.810974 -23.110361
-815.694946 440.534119 -555.385071
-1125.349243 481.635010 -849.161377
-1166.803955 606.333923 -791.447083
-865.925720 498.142639 -440.387390
-1057.303223 552.328430 -160.675766
-988.454468 661.833557 -921.446472
-830.057373 740.077332 -9.913576
-1154.055420 411.546844 -841.479675
-1118.978516 712.569946 -808.491821
-767.446655 518.511414 -509.530457
-839.743591 397.717865 -503.210724
-1214.832275 499.412415 -785.127808
-832.655823 560.061218 -464.857697
-1143.860107 634.175903 -667.453674
-991.102539 641.398804 -149.375504
-1029.517944 554.703857 -876.509277
-1094.819092 837.969971 -799.669006
-1157.138428 740.226379 -768.812195
-808.588684 544.265869 -473.174957
-1161.285645 806.204651 -724.547485
-853.835999 687.068787 27.994610
-1236.249268 483.134674 -763.326050
-1012.019409 454.931061 -378.186432
-1099.261108 428.621948 -860.272522
-735.994385 559.308777 -525.964050
-905.457092 423.100525 -425.889252
-813.232239 769.614685 -32.670635
-1051.107178 708.008240 -860.387817
-1402.831421 627.379456 -649.467407
-1028.933105 613.748901 -910.261780
-953.889099 507.218842 -958.295715
-835.862122 551.432312 -465.693604
-770.840881 700.871704 -470.004395
-981.553101 503.243469 -935.257751
-963.110840 646.729309 -124.148643
-853.289612 367.350861 -522.851379
-1079.806274 515.582642 -135.706482
-1006.931702 453.048431 -383.988251
-1013.773865 880.620483 -847.458008
-875.379333 727.725098 -394.984955
-1016.584351 567.508484 -851.782715
-884.770020 662.209839 21.839960
-955.044006 663.966614 -129.451752
-1031.395020 668.444397 -223.908951
-1161.044067 827.105530 -737.556152
-1025.523071 721.921875 -887.617798
-837.552246 756.553711 -58.411949
-955.323181 731.113403 -922.898865
-1114.971069 477.371826 -860.856201
-796.492432 586.846436 -459.637085
-757.735901 701.762451 -482.408783
-991.471863 593.947205 -111.296593
-1020.508850 492.171021 -334.362061
-866.910156 714.396729 -59.646297
-946.675415 513.961609 -954.936890
-1083.412842 834.593018 -772.783630
-946.292175 583.328796 -407.037109
-1204.421875 509.230835 -795.582275
-987.513489 656.177368 -909.364624
-872.647339 473.709595 -424.799347
-891.645935 640.320862 53.182255
-1079.859619 674.769226 -866.257202
-1059.690552 534.131836 -884.963928
-1001.208252 705.990112 -893.117188
-836.373474 471.589996 -464.691101
-1138.998779 574.322388 -777.460144
-833.240540 612.393005 -433.756500
-996.390076 544.268799 -361.377075
-1027.741821 921.158447 -823.290405
-933.742859 729.417419 -211.913925
-1028.565063 581.541992 -850.129395
-807.686646 653.828552 -449.120605
-1092.417969 715.002930 -754.430664
-1029.525269 746.201172 -876.037292
-1156.773438 497.421143 -827.950439
-1360.881226 475.585632 -699.869385
-880.610840 356.599609 -510.129456
-1071.093018 667.139038 -873.193848
-908.171509 534.623230 -397.756958
-848.382385 704.519836 6.824925
-886.431213 545.564026 -442.115051
-906.758118 380.535614 -426.006409
-1221.316528 863.659790 -708.509644
-944.632202 626.613098 -65.616486
-992.151306 408.807343 -381.756775
-1354.598267 1022.830078 -602.746704
-1223.822754 368.599640 -803.822815
-754.795471 523.381714 -552.209900
-803.697021 598.595215 -478.261810
-984.600220 541.795837 -858.265991
-1213.317383 540.441528 -775.973267
-995.437927 474.230408 -378.213837
-1201.344604 518.237671 -789.066406
-889.297058 729.876648 -135.224548
-1090.639893 703.017517 -853.805847
-953.062439 648.146667 -116.693535
-1133.949463 481.528870 -846.785645
-758.509644 544.708740 -523.378418
-1243.223267 794.638794 -732.471497
-883.519531 760.626831 -200.508606
-1015.416138 455.795624 -944.837097
-961.081665 621.359131 -56.401749
-941.702087 635.559082 -926.342773
-950.409058 713.971619 -373.699371
-920.305908 435.887939 -405.321777
-748.799927 635.047485 -499.664093
-1041.216309 648.560608 -860.330322
-871.999573 732.157471 -98.342072
-1187.938599 354.618378 -813.546509
-953.466248 582.714783 18.384739
-959.378052 705.430481 -931.585388
-803.323792 436.912720 -498.916107
-1138.300049 685.075806 -783.752502
-945.854980 620.404053 -940.144592
-1007.297791 669.365112 -326.695099
-651.875366 740.783813 -288.680634
-779.579285 611.260254 -480.845917
-1130.493896 638.703857 -704.971313
-877.999878 353.015198 -467.106110
-1257.539185 445.364288 -749.403381
-874.688416 575.077087 -448.741577
-812.418457 758.424744 -36.077579
-958.483154 659.985840 -98.344200
-850.055786 680.656799 49.517036
-883.176147 584.259216 -415.855133
-963.474854 667.766846 -364.888824
-1105.019653 769.326843 -795.969604
-1164.339600 733.222595 -767.075928
-894.067200 401.262421 -445.222046
-942.447021 598.640869 -959.314453
-990.276184 400.747864 -375.727173
-1357.127808 479.416809 -702.435913
-1248.597778 772.044800 -704.081055
-1177.502808 661.030701 -741.132813
-1046.969116 788.991577 -801.094849
-956.746155 588.812927 9.737311
-980.865051 562.981140 -368.894775
-1115.308838 617.258057 -714.143372
-927.277344 652.458252 -57.377289
-853.325317 720.387207 -0.812369
-1313.435547 952.678345 -625.333801
-851.995544 757.313293 -110.648117
-1000.406372 703.358337 -227.530045
-823.374023 703.571716 -435.755035
-739.578247 647.854858 -500.779938
-932.012695 726.332581 -217.876602
-968.241821 456.677673 -415.090942
-1130.738403 507.231171 -857.720154
-990.162292 574.474365 -885.025696
-855.234863 808.321899 -265.200104
-964.190430 600.106812 -31.374319
-1140.150391 702.135193 -691.104431
-887.453186 745.964233 -171.359940
-1039.306396 566.647583 -751.781738
-991.136963 933.520874 -839.966125
-953.571289 631.411011 -59.275490
-806.482666 446.230164 -499.909668
-887.038635 653.202576 56.042755
-828.739258 590.892151 -467.517700
-864.237793 362.342865 -496.619110
-921.928467 632.608521 -5.557826
-1076.179199 480.254517 -894.250793
-1232.127808 474.525482 -798.535706
-747.518799 542.748474 -532.938904
-1065.615967 502.356934 -326.420288
-1156.454346 804.977417 -781.971802
-829.400269 763.702515 -7.652218
-789.664368 456.975616 -527.770081
-787.332886 602.952698 -474.399933
-901.223999 736.280273 -153.780624
-1034.501953 807.276550 -766.330261
-1229.094604 844.561646 -673.601746
-1071.149780 709.296814 -865.485535
-918.213379 394.918457 -429.543732
-1022.832520 574.409607 -334.564667
-999.422791 641.723938 -154.409302
-1191.667358 447.442444 -826.387207
-884.508606 642.406738 -407.929901
-777.333801 755.799744 -437.817688
-815.216248 390.126617 -529.207214
-1074.559082 620.900574 -844.805176
-1045.346436 590.040344 -321.956940
-802.784424 573.836792 -458.446198
-1022.741882 518.763062 -343.523987
-818.069885 482.874481 -480.364197
-1227.569580 408.095184 -729.342041
-1353.600952 465.536560 -713.374756
-844.500671 742.990234 15.471948
-737.734619 636.185547 -542.962219
-627.128540 713.061401 -350.670929
-1096.707642 525.901184 -859.231750
-1129.636719 694.001282 -781.360962
-883.501465 665.488892 60.347450
-679.869507 701.983337 -333.017242
-1164.402222 538.874268 -837.083313
-1012.779541 669.516296 -342.826569
-1240.424316 680.512512 -642.042053
-1163.175537 391.561829 -824.340088
-1044.489746 445.764740 -345.778778
-1352.179565 603.771179 -640.365601
-982.065002 891.374329 -883.942810
-1039.009155 819.331360 -800.640747
-763.722046 582.008057 -514.393066
-964.930481 658.378967 -922.527344
-874.150757 681.675293 -28.680408
-962.877930 563.889709 -360.701721
-858.030945 716.871094 -45.489937
-1044.689087 479.943085 -896.706482
-1269.579712 322.016296 -753.784607
-987.771240 871.948181 -858.254883
-1045.438965 797.895264 -842.400574
-1151.024780 607.504028 -728.481812
-763.602844 445.089172 -530.866943
-777.217407 519.826111 -526.975342
-1076.417480 588.928162 -305.145905
-1201.393555 845.108826 -673.041077
-1000.643494 502.721436 -924.550659
-785.311768 614.236755 -473.182526
-981.726379 925.389038 -850.141846
-1212.225830 456.437927 -813.129578
-750.374329 664.304810 -492.867981
-970.711609 554.850342 -17.314043
-1003.426880 566.556824 -352.279114
-878.758362 693.294312 -395.205261
-1096.832275 836.807495 -762.669434
-725.752991 654.566589 -527.624634
-843.148682 610.209900 -438.813324
-1060.388916 420.384583 -902.843750
-950.508789 487.145081 -408.494843
-1097.284546 674.979553 -702.619446
-1027.856934 519.618958 -325.250061
-1074.569580 602.231873 -298.946808
-1092.503540 744.868835 -790.451721
-960.579895 394.430298 -378.591461
-937.038574 496.959595 -965.590027
-811.418030 593.319397 -473.948181
-976.915466 539.343872 0.943001
-809.175842 536.401489 -476.176849
-828.871948 776.712830 -88.124870
-1156.116699 707.207153 -775.665222
-1191.497803 465.070953 -824.965332
-1055.008423 549.253845 -150.521973
-1024.852417 619.994080 -180.757645
-1246.987915 465.286987 -725.569519
-1045.677490 446.537781 -902.281128
-1131.273315 707.496582 -810.053345
-985.220703 698.881165 -913.445740
-1175.128174 468.578827 -822.245361
-1177.208374 652.506897 -742.726013
-1147.135254 524.266785 -793.909668
-1050.349243 566.564697 -333.355804
-742.601990 558.674500 -544.103638
-895.087646 693.518921 -30.354271
-1173.883667 447.175842 -821.071899
-916.427551 754.942871 -196.581436
-1104.720093 880.689270 -781.505127
-1108.760010 818.344604 -744.639526
-738.641724 491.115143 -540.633972
-995.178589 534.264038 -874.246582
-880.684448 734.428955 -127.530869
-1141.496704 481.663330 -853.985168
-1024.786133 538.097656 -96.888023
-786.668335 676.445313 -474.523682
-822.477905 759.559021 -11.132916
-1011.968933 581.131348 -99.959007
-1022.330078 635.107971 -224.270142
-736.367981 671.376160 -500.250580
-900.906494 375.711487 -467.345520
-937.183533 578.675842 -956.321106
-934.997131 539.736328 -399.264465
-760.204468 490.718933 -538.435364
-920.848633 552.707764 -384.497894
-1044.110962 943.059998 -808.329590
-740.250244 534.040833 -574.599609
-1036.150635 581.226135 -153.132156
-907.397034 633.042847 -380.171936
-1029.263916 533.557678 -857.063904
-952.903625 718.324341 -218.609329
-950.222961 767.660278 -355.232574
-819.946350 489.907623 -495.403564
-944.048035 653.562378 -82.050415
-925.293823 346.465118 -415.503723
-1006.949768 451.979340 -947.344055
-1100.695435 493.895660 -859.435547
-1080.427856 683.149109 -864.901794
-1048.710083 540.363586 -121.776810
-958.285889 487.146637 -374.117615
-923.617859 681.235107 -93.214767
-862.118713 539.298279 -433.419800
-1027.180908 819.745605 -773.944336
-820.908752 705.128845 -441.987823
-1051.855591 730.730164 -854.344360
-1156.421509 586.796265 -829.650696
-989.842896 612.473328 -112.944901
-977.539612 551.100830 -837.817139
-1240.416870 914.447937 -659.879211
-940.984863 320.425323 -440.778198
-1228.757202 919.617981 -683.137512
-1121.822754 716.151855 -734.829651
-982.508850 722.846924 -333.027863
-766.175659 504.807587 -511.983185
-918.779968 613.875488 -389.265533
-930.487488 666.810791 -96.299423
-764.116821 676.893616 -501.251923
-1058.490112 789.742554 -767.951660
-1001.008057 588.331543 -100.752525
-990.335938 537.656006 -2.600284
-932.191589 622.745178 26.540909
-1244.473145 476.802673 -768.480164
-1261.429077 807.587646 -691.348572
-1048.688232 434.702118 -886.672302
-922.082092 607.740967 -379.648956
-1265.789185 847.290161 -685.939148
-895.915039 682.546814 -69.425377
-1165.121460 467.450836 -828.653625
-1009.203003 767.620544 -890.989380
-964.163574 631.470642 -116.248665
-1068.864990 750.956726 -851.817993
-1111.765259 705.396912 -836.424622
-976.987854 551.134094 44.035892
-1042.859009 527.910034 -78.934814
-974.241394 650.146362 -147.505600
-877.884033 774.326050 -187.767776
-882.003296 738.558899 -137.116776
-947.873901 599.827820 7.089362
-1077.838257 874.397888 -798.072205
-830.719666 431.504181 -481.757233
-828.392578 464.822662 -471.844025
-729.920715 633.098145 -541.622070
-877.500183 535.544861 -412.059326
-1010.361877 408.490143 -919.943970
-1002.330994 469.976501 -364.770935
-1066.964844 541.838867 -860.605103
-1004.007813 573.441406 -108.682571
-994.634460 599.240234 -922.109863
-1264.282104 415.303223 -752.958923
-1139.391113 458.700043 -856.156006
-691.094849 768.857666 -268.135223
-843.776794 789.667358 -127.190811
-1247.496460 392.958008 -790.795654
-834.119690 731.706421 -36.766098
-858.501892 806.154175 -211.674957
-1266.566650 975.238708 -670.296570
-857.993103 351.013245 -509.727234
-973.449646 683.202698 -168.057114
-971.555298 698.104431 -198.170135
-1049.062744 554.998596 -332.991577
-1247.867554 784.796936 -706.143677
-942.098511 785.211365 -273.816833
-1083.917603 435.956512 -894.150635
-959.162903 597.288940 -942.201477
-937.197876 583.665100 -373.912903
-913.840637 747.737488 -190.118835
-808.539246 785.455688 -44.544315
-1067.123901 751.652344 -828.174561
-786.192322 569.268433 -482.543945
-1230.219482 464.205841 -771.753601
-1072.471924 711.762451 -853.714111
-772.029480 565.757202 -506.213074
-778.644043 667.567566 -481.667358
-1064.155396 780.944336 -810.410767
-1020.177063 613.105713 -906.477783
-844.602417 419.306458 -473.495972
-1032.810303 423.033478 -899.072021
-924.331299 384.528107 -445.783722
-1248.581787 865.197876 -682.793152
-1226.638672 643.928467 -642.346008
-803.765015 389.273926 -521.070251
-1084.610596 756.669250 -786.719727
-1032.324341 612.804016 -180.062088
-628.202881 706.254822 -353.925842
-1117.148438 665.842712 -822.607788
-1147.041870 660.798279 -785.019409
-972.805725 573.784058 -935.568359
-1016.988403 419.145050 -909.723328
-1011.109558 645.304260 -193.086166
-806.908508 665.512024 -463.764160
-1056.830444 575.670654 -182.330170
-881.639709 655.751404 35.390949
-986.728943 479.403381 -357.249054
-1044.567993 517.427917 -103.156212
-1204.387695 566.413391 -788.337036
-1201.609375 568.835754 -677.886719
-907.310730 651.321838 -1.616780
-967.617676 607.167419 -78.407509
-992.630554 693.916199 -228.002365
-854.902771 691.079346 -7.895272
-1153.805176 547.320740 -781.215149
-1223.828613 824.713379 -738.313049
-1047.222778 683.944092 -856.209229
-1020.298828 548.112061 -77.573517
-897.088440 665.868164 -18.760477
-998.415588 551.081848 -359.553497
-772.863220 536.074646 -485.641266
-1212.978149 515.731201 -756.307800
-1027.710327 440.647644 -920.535645
-880.886658 752.569092 -144.183670
-842.762451 756.096741 -87.098900
-768.512695 495.833588 -513.498596
-741.218018 665.235046 -493.150543
-842.254028 763.619995 -99.925430
-904.938843 696.466553 -384.211853
-1160.677246 431.686279 -834.794067
-937.126343 530.494751 -389.107727
-942.854736 446.786346 -406.495422
-1296.845093 538.744507 -706.037292
-1011.440430 575.101196 -94.772202
-1214.563110 519.638306 -780.790039
-920.638000 406.157349 -452.117340
-851.721191 581.537476 -432.438232
-974.455444 720.825012 -225.314865
-1006.598633 701.355469 -890.600586
-976.000244 649.783630 -932.064270
-1025.376221 849.892456 -774.039673
-1087.872314 808.390259 -795.781128
-773.906555 646.782227 -462.590088
-1129.394287 852.848694 -749.756958
-967.244385 495.030487 -402.113159
-1107.548584 820.625427 -768.769836
-1060.572021 626.624207 -861.609314
-1025.636963 717.635254 -884.250000
-905.887146 690.427246 -404.646118
-1035.738037 597.334900 -176.045731
-1094.005127 664.037964 -694.001404
-1199.304199 379.045715 -819.779663
-1133.087158 469.464417 -844.150085
-848.166504 736.809570 -54.451130
-903.710876 762.185852 -197.344849
-837.925476 752.480530 -432.540710
-828.817505 389.153717 -535.328064
-1049.205200 762.818298 -754.108215
-979.722351 382.467438 -376.252258
-1355.639893 968.010925 -633.889893
-1009.309448 678.215576 -214.615234
-782.506531 665.507690 -449.227173
-877.394897 465.833252 -443.722870
-1085.453491 558.421631 -838.610657
-1090.119507 778.272217 -794.654968
-1095.301636 503.140656 -862.879456
-989.861572 504.895447 -910.885071
-1023.290588 872.020386 -790.268921
-1228.676758 828.138367 -710.249329
-760.123535 624.116150 -487.524689
-1385.349487 649.542358 -664.243408
-781.986694 561.734009 -509.878510
-837.739929 529.678711 -468.441956
-889.059631 675.717957 4.156890
-940.044250 537.375000 -962.065674
-976.545227 506.504120 -910.188782
-867.111511 740.761169 -115.403992
-852.328979 727.575684 -53.477337
-812.499023 648.956055 -440.127960
-840.663086 383.556824 -491.157166
-756.076660 520.477234 -523.408875
-772.804443 727.139038 -479.704254
-874.112854 789.004333 -189.538132
-1019.806335 549.471375 -90.493042
-966.087830 662.774719 -181.762436
-1045.057373 516.539307 -341.119049
-1273.004150 841.013306 -639.723145
-943.844238 457.721527 -400.065796
-1247.051025 498.206116 -756.244751
-1214.021606 462.967499 -792.177795
-1009.113831 524.456116 -889.879822
-1062.995972 798.142517 -801.184326
-978.339783 856.807495 -888.372253
-1109.204468 465.036133 -881.339417
-809.042908 607.638245 -483.017029
-1017.632019 848.485840 -815.233704
-1020.593445 530.635864 -44.810699
-1251.359497 450.085480 -769.645386
-933.087402 504.194580 -966.059692
-1355.194946 937.891785 -592.480286
-1092.280518 537.282227 -171.971634
-863.726318 803.152161 -267.637726
-799.862427 486.722870 -513.860107
-1270.079712 597.508972 -702.715454
-734.575256 577.413025 -551.544250
-1164.409058 379.989655 -834.704468
-789.543396 476.707703 -509.899536
-881.042969 710.091003 -81.588188
-726.259277 561.475647 -568.342529
-936.545166 545.255005 -963.484131
-990.819336 565.399231 -726.678650
-1050.328979 788.391968 -816.180359
-1323.262695 463.131744 -717.035767
-845.436035 374.359192 -525.048889
-761.458862 481.059143 -544.803833
-1026.548096 734.741760 -886.831238
-993.278381 778.931152 -896.384399
-965.850220 621.839478 -112.095406
-851.958618 674.440491 -445.840942
-936.462463 624.083740 -388.822906
-1046.687134 603.021729 -858.413940
-837.512329 459.293701 -451.196594
-1227.323486 512.510864 -764.492310
-1058.296753 705.988953 -855.629944
-907.609802 319.157227 -472.836700
-1063.404541 877.539001 -807.941528
-896.149414 519.442017 -403.474854
-824.563049 398.866241 -525.394653
-1284.948120 568.446899 -695.135315
-1030.472046 598.402832 -163.018921
-1017.867188 615.876587 -163.898605
-1221.521851 373.113495 -778.746887
-1118.315308 517.877563 -849.562683
-826.654175 743.914490 -32.038860
-760.511292 656.512024 -484.647339
-1205.264282 516.412354 -792.942505
-832.391235 399.477386 -505.060486
-801.461609 615.520874 -486.083801
-966.515198 481.951569 -367.323578
-963.929688 494.919128 -957.846863
-935.026733 656.527771 -113.173500
-814.972107 773.260376 -83.174866
-1131.909546 655.367371 -797.826172
-956.902222 492.168793 -958.186768
-1006.386780 543.770142 25.840878
-1035.314941 516.534851 -861.774231
-965.036255 651.108643 -115.740509
-1126.261597 753.146790 -796.478821
-807.587219 484.637451 -468.720215
-983.736816 513.673584 -895.577332
-1092.412598 505.795471 -880.705139
-934.245605 659.758667 -84.749481
-905.134338 750.753601 -182.681488
-841.817566 507.977356 -456.076721
-765.462646 614.518616 -484.204712
-1234.488525 533.625488 -756.960999
-853.796875 737.913086 -69.558525
-1087.072021 861.496338 -778.265625
-1020.659790 597.679199 -351.406281
-1048.336426 487.770477 -909.779480
-1220.218384 887.735413 -724.638550
-739.680237 688.945801 -426.288422
-1140.303223 447.565796 -869.993469
-984.643494 628.750183 -918.061584
-825.127380 749.196594 -28.728823
-956.176147 559.915527 32.577736
-1107.971802 729.779724 -719.638916
-1082.754395 465.812073 -903.647339
-1327.729004 504.548309 -707.514160
-1025.783203 464.917511 -381.333893
-1015.201111 909.667175 -854.846008
-876.020508 622.157593 -416.220520
-882.001282 449.191467 -440.520844
-1054.598267 767.698975 -837.397705
-894.136169 398.989044 -443.302612
-992.690918 639.017761 -343.313202
-1341.556396 481.721832 -703.393799
-1065.618774 928.479004 -803.912292
-748.450684 528.011536 -551.137329
-1016.824707 565.929688 -732.287109
