ply
format ascii 1.0
element vertex 1379
property float x
property float y
property float z
end_header
-467.609589 -0.082099 1153.331421
-1058.702881 60.315166 960.351746
-310.328400 135.138489 1141.630249
-862.421448 114.181610 1268.308350
-532.334839 215.272430 998.759277
-1081.047119 -14.305978 947.652466
-556.049561 188.322906 984.461548
-979.433350 -88.880539 1166.956421
-270.084351 -9.460464 1150.106934
-260.703125 83.340050 1126.150391
-999.487793 -98.360268 1139.251953
-430.197906 -5.402614 1278.831421
-246.118652 -89.913559 1149.994385
-489.117920 -95.703720 1088.986084
-954.548096 154.954559 1243.452881
-1080.486938 28.228823 937.894104
-131.252319 0.026659 1105.765259
-964.171936 230.027023 1177.529785
-904.603577 -159.949707 1255.322144
-283.203217 65.461601 1146.943848
-560.231384 -78.748993 972.134705
-111.481323 133.099915 1102.050659
-579.955200 -171.388260 892.132263
-287.376923 -38.965580 1150.295410
-985.190186 -159.731323 1137.111694
-1000.202393 98.899551 1134.696777
-989.272217 124.410164 1160.522217
-135.170776 102.253471 1101.484741
-537.155334 151.896851 1000.375000
-983.330688 -18.647644 1064.747681
-1048.143433 -120.815422 972.997986
-942.199097 -169.412552 1218.144775
-596.393250 11.837646 860.380737
-956.986145 -25.775763 1119.743164
-328.370331 54.244930 1159.607300
-1018.459839 162.999847 1126.051270
-910.236938 60.455719 1259.103149
-614.600159 -41.924339 853.672058
-187.921463 153.102859 1112.940430
-90.076210 -35.873486 1100.745972
-940.787476 -177.283768 1199.239136
-999.097656 -76.118103 1104.159790
-198.945862 26.814030 1117.197021
-942.401062 304.057068 1270.900391
-571.995667 -115.764587 955.223083
-589.738098 80.596153 883.045837
-961.695129 -155.189850 1178.615234
-523.241150 -133.240784 1001.334595
-509.810730 -77.120644 1053.217651
-267.599670 -105.873741 1136.502686
-623.400635 61.525600 849.306274
-562.340759 20.337669 982.166443
-329.969025 -68.822136 1171.322632
-966.211853 -222.448257 1147.998657
-594.889038 45.131172 912.045288
-859.424011 83.087875 1300.588745
-141.911133 98.751930 1109.083008
-158.194199 -47.545559 1115.844116
-872.836548 95.573853 1432.426392
-145.280823 17.360703 1110.074829
-524.139893 69.208427 1035.654297
-552.409790 201.582748 984.119202
-1051.636841 -113.556931 1016.564636
-253.356094 82.955460 1133.214600
-954.349304 -322.634766 1150.029419
-1048.742432 -62.903725 1043.044189
-553.278992 89.115967 951.981995
-858.316711 99.351273 1263.267822
-507.820221 180.128998 1038.071899
-899.482178 198.667465 1237.442261
-292.923004 -110.763893 1150.062622
-570.521912 -68.334511 960.797729
-578.248291 199.358673 938.659119
-1021.218933 86.921768 1090.558350
-991.329651 -103.980476 1169.462524
-548.757813 -73.379608 962.036743
-242.452927 96.382141 1136.365234
-983.707642 137.463745 1184.818970
-958.659180 222.071228 1220.684937
-974.923401 110.604263 1207.010986
-936.941711 -196.172089 1198.073975
-243.381226 120.515762 1129.537231
-191.902191 -160.649750 1114.852783
-1040.582031 19.928982 1000.087341
-178.062317 72.010872 1113.702515
-638.693237 113.467018 874.924500
-489.517975 -192.217529 1094.516846
-621.917603 86.973839 847.986694
-459.068848 -21.256779 1171.851074
-534.882141 -124.500427 954.193115
-529.190735 158.726456 1007.735901
-659.863098 72.624878 859.272583
-649.137024 102.502533 858.098694
-456.223236 45.874321 1190.770630
-154.390762 93.732178 1109.947998
-956.698242 296.609314 1224.678955
-291.187408 108.772522 1151.881958
-181.401337 -156.852524 1111.633423
-630.640625 -79.183235 858.957764
-894.001221 134.930450 1232.300781
-1057.206177 -25.303324 992.766907
-233.851456 73.745262 1119.724121
-497.913452 -125.293068 1074.245361
-775.150208 -33.070721 1068.496338
-1060.900146 97.064957 993.344360
-951.122498 -316.377136 1127.562622
-735.210938 21.004997 1494.249023
-610.664856 75.820442 861.602051
-216.281204 -161.692017 1119.940796
-575.195129 193.362274 916.163696
-850.358459 33.153351 1413.207397
-1034.588135 91.241142 1058.562744
-943.642090 -25.867285 1125.088623
-267.409729 48.637196 1141.455811
-201.040329 -73.961967 1121.916382
-218.225876 -18.603968 1128.695923
-908.280884 -187.565475 1183.181885
-103.561676 2.884746 1097.205444
-278.443298 -121.087395 1148.533691
-267.492432 -109.787979 1135.427124
-566.210388 -109.457352 883.824219
-233.947556 -102.475571 1136.518066
-237.896271 -12.889391 1134.392822
-900.731445 266.049744 1202.191528
-226.894241 -7.631461 1125.996582
-491.004486 -143.102020 1050.444702
-268.098358 -63.309521 1146.564209
-979.035278 259.340546 1168.540283
-1035.303833 152.757614 1032.361816
-925.611816 52.027020 1232.519043
-527.247437 131.166977 1014.562927
-189.892578 89.985222 1126.593994
-499.936340 -125.693405 1138.895996
-1001.145386 194.695847 1151.113037
-979.632629 -150.110138 1177.858765
-598.915710 188.053741 921.691589
-78.205925 66.179314 1089.036011
-599.841980 196.243500 919.289978
-634.382874 55.695232 851.680542
-623.374268 60.398949 853.231445
-977.174988 -6.953780 1085.119873
-622.466553 146.811340 865.845581
-339.725616 -32.951302 1173.524780
-344.427795 -4.853662 1184.614868
-990.117615 -137.531921 1090.934570
-630.336243 29.640514 848.317871
-895.815796 161.751297 1230.294434
-578.563293 17.595337 876.365356
-288.818542 -128.435638 1150.678345
-56.942039 -0.338190 1105.388062
-566.764038 -53.292515 943.982483
-976.084473 180.611267 1185.730835
-458.305237 -141.907532 1188.161011
-774.410767 37.370838 1639.610474
-102.952736 140.341248 1120.807373
-460.797424 -9.748962 1156.037354
-872.293213 150.038757 1274.640259
-577.259888 84.082214 906.616821
-907.610291 208.574829 1305.816406
-241.512711 -130.354721 1136.474121
-940.391418 124.450020 1228.405640
-610.431213 -3.092323 855.349060
-330.899078 1.725187 1163.941284
-492.272614 69.855324 1085.124390
-1001.466492 119.420837 1163.044800
-126.532158 -22.425741 1102.096558
-213.207642 28.376019 1133.327881
-1044.844849 153.644714 1062.636963
-941.250427 233.764816 1206.429688
-520.439392 76.898193 1046.582764
-136.506866 94.309891 1102.331055
-252.582764 29.235882 1139.116089
-941.865662 331.553955 1258.758423
-902.101746 -287.646851 1301.773926
-650.930847 127.520569 865.823364
-892.808838 181.402878 1259.376709
-476.474091 -81.528671 1090.509644
-134.238708 33.573040 1110.264526
-834.098145 39.298985 1199.192139
-782.895813 155.283630 1584.641846
-262.306122 -6.721563 1131.043945
-944.039551 89.063354 1243.227783
-506.764435 36.668541 1115.585571
-971.681030 203.909988 1206.969116
-255.910645 -78.756760 1139.512695
-518.835327 -61.373070 996.887390
-999.425903 -45.571320 1081.409668
-878.072632 -70.484512 1231.671753
-956.383423 -167.488510 1185.866577
-940.069641 34.456490 1215.769409
-861.684631 25.360685 1355.247559
-585.585022 -75.890610 857.436584
-191.955933 185.758133 1107.397949
-985.309204 45.373375 1193.293579
-969.434387 113.781235 1194.987183
-264.845093 -51.889912 1150.941772
-868.295898 -193.994629 1117.816284
-859.443054 -75.678986 1206.087524
-950.046631 135.265579 1229.469482
-588.356873 -123.787468 874.999878
-976.717957 -283.937958 1113.188477
-495.951324 -121.174820 1042.572021
-1045.727417 -122.242767 976.534668
-258.603424 32.178551 1137.080444
-521.042908 32.358929 1027.875122
-1033.413330 -120.104683 1038.938965
-959.543640 123.294060 1225.760498
-843.651123 104.081779 1443.254883
-464.358093 -30.483917 1119.016846
-628.851990 -85.576164 846.324219
-952.794006 138.693619 1213.130249
-573.477478 0.514023 934.518066
-927.252747 213.042603 1224.211304
-993.685120 223.440262 1155.106201
-897.425781 -236.807007 1394.918091
-540.666931 -18.223423 988.117371
-110.683281 -138.284058 1106.029053
-248.814056 137.315613 1140.946655
-169.728577 163.154739 1113.509033
-637.770203 -91.836182 839.495667
-532.842773 -66.403084 995.255920
-801.736084 126.104019 1415.502563
-747.842773 74.410789 1605.009033
-567.235168 -156.199570 919.234924
-940.751282 -242.228699 1103.929565
-588.036560 -121.859428 898.538818
-338.360962 138.837753 1149.753052
-322.500824 -92.744675 1161.621094
-594.533569 116.957703 883.279541
-570.188049 -191.835785 894.262573
-513.089417 -123.276176 1038.851440
-260.126251 10.763727 1130.441040
-974.069580 174.528122 1190.654053
-81.078842 -41.491867 1099.150879
-154.549591 22.801470 1111.026611
-1081.510620 32.203312 950.836365
-884.937134 109.679893 1327.958130
-996.543823 0.024428 1024.507080
-1015.406799 52.437748 1132.997192
-935.960632 -274.321716 1128.386475
-579.671509 53.951412 933.616333
-560.051636 201.267151 1005.117310
-860.836243 50.835617 1399.314087
-816.887695 -73.497124 1277.876587
-966.085754 74.955307 1206.963379
-906.137024 -127.831497 1233.397705
-144.451019 125.410599 1110.917480
-214.457092 82.105873 1128.314209
-982.530945 256.146088 1195.921021
-981.313965 69.419273 1192.429199
-627.958374 24.415516 846.975647
-1060.388550 62.443195 1008.521301
-1057.937622 -37.837727 1007.822876
-887.549072 94.561203 1378.114136
-526.498352 6.245424 976.329224
-289.841827 11.673194 1138.601440
-315.317139 121.151260 1138.852661
-520.172791 106.756035 1033.467407
-83.400421 -26.845823 1113.119629
-545.738953 -37.038166 966.318604
-113.237396 148.866943 1108.986816
-1021.045166 182.987457 1103.363892
-842.408813 68.146751 1373.761963
-102.402954 84.933250 1098.101440
-498.305695 44.900928 1046.819458
-595.653564 -9.703322 907.108704
-981.556885 138.983963 1197.520264
-1040.237671 -87.326683 1022.070313
-894.426514 -57.612972 1249.033203
-526.207642 181.363510 1055.732788
-1075.142090 -3.505832 947.959106
-529.347717 -81.921814 1012.314697
-107.089188 55.747025 1106.302490
-996.676147 -136.685150 1154.463501
-869.007935 -127.640678 1316.018677
-929.836121 8.900465 1228.896973
-934.801819 240.673447 1219.773071
-577.168884 -111.692520 943.897644
-592.580872 79.872467 874.830261
-114.201225 -60.421116 1100.913086
-507.241089 -81.828232 1015.127197
-921.891174 -306.833344 1257.856567
-159.643524 -85.741409 1118.740356
-218.471390 111.804665 1131.822754
-1004.033142 113.262260 1142.111206
-1015.311646 -192.616791 1035.971558
-169.531189 36.892368 1119.087769
-977.819946 200.524399 1185.783936
-586.414307 -81.373489 867.942139
-223.453110 -169.471085 1129.726196
-539.013062 78.988533 1003.279602
-136.060043 121.998672 1106.895630
-893.582031 -220.559265 1329.294678
-879.206787 202.092346 1228.963745
-563.328247 -211.196045 907.774841
-1053.004883 -80.062187 987.691223
-884.074280 226.060547 1254.960571
-290.059265 -60.743431 1151.341431
-1001.884460 -147.602768 1071.485474
-922.116577 231.944809 1229.044800
-966.984558 -102.461388 1198.302979
-813.790894 -40.795464 1233.880249
-107.927719 61.233757 1094.829468
-565.694580 63.369526 933.452515
-142.389099 34.517670 1112.006592
-543.281006 172.085281 991.809937
-577.370728 137.633179 927.657532
-218.987091 -159.971817 1117.159668
-180.992508 138.385132 1114.614014
-605.513367 103.801506 863.818726
-133.101120 127.655556 1098.358887
-932.409851 114.700348 1228.689941
-790.874695 94.841980 1521.598145
-586.430542 -125.165466 911.304688
-499.334473 114.813019 1078.297607
-367.915100 84.104172 1200.685303
-167.476944 -52.796497 1126.487061
-996.266418 -54.327877 1125.508789
-882.352051 63.250580 1353.903564
-170.254517 45.495296 1120.182251
-494.245483 8.415433 1124.392822
-231.333450 14.274243 1130.404541
-1046.140747 -40.110165 1001.975830
-1007.125305 -40.000187 1112.299927
-163.191513 71.587830 1104.043701
-325.505463 -53.083496 1148.566040
-823.395935 134.060806 1438.883423
-152.262314 4.701379 1113.606934
-563.778015 77.569405 961.135498
-578.889404 -15.010912 902.226868
-884.564575 218.916046 1222.705078
-557.119324 125.592133 984.664368
-241.875626 115.632439 1130.279419
-904.058105 115.451447 1257.202637
-549.754822 -13.789773 928.469055
-313.324219 -182.383896 1151.193115
-908.512451 -252.551376 1247.402832
-1063.079956 -95.271828 974.056885
-185.679108 -96.909721 1118.188110
-330.654114 -96.155922 1158.774292
-997.812805 140.889847 1167.664551
-248.255310 64.090805 1135.805298
-290.502136 98.555962 1144.778809
-92.802841 97.994080 1092.994873
-1018.407349 -207.047577 1059.636841
-965.029968 32.240864 1215.932129
-975.362000 276.279358 1195.446167
-603.382874 46.400234 878.961304
-1059.429443 37.330441 964.230042
-955.715576 -262.774780 1120.679321
-1039.065186 -130.800781 1048.222900
-542.254944 -66.816597 933.745972
-1034.570190 135.692551 1028.221558
-909.792908 -82.224213 1184.785889
-288.294006 -146.583542 1142.165649
-988.681824 248.035553 1135.433472
-989.857788 261.544098 1157.572021
-926.518555 -75.292358 1151.208984
-1025.330322 94.335464 1103.482300
-953.617065 108.691872 1221.087158
-623.932983 -100.003464 832.827209
-932.687134 195.593506 1222.621094
-996.646301 39.614254 1100.512817
-793.270752 6.682278 1089.721069
-990.340515 194.438065 1173.489502
-966.836426 121.048203 1198.559326
-1037.497314 79.335770 1065.705322
-984.644653 2.816754 1133.567261
-217.818283 -14.152839 1134.500977
-644.908142 116.680374 849.504517
-902.179504 -202.985214 1146.794922
-649.499512 -37.085682 823.509216
-1001.378662 197.556152 1131.331787
-1028.402100 50.566036 1027.586304
-196.669296 -107.876091 1117.744263
-1010.704956 -69.507828 1098.205688
-983.782349 -150.715637 1133.926758
-293.245758 44.250687 1151.599365
-975.773254 188.612411 1188.781860
-894.602173 88.582092 1372.600464
-913.277710 -244.648575 1229.993774
-944.255432 4.705953 1145.988403
-333.933441 115.072510 1168.847412
-975.267395 33.683311 1180.228638
-571.323792 -55.569366 959.131714
-134.973175 -82.833725 1100.969238
-951.804565 78.582321 1250.165161
-1011.001831 11.407990 1023.880249
-176.231812 156.190735 1110.972412
-512.852966 8.206903 1037.029785
-1023.208008 -104.331657 1057.675537
-1010.905334 110.289772 1139.765015
-116.863319 -32.760132 1115.723999
-209.013245 -109.437706 1132.279053
-294.017761 107.280037 1142.201538
-165.448898 -89.779320 1120.444824
-616.826599 82.963379 853.054138
-928.208008 108.025558 1265.897217
-605.378723 115.849113 871.204346
-865.602417 29.578434 1217.208984
-146.183731 132.556381 1109.972412
-1024.423950 -43.074402 1083.888794
-254.481476 32.774822 1137.253418
-988.336243 157.801605 1189.622559
-521.860168 221.137543 995.269836
-901.918030 -238.301559 1139.756714
-950.578796 -179.946625 1162.216187
-980.998108 -274.013855 1134.033569
-77.454681 82.681656 1127.767334
-1015.131165 -56.509155 1032.409424
-256.447968 -197.788986 1144.983154
-58.427887 -90.513702 1093.805420
-196.512589 94.669273 1119.286743
-122.225082 57.112541 1096.738281
-784.764648 95.340622 1529.062378
-163.573563 -99.782143 1106.466919
-532.015198 112.001724 1002.586426
-145.084030 102.903885 1101.288818
-119.533875 80.408821 1091.186035
-836.193420 75.619080 1393.378662
-218.034912 28.881567 1128.258301
-967.508484 159.550049 1214.891846
-942.961121 -290.631683 1160.226074
-304.955872 94.332283 1156.597290
-259.351440 148.956024 1148.117554
-911.504761 20.240274 1240.244019
-578.687134 147.316895 928.251648
-1001.477722 72.458214 1166.589478
-1015.233948 -122.445023 1103.907593
-894.325684 74.827995 1373.976807
-1023.094971 -120.057526 1057.192993
-231.791153 135.248367 1133.987671
-334.962341 -53.422947 1174.912231
-979.877441 -221.885284 1133.114502
-636.991272 91.480583 841.200989
-522.277893 -121.661621 1016.444214
-511.481262 127.116066 1027.936768
-862.402893 79.130188 1332.372192
-281.485382 57.558079 1134.634644
-946.999146 -93.495651 1220.159790
-190.028381 -92.850288 1126.611450
-1052.346680 -50.584648 989.421021
-350.403412 94.042290 1158.404663
-110.029861 89.624985 1093.551514
-837.361572 -200.959091 1367.512207
-578.599365 -106.608963 865.749451
-95.252121 11.867008 1095.855591
-239.725037 -84.836494 1130.353149
-497.696320 -36.187366 1114.550781
-183.133240 -110.912376 1123.520752
-1047.611694 -60.448303 978.853699
-1037.493896 172.389648 1047.642456
-890.790405 -315.657318 1166.579346
-1012.398315 -28.226706 1060.091919
-607.953613 16.343996 840.806702
-993.086182 -15.230577 1098.072266
-883.737854 198.074844 1277.203003
-1042.874268 -79.383064 1024.695801
-343.302338 -165.419022 1165.371704
-956.762756 286.141602 1221.137939
-952.512329 -198.058243 1186.664673
-171.635147 -7.866278 1107.578857
-134.421600 -119.744980 1116.541260
-650.432556 -26.760416 830.487122
-254.930603 -142.336868 1131.899414
-134.174805 79.776527 1100.795166
-145.553162 118.466904 1094.808350
-555.195923 -6.002869 941.729736
-915.880615 -205.307312 1219.879883
-317.391724 -4.493126 1155.974731
-958.852844 105.728462 1208.723511
-222.771637 136.700516 1123.060181
-115.158539 22.781519 1111.267822
-114.087997 112.004982 1098.018799
-1010.176819 -192.920563 1047.149048
-1018.794128 -0.062680 986.432373
-603.202515 105.238220 904.248230
-1074.449341 69.781586 965.942383
-1074.229248 -59.653301 958.640076
-152.116226 126.792603 1112.201904
-511.351318 -125.901482 1082.883301
-965.575867 235.697647 1204.081665
-893.811096 95.721390 1292.002563
-974.567200 217.439346 1157.868042
-584.275452 -78.907021 910.884399
-202.007385 142.093201 1117.783691
-949.664001 -235.291138 1147.404053
-495.131561 15.782351 1107.034180
-127.899162 99.886162 1110.744995
-551.165710 141.653687 948.293823
-541.869019 60.782902 976.869080
-286.945953 -93.073326 1154.464600
-243.782608 41.088951 1137.298584
-1001.531921 -120.392914 1101.786987
-191.774124 35.181694 1124.740112
-919.903381 -30.670475 1056.452515
-484.557770 -82.080032 1073.265137
-605.851196 -197.250900 867.949768
-895.664917 -234.900299 1318.605957
-354.648193 -29.239113 1158.757446
-490.303741 -158.100769 1079.326050
-536.207886 97.551292 977.339478
-866.446533 65.019012 1258.545288
-955.973755 124.048233 1212.858521
-971.970032 66.698792 1192.285522
-1067.923340 -35.611984 959.798157
-924.577576 209.755661 1218.196533
-921.713989 -86.668678 1245.772949
-997.234558 98.097511 1115.873901
-494.618500 37.292629 1055.357666
-506.615784 -164.659851 1060.161377
-523.622620 -180.669693 986.653748
-542.261536 -154.588715 936.010925
-900.554749 182.874451 1317.884644
-616.004639 -94.896790 869.537659
-955.069397 257.232422 1233.074341
-1005.234314 49.202797 1155.571045
-90.908836 74.267982 1093.441040
-979.460815 142.845047 1205.252441
-631.759277 21.702082 841.519775
-451.520844 -275.989502 921.781311
-107.058517 -88.068848 1097.328003
-447.523407 2.179544 1193.256958
-115.298828 109.488007 1093.909302
-983.056335 30.318527 1164.188965
-886.290039 201.742050 1225.938110
-133.622757 -119.428703 1111.821655
-957.380188 -192.732727 1171.758057
-846.650574 -222.818329 1426.496582
-923.516235 -116.414703 1241.565308
-249.670731 -19.360907 1140.904785
-82.325691 105.309662 1096.533447
-514.398682 127.560654 1044.260010
-129.363022 26.568741 1113.238403
-1045.439941 -18.739784 1032.920410
-268.539490 56.774330 1145.182007
-555.539795 -42.894947 937.870911
-559.148926 -76.209526 897.820251
-530.128052 -27.117924 992.156677
-323.026550 23.853361 1169.286743
-576.135498 -164.693069 877.311462
-617.992126 62.312618 877.438232
-167.329025 160.572479 1105.989624
-917.296448 270.813446 1222.343872
-1053.725342 79.137947 1020.789307
-874.954712 42.549679 1283.387451
-964.958313 22.648554 1213.104858
-530.966248 -130.487610 1027.361328
-203.570770 -24.938972 1131.785522
-128.490753 -44.712959 1112.410156
-843.853638 -245.019485 1399.425171
-602.631409 154.960831 904.183411
-882.164307 93.345001 1294.248779
-1014.235107 195.104980 1119.699341
-975.478577 45.572636 1198.351807
-196.372299 5.894712 1123.438599
-505.684570 -198.122162 1035.362305
-578.460327 84.285934 925.608032
-1015.477905 218.578400 1137.657471
-913.236206 -245.429855 1137.565430
-299.839661 140.695862 1138.977417
-554.810913 132.171661 1005.320007
-597.769287 -2.833782 854.580811
-101.217224 41.326794 1091.793823
-960.694397 -215.076096 1184.653809
-1000.518127 87.911293 1134.541138
-594.378906 31.957148 865.764648
-338.340546 -40.378727 1176.434814
-93.108353 18.969917 1102.509644
-259.825226 65.444649 1147.663208
-535.675354 -160.070328 975.635132
-956.075623 181.853790 1230.838501
-577.876038 41.657253 947.140991
-599.114746 141.034592 902.789795
-993.894653 -141.503357 1120.942261
-543.656738 113.262032 975.295593
-531.619934 59.165230 1032.587158
-228.457077 -168.609375 1117.200317
-917.591003 -133.115860 1229.665771
-222.002716 69.745422 1129.300537
-589.529114 95.704788 927.157471
-570.318359 191.905487 964.518066
-970.342529 202.377289 1172.097046
-824.475586 -223.745224 1425.265869
-1000.289917 -253.372604 1088.125366
-587.484497 -61.307354 922.296326
-970.767395 -144.910141 1169.389282
-343.780579 -160.397903 1162.933105
-111.062958 3.286376 1112.052856
-933.669678 35.432869 1271.187134
-626.345947 52.107742 846.258667
-1052.800537 57.865967 993.624329
-758.400330 8.343048 1632.585449
-197.887573 -83.288254 1122.552856
-277.230133 -151.197067 1137.907104
-985.952515 259.162262 1160.313843
-94.057510 48.988060 1109.850952
-1033.440430 178.264435 1064.792236
-176.129211 -90.269745 1122.573730
-1061.609985 48.508244 997.999329
-587.005310 31.063848 906.196167
-1062.093994 -22.752031 980.213562
-329.984222 -71.487755 1170.370483
-841.580200 -168.314331 1423.485840
-562.566528 -27.441349 900.598022
-612.074402 -118.537704 872.063416
-950.991150 64.237305 1235.031494
-953.749756 255.806824 1205.702515
-940.914368 164.965851 1226.164673
-897.245361 164.806427 1223.158936
-254.802444 -36.676838 1142.934448
-504.077698 75.458862 1053.886597
-259.670776 -29.350409 1139.751831
-573.668640 101.431007 915.970093
-1070.940186 6.344318 959.706665
-290.936096 7.295705 1158.988647
-234.367950 -20.928230 1140.904053
-296.044006 37.614159 1154.696045
-132.854675 -6.936569 1123.632568
-537.593018 175.277908 1033.093018
-906.360107 -187.494843 1243.200195
-521.765320 -96.516777 1001.344788
-919.571777 -288.427704 1251.962158
-1038.547974 -60.739796 1024.310181
-611.909851 74.178909 856.872253
-319.125580 -56.106579 1163.484497
-297.085541 55.172009 1149.786133
-513.808838 26.596943 1036.850708
-1040.677368 -49.534676 993.311462
-231.800339 103.302162 1119.436157
-303.396393 -64.112053 1163.495728
-968.959106 124.853462 1210.940430
-1031.255737 95.434113 1032.341431
-1030.781494 73.390770 1057.385742
-809.856812 156.106079 1537.927612
-1054.580322 -21.319458 1024.507202
-257.712158 83.836403 1130.203857
-538.207092 -112.081245 982.464783
-75.859497 -22.911674 1108.408081
-935.734314 28.227503 1221.573486
-214.674911 -116.427528 1122.437256
-621.065491 66.572876 855.408936
-567.992676 57.773922 932.878906
-800.181763 8.814204 1241.513184
-988.777588 129.145416 1167.248779
-449.305054 -56.793743 1198.026733
-589.040771 -60.185722 882.305115
-251.634232 144.063751 1129.131470
-571.771912 -124.723763 937.885925
-632.763428 -68.018410 858.284790
-492.818268 101.971970 1128.007935
-1014.269348 -6.555788 1062.551880
-607.576294 -157.203751 865.181335
-309.077484 124.705872 1146.899780
-1013.100525 -205.312515 1068.099121
-941.709473 -212.310547 1163.106323
-643.807983 -29.970110 852.881226
-652.102722 98.404480 857.517944
-524.096252 -113.741112 1001.075989
-1060.842407 128.718933 1027.964111
-964.420166 128.888443 1220.455200
-524.583008 -15.698808 985.873718
-955.907410 -328.934143 1150.550659
-558.804016 -73.503906 930.703491
-522.374390 210.232651 976.826233
-154.415146 130.162933 1101.479004
-100.594490 -129.229050 1096.389526
-163.545151 62.736813 1105.414795
-578.743774 82.304138 889.399597
-85.318848 32.180000 1103.938354
-922.812988 296.230560 1283.643799
-513.833679 -94.547356 1043.877075
-1019.155090 159.941589 1054.651978
-907.325745 18.210825 1274.230347
-900.687866 230.055023 1248.105103
-250.842682 63.446301 1140.983765
-564.217224 68.176086 906.642273
-1075.758301 54.268822 985.610474
-301.856964 122.339233 1145.082275
-652.219116 121.283348 856.593262
-523.708618 -124.878426 1048.660767
-335.250824 -25.353436 1151.279297
-198.599503 91.299660 1115.236328
-909.055969 289.445068 1312.541504
-975.227844 -273.534119 1113.637817
-1067.184692 -44.185341 965.607300
-1016.264038 -55.831696 1063.996826
-970.444641 -33.504955 1135.871094
-861.040588 92.648003 1217.707520
-189.194321 1.163659 1111.017090
-89.960571 80.016472 1092.353516
-941.268860 -136.819199 1199.731323
-355.674011 1.992266 1153.476685
-298.764282 -51.126183 1158.714355
-461.341766 -25.554850 1166.040405
-582.095764 177.635483 919.793701
-875.621948 -144.853516 1418.013184
-503.427094 -55.583649 1100.750854
-617.578552 160.866394 871.899902
-164.737854 -95.412582 1122.159546
-555.376465 170.898773 962.757813
-975.218994 151.137833 1206.127930
-481.611145 103.629150 1144.521118
-1039.137573 153.249771 1068.168701
-262.037720 -118.044624 1143.170166
-1076.992432 53.365044 951.685608
-574.653320 -100.230057 888.858826
-937.168945 151.580246 1232.826660
-992.863220 114.732941 1153.099487
-580.386841 -122.604607 895.606567
-130.685791 -26.642000 1107.236328
-200.965439 -174.767868 1129.637451
-474.298676 40.216759 1173.340454
-553.875488 106.289398 953.417664
-978.575562 63.369972 1150.584229
-611.593262 -53.348003 875.094116
-656.454163 -38.212574 831.106506
-843.499329 102.491951 1429.324463
-211.018631 -128.074341 1135.825195
-989.135193 81.275330 1167.464355
-532.877258 118.102448 976.578125
-853.017212 101.223473 1432.941528
-538.359497 40.562366 976.885620
-928.852661 248.446838 1211.782104
-1004.248657 -211.470978 1058.157837
-135.241852 122.357925 1092.149902
-148.036301 40.168365 1109.095825
-559.591370 161.020279 961.344910
-1048.998047 150.880600 1061.458862
-1029.801514 206.263489 1090.880249
-1002.888000 -57.636517 1097.539917
-593.892578 -195.588760 880.927795
-905.721130 -201.421890 1285.406860
-899.863953 -289.432526 1148.535400
-964.927246 116.337173 1208.475586
-937.094238 105.041634 1222.419922
-181.431122 81.730782 1115.359253
-621.876465 67.553619 874.206055
-168.940079 139.706238 1110.209351
-582.622314 23.133230 871.931335
-987.090088 -164.107056 1092.183838
-499.872437 173.714859 1058.189087
-151.416748 -29.524113 1122.417725
-72.395378 -59.002750 1106.994751
-583.193848 24.977547 905.839661
-101.819603 -129.507767 1103.355103
-808.080200 115.454155 1483.370728
-996.548584 70.007301 1103.077393
-915.827576 286.181488 1282.891113
-1001.201599 -233.094498 1116.565063
-589.168640 66.412697 889.733521
-991.036682 217.251526 1160.064453
-921.507385 270.142609 1299.188354
-1011.064148 188.053909 1136.593384
-1024.395508 -18.523411 1017.603821
-967.330505 61.629250 1224.742432
-529.130737 99.168343 1049.742554
-995.480469 69.370697 1113.616577
-509.964905 57.208965 1071.927856
-789.175842 77.619385 1608.361694
-306.669037 168.350815 1154.388184
-878.989014 -210.631058 1323.185425
-581.182861 179.781799 926.133240
-1015.258972 171.173553 1064.184326
-521.146301 3.561641 1018.593811
-507.676971 -153.048325 1037.062500
-182.105652 -88.411201 1117.911377
-580.966797 142.439987 905.185608
-488.821960 56.306686 1096.037842
-609.054321 -65.950905 843.621765
-539.890808 89.369736 967.751709
-314.861542 -58.235214 1165.299316
-505.146301 -111.103172 1098.782349
-995.307434 -41.727085 1053.555664
-587.470398 92.889297 901.719788
-576.868774 144.147705 905.487915
-918.886047 -163.957779 1206.570435
-907.362000 222.487549 1245.034546
-970.511963 253.766769 1194.829956
-561.703369 -73.476685 934.000061
-75.282257 12.458033 1100.749390
-1019.936584 148.464996 1067.205933
-577.645386 121.614258 954.466125
-1030.886719 -159.557648 1031.088623
-211.707886 -159.288818 1121.540771
-1027.800659 83.094475 1073.114746
-195.235825 106.329117 1113.103271
-351.236206 -40.358589 1174.687622
-474.294708 -81.505974 1170.789063
-181.105164 81.707512 1106.768066
-971.595947 238.209091 1177.244873
-63.046787 -19.371258 1097.839478
-588.672852 113.993576 900.439514
-1002.896973 -18.665108 1062.287720
-967.291809 191.376709 1197.771362
-1054.543579 -70.887947 984.150574
-763.379395 -24.723724 1063.529541
-806.830444 108.958054 1476.540405
-145.597351 -127.072472 1102.874878
-572.163208 196.741043 944.302246
-539.067505 231.324387 982.558777
-242.148056 155.655777 1127.724976
-529.523743 -98.650848 967.348267
-590.794983 45.014614 866.825806
-897.152954 276.925598 1330.595581
-587.027039 -118.068954 878.692993
-303.348022 -98.704124 1154.164307
-508.880310 -198.498169 1072.726807
-537.495667 -86.059639 950.218750
-497.052826 109.884979 1111.764893
-543.087463 89.844551 1005.656677
-1044.572998 -92.373047 982.687927
-1026.685059 -27.931562 1046.696533
-973.668945 170.883499 1198.192139
-991.436279 -8.862525 1097.685547
-395.286530 -20.737724 1271.570923
-459.680267 73.822800 1147.827393
-956.120117 18.726793 1187.125000
-943.470947 -202.594986 1202.300415
-967.212036 -326.733215 1126.024170
-904.683716 103.694626 1267.430054
-220.485504 147.334503 1128.161499
-985.780945 105.091507 1133.104980
-965.507202 -185.744705 1136.017700
-905.308350 -67.802284 1252.282104
-552.765137 196.612885 969.345459
-277.695770 -93.644966 1145.647827
-94.399635 -111.268913 1094.520996
-912.990601 21.863708 1242.096069
-1014.931458 -96.157669 1102.907471
-551.593750 -73.748817 913.061707
-442.768036 -154.420853 1148.779175
-580.376831 90.261925 928.368286
-968.310181 -54.837147 1092.915771
-780.075439 42.707684 1457.408569
-592.267334 -61.296661 889.204407
-966.307922 227.624359 1194.859497
-489.705536 -74.233246 1058.651489
-125.571945 -65.487289 1099.651123
-997.719849 -165.873413 1108.945801
-627.459900 128.063522 871.454956
-950.776855 286.056671 1213.246704
-861.494080 93.105019 1389.874634
-937.442200 59.903259 1254.961548
-1029.018311 176.933197 1074.408936
-352.455200 -49.692669 1176.280396
-963.730042 184.606003 1184.412109
-119.190392 90.771835 1109.068115
-1040.538086 89.779274 1043.864746
-825.755981 153.219162 1538.367310
-310.842560 71.824226 1157.103516
-319.691284 165.734818 1146.850830
-175.067062 115.946449 1114.227905
-873.802429 -100.136177 1187.222290
-583.770325 -86.576584 881.435852
-214.986725 79.108498 1124.667603
-1028.050171 -151.588303 1042.054321
-907.239624 -237.801956 1276.218140
-558.367859 102.910194 960.688293
-571.225464 166.587814 936.760803
-894.884338 143.609451 1197.687378
-955.842651 -188.467010 1190.090942
-610.291138 125.066772 869.221985
-523.271851 -89.043320 1006.079773
-615.482971 184.298950 918.001648
-1015.787781 188.055542 1123.694336
-242.367950 -134.072525 1125.915649
-255.565842 130.077606 1122.378418
-257.244476 92.742622 1130.057373
-220.915024 21.644238 1126.254761
-555.895691 -47.171913 932.988159
-868.588562 -38.589355 1104.025269
-980.681702 266.912079 1202.301636
-78.668159 81.694458 1091.472046
-615.270264 -66.634895 845.364990
-938.674805 -15.708774 1206.971436
-918.233643 -177.091782 1204.208496
-479.018921 -39.188591 1092.167236
-880.283508 68.020439 1385.088623
-900.855469 1.320089 1252.724121
-155.259796 53.288841 1104.547485
-549.057068 11.047143 936.302124
-531.477356 209.878891 1018.153809
-1063.490601 -65.528595 965.036377
-1050.414185 -91.846039 1026.423706
-583.222290 -50.122890 925.106445
-1023.240723 -54.116283 1097.895386
-981.887085 -11.177217 1088.168091
-613.067871 50.944866 865.120483
-643.098389 -105.711021 850.931152
-266.149078 -75.720299 1142.216919
-639.471130 111.282990 845.330505
-1065.836182 48.930611 999.408691
-979.543823 -237.005386 1125.058105
-919.239136 45.184410 1226.636108
-923.872925 208.848587 1247.107056
-645.518372 47.414753 820.264954
-164.216705 120.249374 1112.651489
-896.155396 240.147415 1219.992676
-230.455994 -41.272594 1122.858276
-994.180542 -201.168518 1100.612915
-921.109680 -291.252350 1276.014404
-512.625732 -28.506521 1048.627686
-78.586113 -20.829639 1096.954102
-603.232300 53.727673 897.855957
-616.700073 113.560127 858.076233
-330.923706 135.715942 1167.068604
-528.212769 -109.240532 1043.961182
-298.439087 -56.142559 1153.565796
-902.661682 0.287472 1042.046875
-522.315491 -196.143234 1033.920044
-217.060822 -33.822071 1120.517456
-946.088379 98.439171 1206.846436
-1074.730957 29.657366 988.743958
-969.175476 240.392563 1164.773682
-572.047058 -105.913734 908.595398
-606.634399 33.649178 890.201904
-1023.680603 158.222763 1109.156250
-930.771729 12.923423 1051.473389
-206.142365 154.619553 1116.957886
-988.376770 -277.152435 1122.665039
-250.314011 -107.571945 1130.415039
-264.787964 -177.176895 1128.950684
-892.510071 202.687164 1330.160400
-1051.129883 -47.741459 996.764160
-947.116394 274.404266 1258.147461
-152.594467 133.262909 1100.904907
-252.001755 -117.237000 1143.261963
-647.579468 -12.688894 839.430786
-574.685852 -65.347725 909.007385
-550.657471 173.167282 1002.073425
-1033.212036 187.822006 1096.195313
-280.539337 -66.013565 1157.799927
-926.758911 -2.127131 1201.337769
-481.146790 48.118412 1098.979370
-605.004150 125.220566 880.486694
-462.550415 -184.564789 1153.423096
-546.988586 87.751808 1008.542603
-284.378357 68.642685 1155.631714
-569.071716 101.280594 972.501770
-1056.518555 65.845528 995.964294
-523.392456 -156.826660 993.869690
-973.801331 191.316910 1207.972046
-939.740234 19.262636 1196.826782
-248.098160 -155.638062 1123.987061
-913.875854 -180.099777 1214.431519
-608.720215 -44.489761 862.747009
-570.654663 201.377701 963.433960
-133.677994 -14.734746 1111.120728
-1045.851440 -42.490036 1044.250244
-1004.793396 -181.127106 1055.078247
-640.180481 -99.551315 839.080627
-854.862000 92.758812 1403.884033
-920.496155 153.422546 1240.121704
-323.755798 73.727127 1148.165405
-1020.538818 44.493896 1028.812744
-905.428040 -262.395264 1126.027466
-1002.369385 -182.697556 1096.734253
-559.394897 104.954796 967.144531
-569.763672 -57.740688 909.492310
-1043.412476 7.326227 1002.536438
-90.884949 115.266113 1103.940430
-224.000076 -86.972862 1120.040649
-890.306641 153.721146 1269.292725
-524.709900 -7.745009 1009.202576
-282.451752 121.264305 1136.313232
-816.039124 27.770668 1445.321167
-611.993103 -67.043846 858.684692
-870.183105 -239.748093 1395.347534
-496.904846 -60.437370 1079.335938
-963.353027 102.033234 1227.578369
-909.854309 -228.173050 1223.968262
-1054.471802 117.265999 1019.803711
-551.930786 138.786957 969.430481
-996.394958 -209.888351 1107.608521
-624.204529 30.570148 841.490479
-560.587585 -52.756245 928.539124
-883.820251 16.265791 1241.085693
-492.588135 59.588810 1062.399536
-471.243042 105.976761 1191.314941
-966.502197 64.962891 1223.947266
-944.186829 228.678452 1217.784546
-529.497864 -9.519878 998.343933
-313.098969 140.418686 1159.223145
-757.726074 -19.488413 1081.926880
-309.409607 85.779320 1143.337036
-242.795197 84.466446 1134.076782
-1014.094360 246.415833 1142.038330
-1036.767456 -115.545128 1029.750244
-941.335938 -233.683044 1156.603149
-498.876587 69.515640 1066.641479
-511.032959 206.449524 995.824402
-1007.219421 119.503593 1151.231567
-1006.865601 20.847151 1033.023560
-556.538574 4.601901 995.685974
-195.076569 135.939713 1105.928345
-593.056458 152.206512 904.484863
-308.777771 -81.979088 1158.686646
-869.358337 -82.127052 1190.357422
-566.594360 62.106560 909.096252
-609.325195 75.951645 864.880005
-893.170288 85.981667 1269.260620
-208.475723 -117.383102 1127.485962
-1030.434326 -161.164978 1027.724243
-76.138718 -12.541147 1095.941895
-79.470581 -36.955219 1129.113159
-986.456970 128.974152 1132.426147
-1051.811768 135.394897 1036.116699
-944.068970 254.362686 1227.806885
-354.978668 39.637688 1153.850708
-490.057800 143.088867 1135.354614
-897.248352 -259.390778 1316.229614
-1008.722900 -124.848495 1049.503418
-878.043884 171.611481 1318.316528
-150.569305 1.226574 1106.774658
-580.279297 -95.777237 897.488403
-981.309082 109.031128 1178.154053
-111.215973 -87.179298 1096.599487
-961.790710 290.567444 1220.772705
-175.633575 -8.064115 1111.088989
-323.617615 -16.345778 1148.450562
-570.417297 136.528793 933.211487
-97.981232 18.491587 1095.212158
-1001.387329 -186.874008 1087.534912
-931.661743 -177.279526 1213.884521
-990.883423 63.944366 1113.039917
-502.375488 -148.345703 1081.779541
-1052.298096 66.060738 1044.944702
-867.789124 -155.089966 1211.005615
-832.522766 48.473782 1394.746338
-1054.407959 -51.239380 964.833618
-530.486145 -28.253378 971.114624
-564.909424 101.837959 946.149170
-906.160034 -221.016678 1274.199219
-332.346771 -90.254639 1151.563965
-161.619629 88.872025 1109.030762
-212.179733 -33.169907 1119.714722
-889.227966 94.834732 1248.216431
-923.651367 265.482239 1243.267334
-601.846191 31.229662 892.058777
-879.791138 128.490555 1356.856689
-1025.112915 -62.795574 1066.146118
-974.770508 -34.249493 1124.112549
-484.217010 104.272354 1105.184082
-1038.658813 -142.727203 1069.155762
-995.700317 54.735065 1107.418701
-916.375610 6.029732 1280.106323
-1040.327148 153.359848 1043.717041
-220.070770 118.293480 1125.968872
-988.673645 -198.307114 1125.022705
-556.070068 -54.481956 912.247742
-1039.971680 -91.924629 1030.171509
-793.654297 160.310883 1533.304688
-542.673706 96.317787 961.958618
-961.829285 -121.769707 1182.450195
-123.330894 -40.569576 1108.185913
-970.340027 -315.975037 1146.272827
-588.077148 17.452591 888.237671
-912.762207 -26.055307 1211.739868
-517.350586 161.788391 1040.609253
-505.607269 84.267586 1040.735840
-758.441223 113.243172 1424.380005
-495.972260 12.653255 1073.792847
-1049.755249 -65.541679 973.944458
-548.466797 -170.062866 955.265869
-514.856873 172.436646 1049.712036
-977.614441 -251.959442 1137.570679
-256.171417 -10.607004 1142.275391
-176.298416 84.812271 1113.345459
-751.393921 68.149803 1608.033325
-245.090866 132.076111 1128.409058
-271.081451 103.693741 1142.622681
-917.988892 297.664948 1257.405884
-101.319221 -111.401855 1100.681396
-544.656860 77.687378 978.644043
-243.581314 119.024719 1127.334106
-860.612732 92.193565 1385.842163
-991.720276 49.080013 1179.351318
-489.480743 98.861938 1109.295410
-1049.309570 112.194588 1049.956299
-963.104980 240.612885 1193.776855
-556.987488 144.241882 937.774719
-596.423035 -10.036838 869.125854
-1042.059448 -41.409412 1024.182617
-167.063644 88.523415 1114.473877
-293.575714 -16.749691 1164.627075
-458.857513 -25.850592 1186.619019
-216.371811 49.552948 1123.082886
-182.807556 87.060585 1114.641602
-564.015564 12.003745 955.849243
-848.909973 28.342047 1290.081421
-1043.253296 116.884109 1055.977783
-180.521194 -124.923775 1120.385742
-1016.802673 -115.560417 1073.775024
-145.852722 -19.379992 1112.589355
-317.300598 56.750114 1168.147827
-606.530212 -171.969833 860.346802
-496.328461 -75.954414 1096.099365
-871.346069 77.162483 1351.466064
-1078.805664 -21.275940 951.732117
-908.614929 -114.177986 1212.114014
-928.202271 -8.770873 1218.763184
-1042.517456 63.228504 1035.947876
-953.632080 105.453407 1232.255981
-548.125732 -167.087341 951.198914
-490.534973 82.092865 1131.777466
-984.703125 191.447708 1173.800415
-1014.944275 -201.640747 1035.830566
-941.189087 -235.015121 1156.733643
-874.137146 51.946644 1286.729126
-1045.952271 -104.740074 1000.942505
-944.093567 140.266434 1223.135010
-636.920532 -126.132866 850.588745
-317.613739 -7.046419 1163.765137
-187.789536 -9.608958 1120.090698
-633.218994 19.799990 844.217773
-573.796387 45.942425 918.986755
-543.676636 -125.170067 953.835815
-590.759033 -12.812850 917.477234
-535.994507 135.983231 976.433594
-516.297485 -40.424873 1046.187012
-972.065735 64.738525 1194.653687
-861.161499 41.743454 1267.839111
-286.925842 165.675797 1154.384644
-536.524292 -152.873688 977.598145
-1043.045898 41.401676 1008.243347
-498.524414 33.102066 1094.808472
-640.936523 -43.157040 827.501709
-902.889160 193.319168 1291.235352
-581.398499 102.163338 889.862183
-991.717102 208.893738 1159.170898
-594.155762 -94.719391 850.190430
-604.707275 -69.120071 889.196350
-534.549194 -53.081764 984.447388
-323.291870 -62.481316 1147.364014
-991.912415 243.412201 1176.785400
-1042.357544 -144.398163 1038.941406
-906.452942 -125.380798 1232.800171
-570.884766 -26.084616 960.821411
-658.404907 161.466858 898.729675
-585.540710 -143.688965 926.901489
-930.052063 41.559044 1230.365845
-969.833923 -93.353920 1172.725708
-141.605591 92.629822 1095.627686
-516.393127 152.934921 1075.378540
-1081.815063 13.532404 938.240479
-970.617920 245.482178 1195.183105
-468.946960 4.587135 1210.004395
-788.981934 -33.724323 1259.204346
-544.603516 -207.334412 953.391235
-113.076363 -37.095028 1123.349609
-360.758240 26.187311 1163.155273
-933.729126 12.603888 1220.568237
-517.923401 -39.284222 1022.640381
-935.883057 253.666534 1248.809082
-572.042419 29.166990 917.836670
-973.248779 176.882584 1190.941650
-978.690979 -277.863495 1098.853882
-1059.036377 -54.155247 984.415833
-558.284790 -91.566086 974.709167
-915.704102 190.977203 1225.333984
-206.200302 -80.554977 1127.678833
-491.580261 -65.169228 1059.788574
-580.774353 -161.946503 892.584106
-937.474426 -183.493866 1179.845093
-628.703003 -157.551315 846.358337
-996.622314 97.182213 1158.806030
-303.366425 105.384071 1150.298096
-1039.589233 58.813625 1047.522705
-895.110779 72.485046 1244.090942
-464.602295 42.549587 1207.621948
-1050.167969 147.446640 1050.107544
-887.428772 63.896420 1327.639648
-201.018784 -75.203522 1131.016235
-279.614716 26.078918 1149.740601
-1019.046814 62.895588 1047.301758
-64.491859 27.697504 1107.185425
-473.157196 -156.432877 1086.571533
-289.777008 91.835136 1150.114868
-995.005920 250.431381 1154.092529
-105.971123 -158.076309 1100.173096
-973.954041 162.889771 1209.121948
-168.091476 -64.385826 1112.115967
-514.564697 48.581955 1017.853027
-534.457825 198.688995 1008.763245
-214.256226 -133.203659 1125.885498
-960.563782 110.406006 1213.318604
-964.387024 167.481354 1216.883545
-970.809814 263.212585 1206.677246
-323.397278 157.697296 1192.492432
-757.369202 -156.050385 1197.861816
-1066.818848 -47.882988 930.009338
-944.680908 102.772331 1251.496582
-520.159119 137.460342 1033.604126
-535.643311 5.522507 1002.819885
-543.319458 176.556656 1020.236877
-961.051880 -123.959824 1217.949219
-572.015381 109.605484 903.084778
-538.503601 27.893555 980.356262
-230.808731 136.485855 1126.773438
-65.715401 -71.015411 1126.630859
-497.622314 96.618683 1051.559937
-1009.342163 -91.164246 1117.014648
-1047.444458 -43.425800 1012.340088
-76.326317 76.391937 1113.911255
-969.722473 1.665290 1001.326294
-337.689423 -26.602674 1183.104492
-180.733780 -1.715197 1122.705200
-458.530060 272.194794 893.331421
-563.296021 -49.623386 932.645203
-533.186523 75.528084 995.376160
-223.915344 -82.238144 1138.099487
-983.967102 156.965714 1185.076904
-996.365112 33.534824 1101.083374
-1075.396973 58.996479 964.108948
-893.163513 -218.927811 1327.859619
-606.008179 194.635284 903.609558
-833.245178 47.573280 1212.347534
-318.538177 42.116817 1164.717529
-497.640228 108.602325 1115.433716
-453.693817 -109.548340 1180.617676
-586.574585 -65.756355 905.089478
-601.684937 -109.413284 865.609558
-621.475769 -133.647568 853.442322
-1023.983887 170.625992 1111.839111
-594.340820 -82.671692 867.457703
-1044.925415 -47.484852 1014.080017
-529.729370 107.371964 1006.167114
-112.991333 -6.797480 1102.977661
-554.512146 147.401794 990.071289
-602.281006 42.722458 898.536316
-249.178497 3.130119 1145.027832
-969.757813 215.007935 1190.859131
-522.669434 90.159019 1053.854736
-542.710999 -106.911964 958.644409
-325.095001 245.572998 1021.359802
-931.304138 147.476807 1270.057739
-631.433655 82.915237 840.116455
-888.146606 -171.254654 1342.818481
-346.283447 -14.458796 1160.753784
-992.837769 176.222549 1149.908203
-263.760345 156.091202 1129.687012
-773.765564 97.187256 1551.280640
-225.918701 -70.358269 1127.483643
-1046.919678 62.840984 1024.228882
-460.807495 -5.489761 1169.016724
-343.063446 -53.264305 1183.046631
-605.036682 -54.438663 845.717834
-1068.132568 97.111267 1001.041748
-883.357422 123.325569 1383.718872
-912.515137 277.291962 1280.460815
-952.048096 213.669464 1190.872070
-950.123901 169.274704 1243.732300
-191.065414 8.548162 1116.204590
-1022.922546 -165.447266 1053.998535
-973.949158 14.148886 1060.880371
-518.016357 -93.405220 1034.225708
-151.896744 68.133087 1109.997925
-588.618774 115.568169 915.593140
-488.070923 -119.054245 1131.557007
-1031.335571 46.115097 1012.983276
-938.001526 39.625782 1254.348389
-1030.097534 38.954235 1060.267456
-1031.126099 198.873688 1096.772705
-1066.590454 -27.086020 968.217102
-1069.293457 -52.297298 931.832397
-179.578720 38.767498 1123.310059
-233.341049 10.501407 1122.385254
-1062.508301 -3.485412 979.358459
-147.429840 34.978764 1103.662964
-171.294983 -121.882141 1111.577637
-1005.977173 98.910912 1116.853027
-131.182343 25.969870 1105.484741
-618.304016 -18.411516 823.499878
-359.679718 121.108246 1187.015869
-943.027710 36.695709 1266.601929
-199.696198 153.509415 1113.668213
-914.070801 -277.436707 1218.475586
-101.927490 20.067469 1112.257324
-885.184631 82.087517 1241.217041
-1031.677612 55.358879 1053.669312
-1065.188477 16.495394 989.101501
-761.249756 27.212370 1549.696411
-974.652771 -206.129349 1127.468872
-117.171806 25.815477 1109.664185
-984.163574 -205.359756 1128.569458
-499.153473 -21.667608 1113.624634
-1042.578979 139.273849 1063.789063
-872.721558 163.360138 1216.237671
-209.079895 158.725647 1116.985962
-509.122925 80.404274 1095.987305
-485.329254 -47.263451 1147.005493
-272.518829 162.583649 1154.375000
-969.597656 129.070251 1163.666016
-126.515312 138.410461 1108.716064
-1038.450806 38.625011 979.977783
-155.906784 -53.473648 1110.483887
-591.255005 -84.989273 855.523071
-549.772339 -8.385832 951.920837
-301.591827 110.949692 1154.032227
-984.332458 -178.336395 1139.039917
-186.269989 63.100704 1129.171875
-1024.402100 -155.942490 1057.034302
-942.462585 276.000275 1255.615601
-214.323990 104.637070 1126.466064
-154.244614 -26.768358 1109.315552
-183.184326 126.384750 1109.358643
-932.996704 171.276215 1233.851929
-639.399780 147.578781 888.245911
-242.334808 -153.582748 1127.517090
-967.605591 210.250732 1198.312134
-568.575378 -67.169701 881.819946
-1018.640564 51.530945 1022.527954
-140.983871 -9.979088 1102.129639
-309.291229 -70.467674 1154.230835
-90.136398 -20.517021 1118.185425
-232.702789 -60.398071 1129.224243
-579.488342 -157.150787 872.832458
-969.008911 -163.848434 1186.396240
-556.657654 118.096191 929.614380
-967.734436 31.218025 1199.964233
-984.011414 198.974731 1194.192383
-471.431580 80.685463 1158.124512
-637.861206 156.748596 897.521179
-916.356873 -124.166031 1233.167847
-986.568604 111.749588 1125.911987
-552.620728 -47.280354 944.804138
-1024.306152 -8.050899 1001.075378
-239.693878 -130.427689 1130.671265
-465.297729 -158.572098 1182.117310
-369.007690 45.245579 1196.915649
-586.030884 185.218628 916.623108
-135.453033 33.319035 1112.202148
-318.006958 136.050766 1150.098877
-190.756714 121.645157 1118.210205
-330.526733 70.280678 1153.034912
-554.528320 163.278061 992.568176
-323.549896 -25.580635 1148.115723
-173.152161 -94.541588 1123.548340
-144.849777 -83.742165 1102.494995
-903.856995 -264.193756 1297.567505
-511.748596 -153.343155 1036.034424
-562.872742 94.018837 933.326660
-855.421814 166.394470 1188.819946
-930.102661 -61.409557 1231.878784
-1047.172607 -72.059654 1029.406982
-141.114426 7.632027 1104.149536
-960.810791 -274.704529 1128.138306
-328.605682 130.324448 1152.894287
-548.987305 -152.129776 955.009094
-994.215820 246.029373 1155.160889
-80.560097 42.869896 1087.248413
-542.696411 -59.879459 965.976929
-1040.995728 98.254883 1003.332336
-947.793274 99.072998 1221.620728
-944.198792 40.778938 1209.731445
-951.191345 66.881180 1224.610718
-609.765015 -103.741211 857.385925
-129.422516 138.654053 1099.719849
-869.501038 -158.735184 1426.654297
-180.679138 27.988558 1108.090820
-1048.334106 -31.731779 1003.744751
-1036.365479 134.765015 1067.245117
-588.859314 124.431725 919.476563
-238.044617 157.037277 1112.393921
-960.103210 -232.871811 1137.840088
-546.779053 166.521835 982.066833
-561.979858 -103.304741 913.650513
-995.996033 240.688690 1178.259399
-563.332214 -76.133232 922.289734
-896.403687 156.128693 1212.716797
-943.259338 -56.207649 1212.577271
-595.614624 -117.390549 879.514587
-227.484482 3.562136 1132.792603
-928.115723 296.602966 1272.499268
-234.877899 -27.189138 1141.732788
-957.255798 -245.758301 1136.921875
-838.683838 84.604485 1439.840332
-1022.877319 176.722351 1048.073120
