ply
format ascii 1.0
element vertex 1371
property float x
property float y
property float z
end_header
140.070236 -1331.669556 618.252014
55.146889 -1429.099121 501.547302
119.619164 -1030.414429 207.886566
226.314774 -974.234924 337.684540
380.628937 -1339.680420 591.356750
102.608078 -1346.952148 596.309692
446.086121 -1086.409546 -68.574051
336.391418 -982.663818 306.929596
188.348679 -1450.094971 409.189606
339.157318 -961.045044 334.785736
111.187050 -1365.281738 380.665405
306.013733 -1231.189209 32.105721
153.771530 -1125.191650 108.656487
402.827240 -1110.312744 -80.614883
305.536804 -1121.656860 -146.912308
275.249084 -1156.111206 -100.148781
238.299377 -1199.664185 88.617470
419.493713 -1349.844360 604.315979
350.144714 -978.783447 294.314789
192.452240 -1421.948608 516.093689
311.151978 -1111.863159 -137.123749
269.842072 -1297.969238 632.422241
206.481888 -1269.614746 690.213013
117.495956 -1451.549927 416.288239
346.312500 -1132.501099 -104.757080
506.735107 -1053.026855 -57.255821
219.764145 -1060.859619 216.619522
510.847961 -1344.011108 594.341797
114.358444 -1006.576538 282.767395
506.819366 -1374.694824 572.171875
486.798401 -1002.945435 -137.183807
381.753876 -1005.912476 279.352539
465.257050 -1445.295044 470.642426
447.507782 -1132.849609 161.963623
293.406891 -1361.758545 589.104431
563.834961 -1408.663940 520.554077
366.314911 -1032.658936 269.582520
239.209259 -1259.334351 494.614319
246.387207 -1267.682129 679.607544
570.575867 -1397.742432 503.861481
352.931000 -1066.258911 -188.149139
376.343384 -986.932678 309.191864
317.114044 -1046.556152 220.475662
418.093811 -1150.077881 121.831757
180.094879 -1084.028076 169.308731
163.600372 -1474.744141 425.861755
68.298531 -1433.684326 448.550690
217.954865 -1271.218018 563.340820
393.555176 -1064.692017 224.581970
70.107491 -1404.633545 519.473083
308.520294 -998.826294 281.058319
314.220154 -967.884216 317.259155
184.512390 -1281.934692 677.805664
28.640623 -1487.984009 395.932098
450.989105 -1326.998779 646.306580
126.790520 -1265.263184 671.242065
337.651123 -1420.784180 346.625854
201.146347 -1018.499573 227.367462
158.854614 -1011.450256 275.009430
520.991638 -867.694641 130.514587
353.240570 -1274.130737 665.164490
247.775116 -948.985596 342.205505
365.051636 -1318.242798 646.855347
364.873077 -1208.868896 80.282372
272.413361 -1043.661133 251.323318
339.100189 -957.629883 352.999451
36.746239 -1486.030151 359.977997
361.315613 -1038.718872 -234.118576
134.830490 -1405.112061 528.331177
230.510101 -1127.184082 -170.978577
483.710663 -1177.162231 11.417591
444.737427 -1054.266235 -96.285065
15.120474 -1464.154419 449.207001
187.949631 -1445.009155 460.052429
481.334564 -1096.914551 11.384233
251.102493 -1136.277100 -164.166229
376.906372 -1067.139404 189.219879
422.765869 -970.608765 -251.492462
115.626884 -1182.702026 78.417702
275.696136 -967.774597 333.958527
307.158417 -1396.306030 551.869141
135.183182 -1035.155396 224.414551
445.280884 -1109.830688 181.830276
167.957626 -1254.343994 674.824463
380.341156 -1382.165527 471.583679
278.354889 -1395.473145 532.618652
401.119690 -1330.905151 622.811462
393.776520 -1504.591553 440.004608
335.688568 -1010.402771 -296.443390
369.963715 -1012.481140 -239.746658
486.182190 -981.311646 -214.577606
78.163010 -1025.317871 290.015076
202.834396 -1049.740234 208.540802
5.957416 -1448.614990 414.828461
428.437347 -999.257019 224.740540
277.783966 -1151.948853 -126.312134
262.099609 -1094.912598 165.293579
231.532928 -1021.536377 269.831268
8.956568 -1456.014526 405.689819
257.459564 -1179.456421 86.803337
449.434845 -1334.350464 640.746399
345.590454 -1371.292480 408.008820
241.409958 -1137.381958 -171.477188
430.382782 -1345.683472 611.852417
551.219910 -1389.916626 577.480103
124.442383 -1022.090393 241.712936
433.192352 -1144.703857 -21.692822
435.819214 -1390.940552 528.715454
94.799202 -1278.262939 650.433899
521.782959 -1335.736572 606.169373
462.318237 -989.787292 -209.278061
387.271545 -1347.201782 605.930542
96.159317 -1449.907227 463.045166
114.125343 -1315.314453 612.541199
205.225189 -1211.081177 41.710186
394.975250 -1107.713135 -72.772758
307.954803 -1319.994629 616.100098
295.890076 -1417.989990 457.489044
414.034363 -1100.093750 165.619080
324.627716 -1062.904785 -221.472977
84.545494 -1029.844727 220.497391
482.705719 -1121.890991 -8.772008
434.810577 -1646.195068 262.467682
341.332458 -1105.117065 151.579407
343.653076 -1104.848389 -128.550400
204.040070 -1470.415405 410.243225
34.667278 -1402.604736 517.508911
414.551361 -1370.105103 586.479065
493.355621 -1122.777710 4.719864
108.005753 -1357.835938 568.762329
422.504456 -991.036011 -263.106995
335.917389 -1145.473999 121.240273
198.758301 -1208.046997 44.152512
491.240906 -1021.318665 -123.630821
347.604309 -996.689697 278.032196
111.329391 -1015.102295 236.850800
230.708786 -1287.067383 646.375000
129.805283 -1260.849854 672.899780
226.657455 -1321.575806 617.228821
287.298645 -1437.885864 471.476288
247.998627 -1091.952271 151.225937
420.070221 -1058.884155 218.237793
504.057404 -1355.786133 603.457153
182.206253 -1103.361328 149.637497
354.636963 -1375.829224 576.750122
456.228973 -989.794678 -217.700485
322.763489 -1156.246704 130.103043
537.083557 -1581.441284 337.008942
132.919434 -1405.938110 538.801758
72.798042 -1105.857544 142.530289
427.570984 -984.682434 -228.355042
357.178497 -1383.510620 454.157959
161.206528 -1149.017456 102.125023
338.595551 -1275.223145 675.731934
464.819305 -1521.766235 443.543182
17.778336 -1423.501709 423.852997
171.009995 -1212.304565 18.820280
255.451355 -1272.901245 685.254456
329.768188 -1342.861816 588.945618
401.205292 -1545.123779 403.605652
256.651184 -1299.019043 651.759155
424.879425 -1088.183838 -65.490219
446.445923 -1022.675781 270.469513
142.513474 -1067.386841 214.094727
468.296539 -1547.406006 373.230652
184.039383 -1316.390381 635.623840
509.914337 -1037.902588 -75.202408
336.024231 -1403.873779 543.972229
408.215271 -1034.591675 -157.895676
445.214050 -1077.410889 -78.377869
311.673828 -1447.236206 466.232941
83.291260 -1022.073242 281.272400
526.871460 -1016.864197 -88.589920
303.767456 -1104.886475 -171.233643
454.835632 -1497.003662 455.912872
283.653748 -1026.344849 225.872467
394.561005 -1290.660278 666.471924
347.539429 -960.385376 346.646179
476.672668 -1411.886230 544.701599
210.107544 -1005.923889 256.575836
508.768433 -1043.482544 -83.455338
113.800629 -1125.335815 122.754089
104.386749 -1103.817017 150.348907
124.145409 -1333.770386 600.228149
255.787094 -1140.312134 -139.680023
106.507660 -1275.399292 658.543335
474.947998 -888.316162 232.271042
467.738739 -1012.861145 -143.172104
237.955429 -1361.742065 473.336304
154.704224 -1441.882324 458.930695
72.851295 -1017.168396 240.365311
416.152740 -982.553833 -267.564758
364.453735 -1096.233154 189.136459
555.784973 -1396.236694 573.686768
130.483887 -1464.359009 405.206146
-54.890980 -1438.025757 444.241028
14.146099 -1408.407104 478.878326
476.882294 -1369.894653 591.291077
451.424072 -1000.656677 -171.948212
51.227493 -1403.321167 517.936829
248.859344 -1152.628540 -126.481125
228.077942 -1180.182617 104.544785
532.959106 -1382.781128 570.338196
367.972260 -1364.415161 574.237793
401.774231 -1278.743652 -20.190876
410.470612 -1125.256958 -24.990211
114.764145 -1456.214722 432.878021
311.862793 -968.240784 347.964569
400.137634 -988.125000 -264.617981
151.550858 -1249.081787 672.905029
181.174240 -1468.666870 410.960602
315.932709 -968.321167 315.094299
458.667786 -1010.493652 -168.334442
231.724304 -1200.811646 -87.558678
415.272522 -992.049316 -231.364639
17.015736 -1490.989014 385.196442
472.304688 -999.978638 -175.783997
182.071579 -1104.692261 186.152817
394.449921 -1035.111450 -176.852509
246.056046 -1172.324951 96.032234
365.202911 -1065.982056 197.565094
242.378937 -971.365051 366.635773
401.589203 -975.497986 331.502686
348.984924 -1132.895264 149.057404
385.005859 -1034.540283 -208.481461
444.955231 -1565.309448 362.585754
496.561035 -1047.979736 -85.250694
517.347900 -880.044617 146.430084
361.088043 -1415.291260 524.177673
343.377197 -1112.169800 -112.259262
546.315735 -1373.129150 542.012146
357.965454 -1119.142944 -106.328026
471.452728 -1067.925903 197.713654
168.942505 -1483.155762 426.388214
441.211426 -1402.573120 514.918030
400.061615 -1326.714966 629.833252
276.955475 -1136.415283 -122.776443
151.590286 -1261.344116 677.550232
355.370117 -1084.777710 185.521362
455.793610 -1385.581665 568.995850
364.688568 -1027.285522 -282.883789
481.456390 -1081.389282 -51.249287
292.946167 -1052.341919 -277.650879
214.256363 -1232.865723 46.682114
455.054138 -1435.764893 471.806763
325.878296 -1065.514282 189.532135
85.113670 -1347.650269 594.070496
11.930024 -1385.858398 525.572266
225.303696 -1359.004883 566.296204
310.618256 -1159.942261 -54.467068
411.868958 -1098.587891 177.256195
339.313263 -979.676636 312.723114
444.914490 -1177.138550 120.711510
245.806259 -1149.901367 -121.121407
469.775085 -987.126587 222.707230
149.365631 -1147.853027 127.577797
166.691711 -1170.028442 110.404427
214.516647 -1503.023560 379.353455
296.576385 -1020.156616 271.441467
173.820862 -1291.153809 651.797546
249.313080 -992.629517 285.213470
207.029419 -1052.837280 238.643906
493.102173 -1031.556396 -88.410583
505.271759 -1449.376709 486.267609
421.077240 -1310.617310 662.365845
141.586304 -1624.640015 264.781952
468.981445 -1550.516113 364.809265
463.585419 -1352.904907 621.386902
35.482723 -1540.013916 369.563477
193.695343 -1640.661499 305.528229
361.777588 -1079.927856 -162.619614
192.928452 -1389.560059 470.413879
520.984497 -1692.256226 216.437973
376.034882 -1090.373291 -131.431427
360.269897 -977.514954 309.836548
378.679077 -1081.075073 -116.107292
407.428711 -1105.277466 -59.915703
300.310242 -1388.588745 577.283936
199.825119 -1431.532227 452.691681
431.098297 -1008.137024 -185.678864
233.792618 -1089.396484 -230.751434
451.648590 -1322.717041 632.671692
325.761414 -1089.899292 -158.705597
66.795769 -1036.213867 258.402557
166.966888 -1403.610229 394.714783
22.953619 -1471.381470 405.386658
2.363402 -1426.614258 412.935242
498.876373 -1057.279907 -59.952930
440.601501 -1367.374268 602.272949
347.033203 -992.488770 284.569763
463.910400 -1060.481445 -85.887665
117.546822 -1178.009521 75.994484
135.420868 -1348.696167 557.581970
373.335480 -998.305847 288.828339
419.150391 -1014.709412 -195.735107
178.024734 -1276.741089 637.550842
563.537781 -964.089111 51.713993
218.571457 -1004.972168 259.998322
-30.818281 -1449.917236 378.917572
164.383575 -1443.951782 490.705872
113.664925 -1342.057495 590.716431
387.433746 -1045.360229 225.712372
461.282867 -1064.219849 -86.307549
287.200714 -1145.739136 133.878616
523.238647 -1138.640625 3.450115
267.214111 -1312.442139 613.073792
140.647781 -1270.257080 666.983276
191.181686 -1390.743408 535.963684
123.844437 -1485.726318 432.617157
394.388702 -1034.849609 -190.395996
191.027542 -1294.060913 619.960693
315.933289 -1115.175903 134.400848
140.690292 -1427.655884 369.594788
521.634644 -1044.870361 -59.134605
496.004913 -1327.533936 631.263672
432.801514 -1129.311646 7.104771
420.199615 -1517.960571 373.478088
531.318665 -1380.043091 515.213074
251.585007 -1446.531128 440.627533
501.774017 -1057.790039 -66.427811
386.148529 -1389.762573 575.946350
513.507202 -984.598938 -154.849167
128.538559 -1389.174316 540.263794
-28.439505 -1479.621948 409.589996
534.530823 -992.043152 -130.933685
298.721191 -1152.338623 -84.585922
523.957397 -1353.843018 573.776855
263.015076 -948.545776 344.114563
185.438751 -1258.576172 664.513062
250.675858 -1347.632813 586.163757
427.517853 -1130.864136 -30.216314
502.193726 -975.155212 -178.585526
130.745346 -1337.072266 617.733215
442.407837 -1063.169922 -110.925217
132.260818 -1027.249756 234.128784
200.689026 -991.062561 325.913300
410.815247 -978.876587 340.104095
98.097816 -1414.749268 525.315491
351.234131 -1143.102661 -54.525246
443.695648 -1427.690063 530.795105
140.702133 -1005.822632 299.009521
290.864746 -966.149963 322.533295
411.339996 -1565.611206 382.171783
290.342560 -1147.900391 -115.141548
197.111664 -1549.631226 348.117889
189.034531 -1254.400635 670.230347
272.587463 -1407.838623 432.406281
336.319153 -973.086182 301.879211
278.927277 -1338.948853 447.439606
250.880737 -1148.178345 120.955322
453.914032 -1359.455078 591.061096
252.229065 -1305.540283 621.810913
110.613029 -1055.947388 227.646210
525.179504 -997.442810 -101.103958
427.661316 -1391.990845 530.552856
366.556671 -1271.428101 661.254395
189.670746 -1437.445557 488.690063
21.049807 -1446.114624 431.027161
40.273323 -1058.622559 227.547394
114.039474 -1301.726807 626.672363
181.706268 -1456.143433 491.881287
359.101837 -1137.197998 -76.258308
230.327026 -1261.031494 697.542419
272.100159 -1172.200562 -85.465088
476.569946 -1093.520752 -40.575050
490.638123 -1100.167358 185.159546
119.523178 -1013.340271 277.417389
429.289459 -1062.276855 200.565826
34.924854 -1427.877319 463.481537
146.763916 -1001.213623 292.858521
497.481476 -1091.496704 -31.599792
208.153625 -1078.481079 183.573959
294.695496 -1156.375977 -83.505272
225.827621 -1122.294067 -183.209106
149.692322 -1189.707520 74.610794
513.063843 -965.316833 -191.807831
437.941376 -1435.468628 454.101044
414.023071 -986.713440 334.154083
58.719067 -1359.040527 541.720642
501.988251 -985.422729 -175.253784
303.935394 -993.033813 279.744171
351.828644 -1043.306274 -212.927612
379.740845 -1419.049316 477.199158
508.424347 -948.717102 172.597824
281.343018 -1428.379150 480.969788
180.388824 -1431.051758 475.651733
244.219452 -1090.841187 -200.786575
471.253265 -1049.810181 -100.731712
368.759125 -1024.284424 -267.754120
238.682709 -973.849060 324.528625
168.325409 -988.924927 329.865082
361.819397 -1222.017334 69.685089
487.276672 -1369.640015 537.750305
237.636688 -1282.672607 655.891907
363.917816 -1044.255493 -221.930786
158.633072 -1046.920654 244.579422
431.440918 -1045.493652 246.652664
511.037933 -1563.944946 346.971497
451.385986 -1548.164551 368.440430
66.446251 -1422.050781 498.064331
263.496796 -1115.333008 -175.712418
275.528931 -1144.265137 -123.343292
87.737442 -1459.473633 392.408051
238.795151 -1164.381226 -131.234299
405.877930 -1395.748779 564.097290
17.669878 -1458.697510 395.707703
96.163994 -1037.127075 269.309204
364.638733 -968.966553 350.633545
188.713486 -1292.604614 615.476746
141.881058 -997.631897 258.114868
271.489349 -1204.353516 -69.834305
252.421173 -976.115356 321.288330
240.845947 -1469.117065 434.898163
517.327576 -924.701843 102.482597
453.817474 -1088.139282 192.405289
119.355934 -1314.281494 646.235901
414.201172 -1435.411499 515.165466
409.335052 -977.849060 331.388611
358.514771 -1037.234131 252.012299
238.403412 -1029.567505 214.164886
190.977554 -1640.015259 293.499146
307.781189 -1008.492249 264.411835
344.323669 -1059.493652 194.236755
454.387238 -1111.810913 -37.510113
340.206909 -1140.283447 -67.507484
424.249451 -1001.199951 258.437988
191.741180 -1252.528809 624.753967
250.265366 -1202.087402 -80.137444
67.127716 -1077.390991 168.124847
377.018738 -1031.098267 -210.950760
403.893463 -1076.387085 -119.170906
449.700958 -1057.333374 -101.853180
353.519867 -1042.593018 -234.154221
221.550537 -1020.738892 260.972778
121.100876 -1357.092285 576.581970
299.892059 -1068.729858 -205.116165
244.547363 -957.467163 346.545441
419.624054 -1218.515991 80.360435
288.902924 -1139.999878 134.677444
180.813263 -1265.755005 699.393677
105.886963 -1349.662231 579.288879
247.968246 -1319.973267 499.287231
297.867676 -986.389709 298.229492
504.928375 -1354.171509 578.643982
444.509583 -1568.149170 371.567444
316.937408 -967.475586 337.435028
135.578247 -1265.852661 667.113525
411.547485 -1322.767578 632.990906
361.539459 -1136.780884 -66.034470
314.504150 -1035.505249 250.781830
261.205505 -1381.996338 556.932495
210.055283 -1241.926636 58.327854
190.086319 -1237.429932 687.953003
280.314148 -1044.993164 -253.070297
390.361511 -1105.241821 -96.652077
179.377457 -1174.010254 61.382271
288.097778 -1300.809326 658.869690
412.518433 -1065.656982 -108.909386
401.427032 -1071.762939 -132.755981
273.255005 -1372.234131 591.827881
163.064484 -1638.984009 284.540009
408.588745 -1355.786133 610.076111
561.431580 -1364.177734 592.941650
301.390747 -1360.327759 567.680054
262.793579 -1354.623535 568.821777
258.003204 -1296.653809 628.633545
231.324585 -1158.417725 100.168907
331.999512 -1170.222778 -70.014893
391.306946 -1426.173828 518.897278
241.615143 -1074.707642 205.522736
518.200623 -983.144531 -138.455246
313.022186 -1134.162720 -94.074272
420.846405 -1123.736816 -20.408800
260.727966 -1149.357056 -122.406982
428.900848 -1080.153809 -91.908852
225.554840 -1492.247314 362.043121
253.232330 -976.009277 337.909058
98.865097 -1363.706299 561.955688
389.698456 -1410.355469 437.569336
331.865570 -1068.135376 187.669510
392.336395 -1550.753296 353.180511
558.165161 -1432.263550 527.304138
176.584167 -1293.388794 666.267334
297.122925 -1158.694214 -109.855858
372.751709 -1071.588501 -149.654297
356.387054 -1348.588989 604.664612
359.974365 -1381.057617 566.809692
245.090912 -1102.077271 -237.617310
101.925415 -1410.305908 492.461914
396.821014 -1162.952271 -23.934290
412.309235 -1300.454346 656.773132
296.128021 -977.232727 292.730072
431.000122 -1434.432617 475.535400
273.902344 -1359.662598 593.264709
385.779144 -1122.609741 162.346115
361.603973 -1007.903259 -266.725281
223.562180 -1091.747070 194.028915
526.449463 -1050.021240 -60.572689
124.906548 -996.659119 278.155121
477.673859 -977.637634 -209.357422
228.588699 -1019.772583 224.503525
551.920044 -1043.896606 -25.569025
108.628166 -1482.343018 392.729614
237.013824 -1246.431030 684.263245
321.255737 -1108.475830 -174.558380
377.442963 -1033.684204 -217.908310
219.171158 -1275.208740 680.459534
-4.846243 -1461.728027 415.683441
359.892426 -983.814941 318.294128
276.633209 -966.064819 348.457886
292.108734 -1240.514648 35.622356
276.320740 -1270.890259 664.745544
466.839874 -1567.853149 357.255768
122.061676 -1147.926758 139.649139
230.659256 -1345.800903 531.011475
359.385864 -960.302429 375.978821
262.777893 -1148.239258 -120.470993
272.938751 -981.750000 279.844208
143.987869 -1383.132568 551.576782
290.474335 -1386.997681 570.884033
230.392929 -1093.867065 192.325836
384.617706 -1442.739990 479.976624
202.378540 -1016.035767 279.323822
506.384552 -987.083740 -212.387787
74.493782 -1342.587402 582.147888
353.102692 -1050.138672 229.886322
267.119659 -1419.983765 484.481018
380.834747 -1293.489868 659.191895
272.578003 -1380.846191 561.791809
194.873825 -1081.805664 175.401779
75.164230 -1452.445068 447.748352
418.719879 -1436.205078 450.202271
91.546219 -1347.417969 586.044739
240.311035 -1264.900269 704.215332
120.568428 -1465.736816 444.423126
404.110840 -998.662048 -230.631409
326.095245 -984.988525 330.277100
455.326599 -1373.913086 490.126160
507.761017 -1115.084839 4.515244
482.252167 -1004.273315 -143.460190
298.742523 -1076.563232 204.282898
403.761627 -1356.084595 599.980591
381.603180 -1317.615112 644.674744
268.541718 -1014.936829 282.932983
411.343109 -1002.888611 261.719269
263.665466 -1086.346191 174.645905
174.057175 -1253.193359 692.850159
171.085159 -1007.551575 269.084045
307.276154 -1179.100708 96.384674
445.169220 -1387.757813 473.892120
538.328796 -1628.156128 308.463501
174.241180 -1451.656982 422.704193
433.696564 -1358.554932 474.713440
244.955688 -1365.196777 568.522278
260.968567 -1028.357544 217.122757
228.025757 -1000.624573 270.972198
428.291840 -1006.889648 -189.304077
345.482574 -1010.905579 -270.074005
222.514862 -1041.541626 247.111084
519.127625 -966.649902 -193.674026
401.571686 -1112.483643 174.646423
201.581009 -1445.957642 417.310272
429.190216 -993.641052 -210.653381
483.414734 -1108.504883 -15.554101
215.377579 -1140.508911 124.481407
269.388641 -1260.246216 394.999359
431.176300 -1034.690430 -156.879028
218.038177 -1133.227417 -163.624237
351.387573 -969.607300 324.434692
139.858612 -1021.569763 242.188232
78.358116 -1447.574829 442.367157
92.482681 -1480.551392 433.386047
270.780212 -1335.165771 602.400085
327.243195 -1078.457520 213.653992
366.816101 -1022.132385 -225.691925
466.587006 -1548.764648 388.670776
-27.496952 -1484.229736 422.167938
493.809845 -1533.158569 392.381989
171.283020 -1379.512329 546.919678
178.597534 -1445.841919 459.299957
97.234772 -1066.718628 161.480576
513.799744 -1378.414673 572.747437
481.932495 -1071.039917 -67.628342
496.327087 -1363.660522 591.962280
214.830475 -1298.406372 577.431396
130.604691 -1033.997192 208.264404
3.767866 -1422.581543 456.887665
454.021515 -983.742371 -223.063095
357.380371 -1005.881226 275.566345
118.356209 -1297.744995 647.359802
343.432648 -1060.617065 -195.437851
346.892883 -1026.042603 254.433243
48.601379 -1352.216919 573.441772
265.687286 -1133.061523 -143.307053
447.374725 -1044.705933 222.513077
343.472260 -1120.464966 -121.928734
340.963745 -1028.718262 231.276443
358.642303 -1035.122437 254.409805
500.257324 -1569.773315 346.287689
321.241638 -1049.939331 -215.196854
419.759918 -1090.941040 -83.224411
67.618515 -1377.195801 545.197205
170.582565 -993.627136 300.795654
498.982788 -1079.503906 -26.231707
277.593689 -1291.919067 362.483185
419.122925 -1163.541260 -16.492037
65.006638 -1407.319336 510.285187
465.426361 -1069.477539 207.978638
285.502747 -1297.404297 668.927429
141.000244 -1307.681030 601.075012
284.142853 -1088.839966 207.082504
228.369385 -1020.567444 242.137817
213.693787 -1357.894043 556.924438
121.402267 -1025.528687 313.304932
497.485382 -1010.381714 -121.065674
273.694977 -1102.378418 147.173706
231.811157 -1221.711304 32.104176
518.773010 -924.558838 156.746094
282.869049 -1029.210449 254.128693
314.896606 -1291.500366 659.160950
352.368378 -1070.478760 -173.936935
398.992645 -1238.348389 45.948357
471.154663 -1062.133545 206.029160
233.117004 -1477.528931 449.737274
461.465271 -1530.681885 353.641663
398.648010 -1036.689575 234.468430
430.421875 -1131.204468 -41.369137
556.809509 -1368.447266 611.776733
177.863708 -1432.463501 518.400146
511.892334 -1414.857666 526.058533
64.366806 -1328.464722 596.975525
109.494781 -1266.265381 668.582214
158.585022 -1483.807007 432.413971
481.894073 -1112.138428 8.617414
373.136658 -1074.338257 -132.014191
353.663330 -1004.660156 -284.206024
353.130737 -1141.730225 125.556747
417.958832 -1426.955444 510.830475
96.440460 -1009.255737 269.558716
223.610550 -1122.273926 -172.475235
168.929459 -1248.178223 675.102295
366.023224 -1071.717041 -142.490250
242.456909 -1144.678467 -157.095245
121.151443 -1356.291382 389.735840
20.766335 -1442.375610 436.786804
109.282921 -1013.345154 234.004608
259.035400 -1358.584839 568.414673
457.200714 -1564.535278 396.611298
229.969284 -1238.626221 686.616943
115.891632 -1096.009888 189.096863
476.722198 -1024.962646 -145.816101
374.816925 -1139.197266 -56.913891
275.527344 -1387.216553 537.497925
310.703735 -1091.362671 161.347504
245.969238 -1258.971680 13.405603
318.460876 -974.345032 310.899200
100.401955 -1380.144043 561.570801
42.475109 -1503.645996 370.457184
192.765015 -1249.773804 675.783813
145.616364 -1190.576538 101.386772
127.326752 -1255.994873 663.107056
341.608093 -1072.687744 -160.338745
468.221588 -967.967712 -230.443542
218.927185 -1033.258423 256.288422
319.067230 -1062.584717 199.472672
463.413727 -1075.951416 -74.416687
290.210876 -1051.129272 -239.800110
286.050842 -1009.161377 266.555603
310.767609 -968.341919 373.615845
337.678131 -1050.990967 227.253387
187.177536 -1131.239136 131.428558
154.178436 -1357.810913 556.387695
441.687347 -1146.519531 -13.850053
58.841045 -1336.118042 584.941162
278.271637 -1071.965942 178.128387
337.611206 -964.527161 380.338470
241.510498 -1576.663086 306.832977
95.801468 -1541.985962 366.456390
286.767303 -1270.744385 678.926392
257.898193 -1193.249146 -71.644386
379.292725 -1423.878906 518.358154
40.081841 -1511.762207 377.821594
448.744507 -1020.674805 -139.889343
368.801453 -976.929504 330.665924
488.833862 -1371.391479 531.433655
466.847961 -1562.660034 303.287537
156.794632 -1079.749390 196.481918
426.452942 -1057.669434 -120.087860
333.352570 -1302.332764 667.083496
133.824951 -1463.433960 446.257141
571.690308 -1396.364502 538.317566
251.196716 -1169.291260 -103.145393
8.201552 -1482.362427 428.576233
337.148804 -1064.087769 -236.216263
462.269257 -1033.276367 247.735565
167.459076 -1308.767578 602.067749
384.641266 -1029.562866 -255.087250
413.222412 -1008.849121 -212.074738
422.561005 -1430.308350 442.746338
42.732872 -1449.741211 462.126251
410.391266 -1469.130493 406.159454
500.351807 -1071.941162 -40.296818
93.665649 -1035.204956 262.655334
82.546082 -1439.468872 472.129456
253.675232 -1295.194214 390.305389
435.732727 -1111.110474 -59.258739
409.938751 -1164.473755 -27.241127
538.653992 -1360.344971 571.991394
497.215881 -1449.707764 448.381226
276.400726 -1177.250854 -88.437759
101.359917 -1098.658325 156.074112
319.930054 -976.767639 377.552094
365.395935 -1161.277832 -61.319473
352.367340 -1411.560303 529.412964
212.070374 -986.616516 295.340088
550.095581 -1370.625610 575.716492
273.607971 -1419.808105 333.353119
454.502045 -1023.775940 -149.023895
305.114349 -1179.011597 -74.131187
10.032393 -1404.911621 509.700775
113.083939 -1354.855713 589.171814
450.600616 -1399.627686 547.573914
244.345612 -1370.041870 520.377075
12.389179 -1443.064331 459.471191
237.432236 -1321.432373 565.186340
508.744171 -1555.692505 335.656586
560.428955 -1688.254395 221.716156
176.606903 -1281.204834 666.184631
384.445618 -1105.664917 -90.772263
507.892883 -1514.849854 406.227570
452.729065 -1369.451050 549.158691
362.326630 -1018.318237 254.467163
160.052353 -1063.742432 198.544128
163.478516 -995.966431 298.031738
228.757599 -1308.888184 597.909424
435.997986 -1045.612183 249.817078
286.419647 -1258.872803 695.163208
400.178253 -1037.145996 -168.279541
476.470642 -1056.782593 -82.133629
53.283691 -1428.815430 453.019531
260.064331 -1433.966431 425.701904
385.653107 -1073.991699 -155.069885
343.379669 -1065.896729 -168.996216
335.537292 -1077.361694 -173.543121
198.659500 -1022.720032 237.978729
278.253967 -1181.835449 106.282524
396.417084 -1174.496460 128.897873
500.460541 -867.682129 152.672699
381.888367 -1115.873413 -90.869667
373.014740 -1100.354004 193.789490
608.505676 -1644.477295 269.170044
140.210358 -1286.028442 675.948547
203.173645 -1287.456665 613.123535
217.806488 -1359.875610 548.522034
364.769775 -1050.302612 -186.753906
320.212524 -1030.958252 -252.182617
415.451263 -1418.450562 527.029236
43.508511 -1340.232666 560.388672
371.235504 -1368.891846 587.493713
448.229279 -1142.752075 4.116873
359.366028 -1066.879883 201.319000
308.126221 -1271.397827 695.912109
421.276947 -1189.305298 87.066605
251.287979 -981.797729 366.625427
395.036377 -1379.655151 573.258606
429.742340 -1054.010498 240.909714
303.817078 -1371.315063 383.315063
398.201874 -1098.874634 166.304428
429.215942 -1419.215576 484.358704
304.967377 -1080.989746 -207.704819
239.295273 -1067.135132 180.948242
50.865768 -1417.358521 477.473450
410.205078 -1029.692993 -181.855240
211.425583 -1314.760376 589.853333
250.122314 -1273.758301 654.694519
478.921295 -1056.084473 -97.496620
436.589233 -1328.786377 629.583618
489.966736 -1432.945923 506.180389
288.275604 -1257.064453 424.730499
477.926636 -990.415466 -195.511429
150.273712 -1361.494873 585.331726
495.748688 -1041.497803 -86.826973
428.250000 -1002.314575 297.037964
507.248993 -1339.237183 615.078674
330.758179 -1110.586060 -111.355392
358.001648 -1028.226563 -213.265060
450.198059 -1009.865906 -154.314377
447.205383 -1028.086914 -149.423828
189.341965 -1432.061035 447.293182
393.613190 -1043.082397 239.603867
296.492371 -1345.537720 616.896667
428.197235 -1384.302124 494.200684
510.005737 -963.175110 -204.119217
329.305664 -978.436707 307.030426
256.471161 -1131.560425 -141.694412
451.553955 -1117.137451 -31.127394
141.800903 -1145.281738 128.793320
495.710358 -1329.807129 573.337280
269.113220 -1347.363525 610.094299
557.015259 -1004.863403 57.118828
-15.159282 -1433.974243 416.102997
324.653503 -977.953674 339.481873
334.665558 -1162.061890 125.854172
300.719818 -1088.861450 -177.077271
274.762390 -970.894531 334.256226
229.199417 -1282.754272 662.621643
446.547638 -986.499939 -244.087952
423.204163 -1329.901367 643.342590
262.732788 -1306.972046 634.069336
103.224716 -1433.393066 489.976746
27.551188 -1439.247314 452.331635
587.662720 -1605.646851 302.476929
271.744568 -1341.903198 425.105164
530.793030 -1361.864990 602.859131
463.575684 -1036.889160 -108.529182
331.537567 -1378.770508 435.575165
452.071136 -993.690491 -196.908707
258.668488 -1071.688965 -234.843491
221.959030 -1026.639771 263.844299
309.433258 -1197.500732 73.992577
410.912781 -1189.770508 81.000633
214.197723 -1285.387939 634.693787
161.874573 -1360.739990 565.062988
92.398743 -1442.261719 466.911255
462.080688 -1607.480591 251.850311
247.662109 -1129.743408 113.748825
203.371887 -1387.411011 536.196411
416.042725 -1485.884766 432.573730
100.623703 -1389.334961 568.055664
226.565674 -1295.636230 613.062744
208.457428 -1274.914917 508.558594
168.683258 -1234.900269 688.620911
518.234436 -1322.417358 560.038147
537.368225 -1576.692749 341.434814
251.808990 -1388.425293 425.398499
217.407394 -1278.471313 660.525757
278.046906 -1172.423340 -70.921165
240.114014 -1040.838623 228.144165
243.046707 -1113.897339 166.901459
458.434845 -1415.625366 542.340027
217.630798 -1389.500366 509.542877
259.676544 -1001.322876 248.825851
284.889679 -1413.349976 550.989197
348.084534 -1097.743774 -125.204002
215.778259 -1127.823730 166.380630
56.892071 -1016.929688 276.614899
292.310211 -1426.589233 522.706543
13.149559 -1395.931519 518.335327
401.352448 -1019.742737 -226.922821
469.322876 -1082.018921 -38.096756
88.058151 -1041.577393 269.343079
466.093323 -967.841919 -217.300842
211.606201 -1473.347168 424.693665
371.203583 -1536.111938 381.732849
532.926575 -1359.778564 609.698364
413.470856 -1081.773438 -86.356773
360.971313 -1066.391846 -186.132401
302.357697 -1331.670166 620.107971
102.727081 -1364.898926 558.867981
227.003067 -1173.059692 -131.727768
58.758614 -1464.031616 378.221344
231.784805 -1009.846863 258.058594
458.387909 -1362.035156 608.592285
392.004028 -1280.578613 659.935547
355.933960 -1163.146973 104.371147
374.322723 -1098.505371 -130.725601
278.911377 -1077.485596 -214.568466
378.482727 -1130.571899 137.437668
357.072449 -969.931946 323.743683
50.151241 -1045.453125 267.708405
71.539139 -1090.243042 161.206741
233.204865 -1344.308838 577.478760
557.787842 -1610.540405 327.788971
181.750870 -1449.131104 476.117767
489.047913 -1335.819458 639.083374
234.460678 -1250.664063 23.536238
257.385620 -1070.276245 -241.054703
305.969177 -1107.268311 -163.621185
439.345398 -1355.439209 601.752441
49.934685 -1005.821716 -7.023201
428.931091 -1338.663086 635.213440
279.644592 -1116.973511 -178.268036
308.423004 -1196.774902 72.713318
212.788254 -1245.150879 702.698730
389.555695 -1547.816528 398.142548
116.732063 -1420.224976 510.010620
267.077454 -1421.639038 503.299835
146.942368 -1278.668945 649.249573
176.040680 -1466.233887 460.752075
452.365723 -1005.509094 265.546082
528.791077 -978.429138 -202.291870
261.156219 -1168.690308 -97.501663
498.250824 -1563.731567 376.178345
366.729523 -1007.988708 -245.987274
146.249390 -1590.054932 338.750427
44.241272 -1412.443237 446.944366
241.833954 -1357.757446 576.829407
119.406776 -1266.749512 674.487244
32.153408 -1366.216187 556.443359
139.884506 -1003.718018 304.832275
195.469620 -1104.004272 160.180969
298.538849 -971.703552 324.953125
347.536835 -1032.791992 -224.544037
410.324890 -1100.847412 193.959076
389.020660 -1025.833740 -215.582245
440.203766 -1382.374023 526.014099
465.256378 -1385.697876 571.526001
540.065186 -1039.069580 -28.997355
491.003906 -1107.304810 -8.168760
286.687714 -1052.495361 -227.494827
340.495056 -985.224243 322.111481
485.066437 -1556.531494 306.692535
294.999756 -1423.368164 494.716248
455.901062 -1560.412231 378.548157
123.774857 -1113.326172 130.537445
96.878044 -1285.570435 642.763428
523.118164 -1374.324585 568.587646
477.158386 -1348.751221 600.607727
577.571899 -1368.210815 594.862366
560.695068 -1385.254639 569.230469
90.816032 -1302.164185 628.316833
350.832703 -1066.836060 200.393936
367.679169 -1036.644775 -216.564651
524.345337 -986.423889 -160.728989
235.078476 -1078.106812 168.010437
356.426300 -1025.489624 -274.945282
188.646988 -1152.587646 106.040695
245.186508 -1294.281006 598.003418
300.209656 -972.358643 303.052582
305.089508 -1368.103271 559.500671
449.645477 -1015.269470 285.532013
245.913193 -1160.382202 83.441597
384.740051 -1541.814087 408.458740
294.920654 -1161.848511 -76.179649
360.499084 -1348.898682 581.054199
318.390045 -1014.536011 263.575134
504.130005 -1379.374878 566.682373
234.575974 -1306.411133 619.356812
274.148773 -1077.653931 201.611267
563.204407 -1681.368530 266.579407
192.064026 -1235.084106 703.490173
173.516586 -1283.607178 636.871216
406.960022 -1110.729126 155.502457
353.667969 -1093.491211 -167.782364
339.972443 -1386.494507 565.372314
138.138626 -1558.308716 359.784851
245.517014 -1014.372681 257.254974
149.449341 -1320.259155 627.244812
379.393616 -1108.399048 146.202454
162.937225 -1369.828735 567.615723
324.512543 -1292.020142 659.251282
19.770388 -1428.510742 410.753143
342.975647 -977.245972 322.340485
414.853577 -1292.777466 647.940063
20.628319 -1395.195557 504.151398
126.850655 -1019.138855 253.532074
375.358002 -1015.340454 -242.729355
137.014465 -1010.458862 267.146973
507.686584 -982.982849 -145.727646
393.748505 -1124.888306 -74.383080
379.342682 -1118.268799 152.967896
278.087433 -1292.467651 657.744812
142.932861 -1115.156128 171.479752
453.687653 -1487.505127 441.778442
385.271484 -1200.596436 91.400352
197.447296 -957.630432 327.065460
207.132706 -1250.891357 671.453308
251.113632 -1103.944092 165.872055
420.649231 -991.196899 299.973236
327.397400 -971.317017 329.462372
78.894226 -1329.936890 600.372131
131.398087 -1033.228516 226.963165
210.800034 -1415.473877 419.314362
126.702827 -1466.179810 415.814758
169.010117 -1007.867126 302.608459
177.252365 -1466.772217 455.430176
244.875519 -1166.026489 -121.888802
257.920441 -982.864258 277.096008
302.319733 -1129.075562 -114.267639
373.000092 -1322.814941 629.875793
178.150208 -1242.051392 18.090214
399.687775 -980.071106 310.033020
247.130905 -1279.558716 495.364685
371.324524 -1029.214600 -237.058426
223.866714 -1370.011963 485.619659
75.992813 -1435.694336 446.265900
364.360687 -1441.661621 469.645721
479.865601 -1120.050171 16.228170
464.598938 -1385.619629 516.562256
457.816742 -1560.968994 373.598297
119.262131 -1380.103027 548.224609
283.279083 -1357.771851 611.584534
9.382144 -1405.307251 515.441650
423.952332 -1075.380737 -101.737122
355.194885 -981.082764 358.981262
417.854279 -1022.233948 -187.935104
281.494995 -1141.231323 -130.144073
420.316864 -1393.418091 525.209473
375.296295 -1028.970459 -240.335480
449.834015 -1075.221069 200.500946
490.943909 -1318.859131 505.352631
206.054413 -1466.015869 471.902161
231.131592 -1091.594238 187.900269
524.088379 -1073.703125 3.675261
378.050171 -1524.479004 397.471741
313.187744 -1039.775024 -269.063171
164.950882 -1101.089355 137.643265
425.815918 -1409.590576 492.115417
399.482635 -1416.097656 528.622681
32.534557 -1518.540161 369.497498
392.538544 -1020.107300 -203.830124
376.894104 -1292.587646 643.900635
440.425171 -1181.324951 112.383156
174.983154 -1486.197998 424.825623
250.884155 -1324.797729 640.826843
621.628723 -1677.758789 252.792755
34.553288 -1048.900391 234.603500
424.629547 -1391.207397 561.769836
501.837311 -984.010925 -182.921509
185.723679 -1312.193726 559.952637
261.095490 -988.476868 274.593414
137.639618 -1377.568115 548.609192
208.733337 -999.525391 281.861267
525.035522 -1372.941162 586.175049
368.107269 -1062.709595 210.805786
386.200653 -970.985413 331.708221
328.975922 -1359.907471 610.306763
163.678345 -1384.934692 543.900208
338.529144 -1157.684814 119.770195
392.357147 -1046.905273 210.684875
188.943268 -985.050781 325.785126
237.803833 -1171.700684 96.411942
250.944382 -1111.211792 -178.103760
149.883041 -1273.418091 660.323120
28.230471 -1404.164307 512.259888
206.024231 -1361.936157 482.174530
341.685089 -1470.359253 475.650574
406.632385 -1404.325073 489.296661
273.554230 -957.172058 354.703339
95.503136 -1449.612915 438.810883
34.505497 -1396.679565 539.035889
323.487701 -1019.160522 234.365463
106.228394 -1324.788818 602.744873
332.809662 -1007.729797 270.238647
368.216187 -1057.338989 -189.270523
371.236206 -1035.059204 -219.631012
296.793976 -1198.152954 47.567818
323.446533 -1041.061523 -228.774780
275.051666 -987.424255 323.836273
483.350098 -1561.041260 367.543213
222.287582 -985.441528 300.199463
415.505463 -1386.391113 583.411560
146.678757 -1376.516235 550.918091
385.445557 -1013.141907 250.309219
118.884155 -1127.716675 149.175781
534.458801 -1437.182739 487.169556
169.519806 -1019.493591 243.360596
374.450104 -1467.031128 476.182373
432.280548 -997.565308 -204.154846
152.010605 -995.925293 290.663177
211.352783 -990.535950 283.260223
206.462051 -1060.041748 218.725677
461.262970 -1073.301514 -55.571304
107.748238 -1324.372437 603.228210
104.069679 -1343.331543 563.923401
282.091339 -957.568298 345.235077
321.525513 -1290.413940 668.927734
386.113708 -1009.966675 -238.757721
416.121277 -1091.295166 -84.787735
392.431427 -1059.987915 -163.800949
155.457199 -1244.379639 678.425842
424.033264 -1055.264648 -130.086533
201.333252 -1261.251831 659.283020
173.750381 -1436.167480 443.532745
97.459587 -1018.983154 280.554413
109.635422 -1299.517090 628.415588
39.303089 -1438.345581 445.084015
283.720215 -1101.207520 181.597809
322.781342 -1298.602173 629.884277
501.770905 -1101.529297 -18.526505
419.683655 -1055.018188 -139.543930
373.395905 -1075.918213 187.551453
423.926300 -1028.627686 -151.686142
134.928116 -1342.813965 620.649902
156.466278 -1276.443726 655.737183
161.502380 -1390.608765 546.611328
274.627350 -1017.604126 253.913879
259.962616 -1002.346436 264.791931
173.312347 -1454.697388 490.516296
281.649994 -992.677429 269.295929
80.190376 -1415.505005 485.340027
146.431854 -1395.630493 531.112732
27.267441 -1375.426758 527.171143
147.069717 -1002.600647 299.871460
515.614502 -974.219482 -180.406998
408.041809 -1001.085571 282.975616
146.883621 -1014.125671 301.703918
268.395691 -1333.799927 612.956299
232.000778 -1119.617798 -170.041504
214.076859 -1029.367310 231.544571
476.490875 -1060.679443 -85.525085
397.262207 -1054.777344 -151.873978
339.921967 -1382.780518 552.024109
211.294662 -1352.159668 488.379944
286.828430 -1407.532104 525.607849
476.014160 -1105.360352 -17.378162
80.219688 -1255.727173 655.129761
400.261169 -1061.603149 -154.631073
103.176544 -1440.318848 497.958923
448.117126 -1505.626343 468.223053
245.015411 -1008.453308 256.799988
373.549164 -1146.256714 142.600037
260.113861 -1176.829224 90.578331
500.408600 -1110.975586 12.146099
320.001587 -1065.954468 217.159943
190.263580 -1260.321655 680.261292
238.451340 -1320.083130 573.759766
474.615845 -1066.912476 -68.377319
354.160339 -1014.200317 242.839569
326.910034 -1124.076416 -120.823013
358.268341 -1310.347290 654.570557
191.503738 -1362.270508 396.249054
564.499878 -1669.593506 238.246262
118.021423 -1304.352539 626.114014
61.865463 -1331.770264 594.229858
457.401978 -1404.466187 557.974976
312.015869 -1058.579224 -209.323242
198.132095 -1274.305664 517.861023
345.749664 -967.750916 326.000671
462.042969 -1053.892212 209.161392
451.776855 -993.520996 -193.993317
456.327271 -1553.895386 380.427155
66.156357 -1318.458740 586.412964
296.505432 -1010.088196 263.443207
180.613953 -1132.972046 127.844490
270.490753 -1333.538696 609.923706
503.674042 -1102.656738 18.970181
312.998413 -1299.059204 649.787354
319.333099 -1117.358154 -115.370750
428.371338 -1003.794739 289.510651
265.582947 -1338.248047 613.726624
294.214111 -1254.589111 674.770203
307.628296 -1364.256470 594.732422
138.747910 -1025.223389 235.873062
380.049347 -1183.093628 107.240494
453.737640 -1537.270142 388.422211
303.523010 -1427.289429 489.283600
342.270172 -982.662048 328.787445
303.311951 -1143.347046 -118.470222
503.309784 -978.042847 -172.590256
121.140465 -1076.057129 184.441650
279.911957 -1406.731934 467.973480
374.829651 -1068.405273 -147.418991
250.437424 -1228.174927 385.801483
-6.814905 -1475.282349 423.570709
364.070557 -1161.399658 -51.002541
380.709625 -1299.803467 636.550964
34.143696 -1430.269775 484.390228
297.969299 -1375.332153 573.667358
233.958954 -996.089966 254.420853
145.731827 -1093.751709 139.688339
401.255676 -1070.973389 -157.614075
280.170837 -1403.452759 554.436707
332.932343 -958.665894 366.366608
239.172287 -1268.833496 671.567749
352.752625 -1080.800781 -169.353714
28.853329 -1381.894287 542.115479
292.700562 -1356.361938 606.435913
300.730408 -972.913086 349.181458
161.159866 -1468.969238 445.379120
471.324005 -1033.308105 -105.765381
294.626251 -1198.654175 87.727089
261.185181 -985.539185 270.849121
115.104767 -1058.256470 203.267929
324.690765 -1120.708984 157.638992
394.382690 -1427.773560 468.485565
459.775024 -1115.685669 -11.231925
473.555878 -1000.633728 -144.664963
256.467682 -977.900330 299.131744
258.882324 -1165.711182 79.177864
20.174297 -1397.463623 407.370026
366.612732 -1393.859741 434.874268
433.597321 -1385.003540 498.982086
493.125458 -1030.640991 -84.383835
392.573303 -1397.104492 444.912506
378.070862 -1095.902344 -141.433075
300.622162 -1047.890381 -293.346100
473.304413 -1020.104309 -140.281586
166.120636 -1243.252075 678.503662
227.461212 -1177.462524 -124.616837
480.907166 -1370.570801 542.348450
410.637451 -1290.536499 648.458191
426.920410 -1345.051025 628.385071
112.283203 -1091.284424 182.571686
393.475983 -1284.410889 649.834595
440.261871 -1005.332886 -176.330002
63.320328 -1067.862793 182.647934
124.282394 -1280.122559 659.488892
119.571960 -1412.804077 491.391296
90.512650 -1385.596558 544.202820
161.028351 -998.908508 270.242371
223.877731 -1253.228638 704.728210
130.486771 -1001.435974 305.047333
337.964630 -1375.418823 573.014343
252.373306 -1123.890137 -164.561508
353.253937 -1067.955444 -172.124496
213.176712 -1472.280151 380.684479
320.064270 -1070.681641 -182.403122
240.310867 -972.205994 336.679077
316.766113 -1344.311523 607.636169
212.477295 -1133.373413 -196.537201
370.605316 -1450.180908 504.275269
416.800262 -1043.137451 248.251556
273.204071 -1254.508667 698.581116
444.997070 -1372.964111 507.590149
448.899170 -993.523010 -198.790115
290.725372 -1153.231934 96.742813
56.747566 -1353.124756 576.613647
109.285545 -1023.059387 295.613708
137.455276 -1262.098267 672.062012
284.675262 -1100.683228 163.522797
337.115204 -958.604370 343.653015
94.302994 -1013.143127 270.939667
251.239700 -1318.533691 617.138184
23.966911 -1018.371765 25.778801
393.342163 -1169.067383 91.186508
329.104492 -1164.967529 83.876938
364.659943 -1326.845947 607.604736
370.288635 -1040.873413 -201.584061
314.595551 -1074.316406 -193.852570
467.104706 -1099.447998 -42.124359
533.608948 -1592.184448 323.527344
283.698120 -1064.092651 -227.810257
301.842896 -1364.757568 576.797607
178.881012 -1107.690796 144.444214
391.474640 -1373.941162 455.605591
288.450104 -970.246948 353.743805
268.542664 -1139.531738 -124.126389
350.923828 -1086.777222 -167.448090
255.260880 -1024.153809 271.737518
108.825851 -1067.870483 192.092987
66.413734 -1330.570435 601.232361
377.912506 -1013.185547 284.317780
230.627441 -1143.865234 152.328033
208.841309 -1331.831665 592.610779
453.241058 -1046.839355 -106.245987
485.839294 -1319.936646 619.519897
148.057068 -1429.107666 525.446472
71.416664 -1077.441528 172.452713
189.675980 -1420.617310 390.710632
100.501434 -1114.768311 105.044411
336.382233 -1121.403198 -110.022598
-1.543497 -1447.039917 436.850098
315.829315 -1322.354370 639.096069
420.606934 -997.804138 312.392883
187.338959 -1481.355835 416.811462
228.424713 -1266.380859 497.141083
530.311035 -1344.015869 622.782837
165.090073 -1468.564697 400.448425
246.076614 -991.031494 297.282257
169.518997 -1026.614258 233.238144
133.625412 -1079.422241 180.422485
426.924042 -1407.019653 453.899536
316.292053 -1434.053101 461.418427
293.585449 -1153.667114 -103.418365
277.406372 -968.051514 315.935730
224.766388 -1074.992554 165.999252
293.126038 -1226.959473 56.568073
264.424194 -1180.367432 -78.018066
490.399872 -1129.225342 166.968307
204.335190 -1274.710449 642.524536
314.111145 -1033.580933 -236.425613
435.175812 -1548.743652 369.106354
299.670502 -1059.684692 205.505630
405.563568 -1333.489380 639.611816
542.990051 -1002.590393 -134.115128
311.502289 -985.087219 373.612213
413.632660 -1153.672852 -15.907073
85.354401 -1344.508667 599.498047
251.559296 -1133.727661 -141.637787
228.437653 -1063.148071 216.305008
216.443741 -1062.267700 203.640137
352.110474 -988.872192 278.207306
437.592957 -1347.776855 623.578796
0.678768 -1468.517578 444.851379
145.768341 -983.225525 285.387543
429.561859 -985.172668 -230.381226
480.843872 -982.488647 -168.612747
151.876907 -1502.468262 378.215149
350.005829 -1017.971558 -250.242813
263.542938 -1132.624878 130.056274
410.528320 -1415.585571 536.467102
132.262894 -1101.088013 171.548431
443.796173 -1391.291138 486.796082
324.611176 -1041.022705 -299.419952
404.970551 -1003.874023 285.921906
169.828979 -1003.224792 265.900360
406.883331 -1320.254150 652.229492
104.886032 -989.083191 302.930481
342.164215 -1012.256897 264.191803
310.541138 -1093.301880 -169.674194
378.799530 -986.703613 341.515930
104.422585 -1413.777222 394.738037
361.657349 -1012.311157 -246.311386
362.083740 -1018.281799 254.920700
122.617508 -996.402283 285.014038
231.483582 -1356.598145 474.906219
116.716270 -1139.716309 113.098343
107.456223 -1323.829346 587.420227
181.990982 -1045.434204 245.978378
333.130463 -1050.208862 -235.325821
420.080658 -1405.949829 458.630798
543.404358 -1078.000977 -8.858367
207.783386 -1250.517944 658.224304
216.666885 -1297.979980 555.927002
323.695892 -1214.107544 71.010826
218.474442 -1272.465576 579.227783
478.448364 -908.583740 250.187927
317.063751 -1028.111206 -270.586670
329.151947 -977.847046 321.448578
475.400513 -1344.155884 629.781311
581.652344 -1381.415039 578.007202
404.532135 -1023.964905 258.269928
526.110962 -993.885925 -115.608490
334.588074 -1307.109009 656.017883
207.824997 -1253.873657 682.660400
480.100677 -1500.224976 388.372620
369.814789 -1147.309448 154.945190
233.399078 -1118.118652 -181.346771
392.874329 -1366.626221 467.812469
346.123535 -1054.139648 -201.030029
504.045715 -1412.477661 533.686218
538.753479 -1364.301147 612.651184
587.030457 -1674.413086 256.076111
413.176941 -1489.466187 352.297729
66.687309 -1547.011963 353.561401
325.165222 -1327.879150 623.541260
322.347931 -1227.520264 38.742496
503.215546 -1557.207764 396.971649
95.593018 -1023.754944 283.585114
167.758316 -1099.471558 152.091415
214.073227 -1249.342896 30.875704
317.748505 -1416.403687 503.347656
322.881012 -1101.760864 -149.086166
462.003937 -1004.002075 -168.500320
104.635796 -1533.405884 360.475128
368.793915 -1009.849121 -263.184967
530.306458 -1398.858154 555.921021
392.466492 -1065.185547 -156.776794
-6.293410 -1450.725708 364.962311
345.692566 -1165.278198 125.436310
579.473206 -1437.020264 501.545441
90.557846 -1279.499878 652.706299
305.098480 -1359.595337 605.536072
420.786896 -1397.166504 557.098083
292.466766 -1393.123901 424.291718
132.091904 -1470.415405 469.374847
87.623550 -1270.624023 639.970703
261.529816 -1145.140869 152.075394
242.347672 -1081.756836 211.371307
412.404022 -1355.164307 609.687317
83.686485 -1034.652344 275.273438
446.047577 -1544.212646 401.576813
198.076141 -1235.249268 38.142361
251.575653 -1159.162598 -135.306976
348.837463 -975.238159 299.289368
124.622856 -1271.380737 646.418335
203.421585 -1116.418945 161.853470
90.594772 -1263.014526 665.490112
462.181549 -1084.083862 -55.682434
198.767487 -1132.366455 106.696419
