ply
format ascii 1.0
element vertex 1352
property float x
property float y
property float z
end_header
-692.801331 1202.656128 -618.474976
-711.002930 1097.196289 -613.217102
-289.545410 1142.753784 -47.728989
-307.491119 996.350647 -398.131104
-460.527588 866.468567 -364.497681
-694.853394 1230.943726 -610.515930
-575.623535 985.827026 -191.086761
-785.250610 1053.025635 -641.094177
-528.911621 862.267639 -317.359406
-927.306274 1198.165283 -391.359039
-619.959167 1284.002319 -513.297668
-732.446899 1084.477539 -661.243835
-747.776489 1056.496948 -691.689697
-825.063416 1192.958496 -532.352539
-764.809021 1040.947632 -663.824402
-456.424866 921.276123 -288.936523
-405.342285 1130.069702 -210.197922
-782.623047 1130.734863 -592.887878
-315.784210 1057.993408 138.717377
-416.588196 1170.460449 -64.194565
-460.386475 1089.043823 68.387077
-408.174530 1179.166626 -200.138443
-796.700134 1210.973511 -527.556580
-762.499817 1138.831177 -584.382080
-640.909302 1060.675781 -740.284363
-892.617249 1118.822876 -479.743530
-802.741089 1048.343384 -634.249634
-563.039490 1618.065308 -435.797852
-403.478973 1120.766235 -21.889656
-252.666901 1113.361450 26.974907
-537.288147 1256.160645 -734.904602
-259.293854 1164.379761 -73.607414
-380.271790 1102.756958 45.839909
-704.228516 1267.074341 -526.221191
-360.542053 1126.621704 -1.554097
-404.786987 1113.159668 -8.351372
-791.646790 1018.384644 -665.579102
-615.816406 950.208923 -186.097687
-486.146851 1110.732056 6.323228
-239.027084 1166.563354 -146.465378
-534.141174 956.696960 -252.965042
-331.440155 1117.035522 -12.933541
-435.145477 1086.920532 -235.850647
-485.522949 1283.329224 -635.586853
-616.915039 1268.050781 -655.119568
-473.560150 883.652649 -304.896088
-366.464508 1156.103149 -58.824112
-214.655151 1134.596802 -15.694594
-690.695984 1039.661865 -716.091980
-229.784103 1095.164795 68.962486
-356.778412 1099.086426 65.348961
-497.358765 913.589111 -285.157166
-694.940063 1048.461548 -726.492310
-837.925110 1209.960449 -477.152710
-883.598694 1095.129761 -532.521057
-440.771667 1350.761230 -709.953003
-590.952637 879.937317 -210.978775
-676.737000 1041.105713 -727.904846
-600.278870 1251.183350 -685.221802
-329.819916 1106.641357 -287.553314
-382.441498 986.839417 -321.668701
-701.568542 1236.486084 -573.045288
-784.186523 1003.779358 -683.178772
-580.727966 828.721863 -287.566956
-775.962463 1136.563354 -594.856812
-742.847534 1009.959656 -710.862671
-650.766052 1152.943604 -495.346100
-698.390137 1188.468872 -533.190186
-573.534729 1418.822998 -549.279724
-535.777222 972.365723 -191.733932
-170.121063 1108.550781 43.176517
-821.532898 1204.827759 -439.060730
-510.756134 1086.880981 47.852295
-327.973785 1160.758057 -119.863838
-571.133240 825.804565 -320.373871
-166.310333 1120.457153 17.520514
-639.812012 1400.450439 -555.748047
-936.122375 1088.630005 -449.811340
-267.376801 1086.326294 86.004601
-791.144531 1247.184448 -447.696869
-500.193726 1410.305664 -627.272705
-451.644409 982.318726 -255.363235
-588.505676 1266.578003 -542.885132
-526.869385 1392.460449 -620.573181
-383.943359 969.908020 -324.327667
-349.870758 1052.926147 -321.248901
-265.072662 1125.291138 -2.079774
-318.296112 1006.544617 -363.197693
-332.199432 1046.777710 -313.475830
-494.201233 1146.922485 -131.000656
-343.107574 1059.333984 -332.519562
-560.188721 1218.326172 -722.241699
-573.189148 1236.803955 -711.028870
-445.124390 1134.638550 -175.843002
-449.185242 1165.606934 -142.077118
-370.286530 946.213806 -397.400116
-858.432739 1063.529175 -575.184937
-392.278046 1032.552612 -296.368378
-600.013184 1287.068359 -627.636780
-632.004761 1285.279175 -526.033813
-409.312225 1032.827148 -257.456482
-499.992157 1286.074585 -745.019531
-842.999634 1075.262573 -602.704712
-595.655762 855.658813 -274.548218
-322.833038 1046.235962 186.333694
-320.371338 1092.273560 85.484886
-588.926086 1299.896240 -619.263611
-486.846222 918.284973 -273.666870
-475.860107 1045.754272 -212.654129
-739.856323 997.511780 -719.872070
-590.912292 1255.761353 -672.210266
-207.318558 1151.526611 -80.162125
-532.725952 908.485596 -251.282120
-465.455963 1119.533203 -193.041748
-298.258606 1142.932617 -46.210800
-294.016907 1048.841675 159.553879
-437.323761 941.190796 -327.196106
-615.415955 1060.453491 -493.911285
-477.327545 1039.810913 -231.832397
-228.037903 1145.794312 -54.080467
-610.171204 836.139221 -318.901886
-901.494690 1077.053711 -446.323181
-355.721191 1099.843628 64.298889
-494.668488 1116.495239 10.934638
-387.614685 939.386841 -361.530853
-661.801819 1241.601196 -465.831909
-597.925476 848.814819 -255.028900
-476.369934 893.977173 -309.411804
-526.698364 904.172485 -261.409790
-249.601547 1087.061646 81.920662
-306.410187 1094.564941 71.917839
-402.356995 1079.807861 88.994110
-754.435425 1046.906616 -665.648621
-452.435242 875.577515 -409.962158
-457.183929 1065.809448 94.524689
-324.497559 1135.623291 -10.943647
-369.585846 1063.116699 143.999054
-353.890137 944.508301 -411.677795
-347.512573 1053.030640 -308.048950
-433.034790 922.911316 -316.948456
-217.209030 1138.730835 -45.533997
-737.597351 1028.376831 -700.500427
-533.787842 888.026611 -297.201355
-582.220764 1215.129761 -722.062744
-640.474304 1069.694946 -734.060486
-606.068420 939.584595 -201.557480
-622.791321 1297.184204 -603.587219
-348.037781 1140.662476 -39.880238
-413.404663 1147.113770 -215.871231
-559.867188 852.833557 -287.227478
-706.174255 1253.593140 -534.646057
-583.242249 1201.049072 -713.998901
-271.686127 1123.582275 -23.653831
-321.122681 1096.002441 34.305099
-407.808228 870.259827 -413.610260
-354.301971 939.630920 -389.143433
-465.707642 1074.887329 94.140259
-684.209900 1114.358765 -666.867859
-264.004944 1098.913208 49.588905
-516.777832 1076.441895 -138.362686
-410.455170 895.789978 -438.658783
-301.892303 996.565491 -372.361877
-597.195374 1369.642212 -524.805969
-180.695786 1108.204224 18.108719
-682.496338 1051.588867 -715.513489
-305.863281 1015.129150 -352.967194
-775.953857 1024.475220 -648.159058
-463.255219 864.728577 -404.436432
-307.870361 1149.394043 -56.227955
-350.608002 1113.305054 39.328190
-736.697449 1152.195679 -581.924927
-351.351868 1147.764771 -53.394775
-448.159485 1142.085815 -175.619217
-372.158691 1096.374512 93.115448
-653.633728 1236.449097 -426.116241
-374.805328 932.614929 -417.993164
-282.683289 1134.527710 -52.276962
-679.056091 1030.372437 -752.781921
-423.189636 946.175537 -337.596375
-596.684814 1120.164307 -740.699707
-557.826843 924.214722 -247.211838
-878.417725 1094.234375 -535.223145
-785.931213 1135.666382 -592.649475
-425.154724 1094.489258 36.462490
-552.646667 1284.745361 -671.802429
-305.120789 1179.684692 -111.609077
-561.635925 1275.573608 -676.873535
-756.902832 1158.081421 -591.909058
-505.234863 1102.384399 -157.569550
-813.394836 1095.279907 -591.397278
-623.863037 1639.918579 -339.235046
-781.523071 1001.065613 -664.236145
-725.237549 1144.166870 -612.675659
-398.032074 928.098389 -362.745361
-468.630890 1298.581909 -722.908569
-426.440125 1023.987915 -261.094971
-547.343140 1337.767822 -586.057190
-815.293152 1168.908813 -426.855133
-347.889709 948.405273 -414.695190
-764.244995 1108.785645 -632.359009
-318.220123 1053.499512 152.485153
-640.625122 1269.941772 -622.796692
-396.476563 1128.524414 -242.688080
-813.557983 1150.419800 -573.546387
-584.054565 1115.007446 -91.110672
-649.358521 1244.653442 -650.300476
-698.114807 1220.217651 -548.578735
-262.407654 1080.836670 106.067635
-479.559692 1410.510620 -647.678223
-728.805237 1250.772827 -508.927429
-454.950256 1117.060791 3.584412
-781.336304 1217.509521 -465.295593
-482.780762 1309.259399 -633.963867
-463.686798 1103.329956 -204.686737
-429.489227 1067.097656 113.808372
-302.407898 1080.645264 78.652351
-575.512024 1175.411133 -719.990784
-221.506760 1151.497681 -58.987930
-858.828125 1121.104614 -410.673981
-904.489807 1083.837280 -436.203949
-306.880402 1079.494141 -349.255371
-601.705444 816.793945 -278.303223
-496.803253 1324.411987 -680.144165
-367.175873 950.042053 -357.816895
-597.741028 1145.815674 -721.720581
-283.436188 1064.523926 140.614456
-553.652405 868.360535 -297.911133
-325.025513 1044.718140 165.171524
-659.876221 1120.396240 -706.978271
-702.457520 1039.995117 -733.749634
-509.360779 918.370544 -272.334442
-288.183319 1084.347290 72.620605
-420.738129 1138.805664 0.010403
-326.373627 989.750977 -403.907684
-804.998230 1249.130615 -474.632355
-872.347412 1107.197144 -427.098663
-597.561890 1487.072754 -410.453186
-687.800720 1275.281982 -582.802368
-302.948761 1001.716675 -373.961884
-524.072815 826.172974 -330.754578
-300.393005 1048.206665 164.310303
-672.364990 1171.301880 -664.271240
-606.832214 821.949097 -62.595257
-561.812378 1297.952148 -667.865417
-858.053040 1089.827515 -557.917908
-233.889893 1076.613770 104.933563
-362.381439 929.705505 -392.779022
-411.902954 947.433350 -332.117249
-360.076813 1198.292114 -115.448349
-407.098328 1074.746948 98.431564
-689.175720 1268.505859 -550.036682
-644.435120 1291.818970 -507.649323
-787.649048 1050.596191 -619.963562
-423.835205 1076.796509 94.640038
-395.620667 927.139771 -357.029938
-868.634705 1174.559814 -430.821381
-441.604095 1045.314331 132.734528
-699.041260 1065.408081 -698.978699
-374.573578 998.157043 -345.685791
-646.524658 1081.714844 -725.585754
-562.917725 1211.667847 -706.006409
-289.727783 1104.460571 44.938427
-341.889923 1034.431519 191.048523
-641.984070 1149.032715 -702.387634
-556.412292 1111.056519 -144.614548
-892.452209 1065.242798 -546.781982
-834.100098 1221.915405 -424.182373
-383.178040 920.426392 -401.408203
-815.662720 1148.980835 -528.468933
-604.743408 889.535278 -179.622177
-317.250580 1054.712280 -345.842255
-180.280807 1100.997803 75.732582
-918.010559 1221.360596 -398.730286
-466.666046 864.350708 -371.964417
-359.124847 1002.567322 -352.534760
-849.558105 1207.596558 -423.113220
-214.678894 1057.771851 172.165634
-607.531738 1284.372559 -623.254944
-493.370392 1286.705688 -731.234558
-560.003174 1390.236572 -572.700562
-578.075684 1292.800049 -658.326782
-532.698059 1308.454468 -579.638062
-833.273254 1178.668091 -517.206604
-583.738708 847.883240 -297.947754
-435.907532 876.816223 -418.957855
-375.069305 1101.147827 -255.827316
-264.571594 1071.369141 -355.495483
-444.093781 885.968018 -345.092621
-315.726532 1109.622070 24.269215
-215.125702 1090.174072 74.918648
-673.614380 1055.973999 -759.981628
-665.984741 1218.648193 -637.534363
-587.258362 1665.145996 -379.962341
-253.790909 1156.178833 -79.516716
-341.112457 1159.317749 -93.793488
-343.259430 1072.975220 109.305962
-341.418549 964.703369 -403.163544
-762.317322 1124.112061 -581.858398
-359.778290 932.471191 -424.100891
-631.105225 1602.130615 -360.040771
-477.370544 1147.211426 -149.976715
-817.851318 1055.821777 -594.017883
-595.383484 1436.232056 -490.490112
-505.502289 1053.556152 -183.670456
-807.346680 1224.723389 -498.489288
-413.320251 1188.601196 -189.808945
-620.771057 1220.124878 -682.936157
-546.218018 836.631531 -350.755096
-412.497681 1124.442139 -34.972301
-679.676514 1245.524780 -591.580505
-412.449158 1086.942383 77.248184
-857.848511 1185.324707 -425.687622
-334.689392 1098.406616 66.988907
-530.962891 1289.461670 -606.269409
-233.697449 1081.719604 79.224388
-593.058960 952.562622 -179.019363
-249.129822 1055.221802 162.901871
-333.522583 1127.502808 -4.105832
-422.043884 1005.886230 -288.135376
-650.608215 1269.156250 -608.602356
-917.520386 1093.344971 -463.121460
-443.893066 1178.922363 -170.430847
-388.869263 1183.495239 -210.644455
-433.882568 898.464172 -346.810455
-298.952942 1171.871338 -86.837036
-485.449158 1068.149780 77.998093
-598.843262 1436.719116 -519.260132
-740.470947 1132.785522 -557.334412
-395.763702 1076.390869 81.397568
-400.278290 956.680786 -335.208099
-351.617096 1071.553223 112.132317
-482.371887 873.033325 -317.961365
-695.311829 1231.171509 -627.177856
-455.688202 980.216614 -266.937347
-679.405518 1277.456299 -483.426270
-388.688141 966.427612 -342.232971
-467.190033 965.385376 -248.688675
-458.755371 868.697632 -419.407745
-682.834106 1142.752075 -652.206177
-374.002716 1065.107056 134.116760
-342.347748 1056.001709 125.669304
-873.550171 1144.697754 -499.697021
-458.456177 1034.869019 -239.929916
-446.887421 980.418518 -300.559387
-369.794495 1101.803467 57.368187
-600.538208 1575.194702 -433.482178
-401.581421 1084.625000 -246.906097
-688.937378 1263.872192 -573.035889
-496.888336 853.585632 -372.237457
-361.589661 956.441833 -397.042450
-618.060303 1301.409546 -527.831299
-427.612244 990.804443 -287.777527
-478.976501 1107.920654 -3.121897
-847.451782 1110.428101 -531.898987
-599.756409 947.971497 -176.499893
-719.225220 1130.008179 -603.490967
-459.267120 1011.594788 -240.477585
-484.922791 917.236084 -266.557617
-562.910706 893.139343 -246.953690
-585.868958 940.091187 -194.437973
-475.903473 1109.498657 -190.059967
-659.428162 1294.732178 -594.544373
-325.399963 987.878174 -385.745880
-425.135956 917.591797 -444.534088
-333.567627 1138.909912 -48.178505
-573.487549 865.477234 -282.402557
-400.055389 1139.518555 -21.179535
-354.264862 1058.218994 149.967468
-236.322495 1129.786987 -15.331381
-816.403809 1205.651123 -514.190430
-887.630371 1078.252441 -554.461182
-399.481567 904.167114 -430.185791
-314.372406 1147.226440 -81.519272
-442.396667 1168.989868 -177.650421
-845.895508 1119.168823 -579.059631
-382.327911 1112.785645 -236.834641
-249.862167 1066.010376 127.762894
-585.857117 1144.228271 -759.029236
-311.002319 983.485474 -413.573303
-855.252197 1147.194336 -485.836975
-318.734558 987.094910 -380.957397
-456.143127 897.927185 -362.937103
-903.709839 1110.156128 -486.909302
-726.450439 1210.126709 -454.840210
-425.943054 903.380615 -363.013031
-645.846069 1272.221680 -627.945801
-496.128082 872.224670 -296.063232
-715.059204 1269.438721 -537.870667
-895.056396 1138.505249 -505.834900
-414.018036 945.039917 -346.241394
-896.108887 1163.195313 -461.557617
-174.378311 1114.096313 9.042977
-795.577026 1099.738647 -600.867554
-513.058594 872.742493 -335.329376
-449.548523 899.917480 -363.853760
-807.451416 1087.929688 -599.714905
-609.138428 1200.663574 -693.159912
-313.165466 1157.072021 -75.158241
-636.809998 1259.510376 -606.488892
-447.403107 1091.966187 39.081100
-386.572144 1066.031494 124.752571
-185.187363 1125.471558 -1.362567
-919.552673 1155.730713 -407.936798
-237.554199 1161.978149 -76.215332
-907.166504 1117.699951 -462.779510
-535.460876 856.135010 -277.736206
-220.495956 1082.008911 132.329422
-612.297119 984.834595 -110.432396
-854.235474 1155.128540 -487.458923
-467.027161 863.396423 -361.338562
-350.604095 1103.278809 15.907192
-565.159363 1164.572144 -751.542480
-405.952057 933.331055 -370.025665
-322.437805 1074.091309 133.370850
-651.685669 1242.851074 -456.946228
-596.511230 1061.246460 -75.427376
-247.996185 1085.098511 77.635391
-695.837769 1102.826904 -620.635376
-720.992249 1134.403564 -606.577209
-594.002319 965.538025 -185.026993
-672.610474 1163.160400 -669.402649
-795.214355 1015.645874 -658.264893
-351.339569 1147.176514 -251.509171
-126.878700 988.659302 -257.288361
-486.853027 984.964417 -271.629425
-432.051056 907.087036 -339.680756
-515.376160 1130.500366 -121.607819
-809.168640 1066.206055 -611.705505
-557.627014 1126.672119 -111.226089
-393.400879 934.565796 -364.825623
-300.869110 1124.295044 2.235124
-892.873535 1095.658813 -447.775726
-675.147827 1135.718018 -662.411194
-241.037750 1103.756836 47.917171
-574.169373 1293.231934 -569.790405
-208.468170 1072.389893 120.073112
-159.348846 1117.763794 50.424328
-524.166809 987.706055 -227.353561
-828.310486 1330.293335 -364.501892
-368.251251 944.381165 -404.239990
-434.351349 896.727966 -414.165436
-629.870239 1159.460938 -707.035461
-623.316833 843.411072 -206.019287
-890.165222 1372.481567 -343.328735
-626.499390 987.758606 -124.838959
-829.798828 1055.400513 -604.762634
-515.402588 1095.125977 37.284168
-450.886719 1039.461426 128.289902
-759.133545 1170.905396 -585.731995
-274.882294 1164.071777 -77.085052
-222.684143 1096.488037 137.936646
-687.919067 1059.862793 -647.567322
-841.195984 1092.208740 -551.029846
-220.882431 1086.530151 99.805458
-424.299744 978.659668 -296.395874
-364.437500 960.574097 -361.840729
-654.030945 1053.769897 -738.827942
-337.213806 1053.086304 150.691010
-600.783691 1444.065186 -537.967041
-456.468597 1106.624756 36.015244
-396.979584 1068.999756 117.496819
-344.281982 1064.203247 149.726059
-697.345642 1146.342773 -672.183777
-175.093979 1118.045166 -15.637429
-570.752625 1196.181763 -743.145935
-354.372833 1110.208496 0.643877
-597.620911 1446.412109 -507.967560
-487.301666 888.019287 -312.072937
-405.542847 1117.164307 17.054743
-574.627197 1278.972412 -662.205627
-851.333252 1141.339355 -529.179810
-795.145630 1123.948975 -559.924988
-368.398834 1125.402710 -13.468294
-745.987000 1118.372803 -639.323303
-422.138611 954.185181 -313.830902
-682.626587 1192.001587 -655.525208
-463.407928 1276.433960 -647.896423
-676.987793 1100.536011 -708.376892
-294.107056 1068.266724 116.020622
-573.504822 1333.672607 -625.914246
-570.293091 1293.698608 -669.678833
-542.191223 933.369629 -233.817520
-264.052551 1065.480103 130.125885
-314.824402 1105.871948 54.036633
-470.799347 899.747131 -342.207733
-518.761230 984.332458 -209.025040
-366.376770 1019.776306 -337.246613
-343.633240 1165.418945 -60.882839
-504.820770 909.501953 -304.071228
-392.605103 943.987915 -336.753510
-398.560699 948.271545 -354.971191
-488.365845 1049.599243 126.148361
-145.938782 1109.297485 31.473883
-350.463776 1125.037354 1.122574
-389.554108 1085.074585 90.661629
-744.007263 1024.936523 -719.715576
-353.726074 956.334106 -422.259827
-472.559814 1327.282104 -663.929016
-451.053711 867.108459 -419.754425
-455.225342 1007.060547 -269.503021
-730.868408 1093.094482 -669.231628
-262.874847 1104.743164 76.866150
-569.493713 1298.238647 -571.526611
-912.880310 1107.649414 -459.808136
-251.863739 1055.746094 177.670059
-150.894897 1106.607788 90.819870
-834.716125 1073.480835 -569.673584
-682.641235 1142.061768 -667.020691
-534.696716 843.744446 -299.164581
-736.132629 1016.025330 -686.077820
-542.915955 1137.443481 -117.052414
-465.407043 963.512695 -302.447815
-723.292358 1079.504395 -681.010315
-409.784210 1198.860474 -149.443558
-680.549744 1185.071167 -625.756104
-391.574402 948.899841 -345.284302
-583.343018 1188.213867 -741.278748
-560.120667 1238.353638 -709.164185
-390.207092 1118.271851 -33.779404
-655.830261 1393.589478 -475.759644
-588.501892 1419.508911 -515.278076
-242.302429 1093.115479 163.824173
-346.002472 1066.257690 112.157265
-733.839233 1067.028931 -674.507568
-166.748154 1103.856323 29.096775
-635.804321 1286.201782 -448.639954
-726.957703 1190.468872 -445.961121
-486.374969 938.234497 -254.480133
-451.769653 1124.242432 -175.595230
-460.072876 1121.814941 -3.198925
-684.648376 1154.093262 -656.318420
-385.521790 912.822693 -385.948639
-613.400940 1098.124878 -756.840637
-726.025635 1020.937317 -713.989990
-655.979797 1106.558960 -720.060059
-154.694611 1118.159180 -8.682529
-653.836731 1183.885254 -673.452637
-283.515717 1128.873535 -17.701773
-494.900635 1338.205933 -609.831909
-692.578003 1210.569702 -562.007690
-391.717865 1127.044556 -52.902138
-779.948242 1198.726807 -526.162476
-914.418701 1104.078247 -484.666626
-362.573303 1167.943726 -61.485119
-387.107208 1136.486084 -51.300575
-238.805283 1087.008301 81.428963
-630.775940 859.416504 -209.365082
-367.161346 1062.062378 139.004456
-676.245300 1199.514282 -663.296509
-260.734680 1115.617676 1.722627
-798.232117 1189.615234 -539.099365
-390.753418 995.408630 -324.569489
-642.247009 1303.018677 -568.580872
-683.346802 1322.980225 -546.564514
-229.121521 1159.880737 -88.339104
-143.790619 1115.663330 47.885910
-383.109253 1086.141724 65.049461
-360.452972 1025.807129 -310.090820
-360.934113 956.222412 -438.573334
-552.300415 1107.086914 -81.814224
-262.871826 1122.039429 -23.043427
-588.199890 847.554443 -264.960632
-474.874908 1308.837158 -723.618530
-687.133362 1084.638184 -606.379333
-456.507507 1062.736694 127.595970
-526.518799 858.423157 -361.324402
-302.004333 1063.751709 -360.630585
-722.821899 1063.447998 -702.844299
-283.571960 1170.291626 -81.762016
-413.247253 864.656006 -411.354980
-298.257385 1098.834106 71.833282
-678.057556 1191.263184 -428.795258
-664.994324 1198.621216 -670.808777
-524.873962 938.550354 -218.004974
-613.858154 1378.284668 -568.691101
-404.836884 917.503906 -436.891083
-550.599121 1136.341797 -88.266472
-431.927704 1072.582886 107.732864
-410.628876 892.528503 -404.356903
-156.065765 1117.376587 101.231590
-407.653320 1192.252319 -66.996666
-358.529999 976.728027 -342.518646
-492.863525 1105.034058 20.107925
-567.767212 934.903198 -189.050400
-400.346527 1099.657959 35.872334
-807.997314 1042.494019 -628.278198
-351.208557 1097.869995 38.165901
-572.486877 857.888000 -261.791962
-246.209274 1097.565308 41.439293
-572.476746 914.789185 -199.224518
-508.332886 1342.860474 -670.119324
-880.917053 1122.205444 -509.445557
-475.248322 862.010132 -367.621399
-551.351440 837.741943 -333.245667
-237.662964 1143.339722 -41.763092
-529.495789 1301.174194 -617.362305
-649.567200 1115.341309 -695.828552
-343.316467 1157.035889 -56.650387
-808.752808 1222.497314 -472.430237
-160.949600 1120.634399 -12.925697
-801.386230 1123.837402 -614.815308
-635.115845 1313.905273 -583.398926
-589.077759 1613.318237 -420.007751
-355.886444 977.468872 -365.297638
-427.185486 1064.125488 94.349953
-660.042358 1262.077881 -626.276733
-172.978210 985.605652 -245.174026
-635.684631 1060.459229 -749.897705
-477.820862 925.841675 -284.246124
-876.641785 1135.807251 -517.830750
-493.286896 996.923401 -225.934143
-430.667175 908.113342 -342.699097
-571.930786 1015.209229 -152.981018
-305.548004 1046.511230 155.395676
-438.622070 1127.288086 -190.585587
-710.467590 1270.163208 -409.069885
-808.542725 1140.416870 -563.660217
-456.170654 1149.046509 -179.196121
-487.631134 1068.852905 71.409912
-345.298004 1078.860474 117.539085
-253.790237 1064.277588 132.275223
-462.138214 1095.741211 33.845154
-679.139282 1024.217407 -758.200256
-720.148010 1035.633911 -711.020630
-309.113464 1056.420288 -333.235443
-369.094543 1153.469360 -37.114155
-386.475830 1095.440308 53.340481
-760.945557 1223.346680 -535.741760
-423.429810 1010.351318 -259.905060
-604.047485 1290.643433 -614.955627
-364.599213 1145.592163 -228.147415
-525.435364 1313.510376 -607.196106
-242.222443 1049.394653 161.849991
-624.923828 1261.739136 -638.495056
-405.062897 1202.875732 -172.784439
-303.427216 1130.832642 -34.314045
-695.709839 1020.056458 -740.086304
-924.647034 1301.930420 -358.313263
-678.407288 1082.777222 -684.823792
-835.565857 1172.268066 -510.363342
-745.140991 1039.333374 -659.562012
-977.678101 1059.815796 -438.189636
-483.991730 974.998108 -280.001984
-296.679504 1061.706543 123.774582
-280.548523 1137.649048 -22.824333
-293.650146 1085.224487 107.865158
-568.226746 856.520020 -249.958740
-367.606873 973.109192 -368.751221
-505.148041 1352.865479 -655.199280
-208.329803 1136.702148 -24.534658
-874.734558 1167.382935 -455.404327
-491.778046 975.399292 -247.325485
-619.627991 1302.264282 -614.832336
-557.276245 825.593262 -317.384705
-463.100708 1336.310669 -712.539185
-653.263794 1288.603271 -507.909821
-826.223206 1198.510010 -469.586761
-364.611542 1116.243530 -270.244141
-459.947754 962.668396 -275.095795
-286.448181 1068.368042 -349.477966
-311.687317 1043.312866 -372.916260
-601.930786 933.245605 -183.933762
-388.947845 1061.365112 102.484215
-948.036316 1111.072876 -460.440155
-352.096436 1083.043945 96.538696
-672.070007 1087.823364 -715.609253
-551.270386 848.642395 -298.730896
-858.649841 1194.915161 -392.869110
-287.655090 1156.433105 -61.366497
-288.708923 1104.829468 51.721523
-626.514648 888.323486 -179.569504
-618.339417 1143.246704 -722.996521
-493.255646 1309.703125 -723.146790
-843.927490 1170.022583 -473.872131
-471.520081 1159.653564 -141.842392
-453.725525 921.529785 -316.743713
-561.462830 1297.184570 -645.366577
-649.766052 1086.290405 -715.177917
-646.649292 1286.094116 -613.755310
-633.997375 1122.842407 -725.851929
-646.919922 1237.858643 -615.046326
-488.326172 1054.680908 116.720421
-680.749023 1192.268677 -619.961731
-596.734619 1055.015259 -120.987167
-571.304382 1050.962646 -140.487183
-565.619812 859.326660 -265.851349
-506.704163 849.774353 -349.522156
-448.480011 883.855774 -343.874725
-802.314148 1202.188965 -486.287750
-519.897583 1281.834351 -702.955811
-696.081604 1260.173828 -595.196045
-475.637726 1002.626160 -269.542908
-282.435791 1186.878418 -146.213501
-685.368042 1190.545654 -652.634155
-656.521118 1258.790039 -606.754089
-304.510681 1114.833618 51.265553
-483.152985 1065.589233 78.773972
-446.650879 1108.184448 -195.606750
-346.763702 960.087769 -397.652374
-872.005554 1233.712891 -400.886505
-518.134583 1313.145020 -631.270874
-667.955383 1086.329590 -670.014160
-589.010193 859.394043 -274.650085
-367.900970 1005.530090 -314.122009
-676.348877 1107.609863 -705.167603
-162.058075 1104.189209 25.336323
-391.953278 941.562927 -383.527496
-675.214478 1229.014526 -590.883179
-307.388367 1132.200317 -20.732327
-414.829590 1049.885620 -280.688629
-752.595764 1157.903076 -601.075806
-553.327576 1457.036499 -423.463318
-643.126648 1350.926025 -484.414490
-360.344543 1037.087891 185.848846
-978.309387 1120.141357 -411.830444
-425.991608 1112.912964 21.191700
-482.305511 964.649048 -253.774597
-613.020264 955.392639 -149.493759
-657.390808 1284.705566 -608.556702
-556.786011 1039.023926 -152.601456
-493.834015 918.966614 -284.389099
-429.880066 914.436890 -339.290741
-581.311951 1594.155151 -428.768250
-883.629333 1133.912842 -502.562286
-634.887817 1151.702271 -706.084595
-611.362854 1165.364014 -717.896240
-609.890320 1150.948486 -726.241943
-423.547882 1106.169678 38.306889
-561.633728 1574.233154 -444.916107
-616.231079 1075.136230 -504.713226
-521.732788 1301.606934 -680.446289
-442.122498 899.504578 -357.747650
-677.544800 1257.398926 -564.691895
-913.090210 1042.370728 -513.719788
-903.963196 1162.343750 -479.481415
-759.645935 987.692932 -702.301819
-453.807922 1054.507813 155.769287
-492.759369 859.212341 -353.338135
-205.622330 1133.129883 -18.598667
-409.040863 960.409241 -325.052704
-909.906921 1110.667480 -450.582916
-597.879822 1611.794067 -411.928406
-633.341370 1166.348877 -699.776733
-412.767670 1109.287598 -216.850922
-374.232819 930.675293 -383.191132
-614.074341 1396.391357 -509.471100
-507.612915 1004.301941 -195.148453
-187.794357 1087.489624 66.847374
-682.880493 1080.940796 -674.054993
-525.167480 842.816467 -313.831757
-295.654419 1139.453857 -38.975243
-466.859711 1076.739746 87.097366
-485.960297 1346.370850 -698.386047
-625.850891 1197.637451 -663.860352
-451.087097 850.880005 -405.695374
-505.284973 1286.708740 -734.301331
-924.253174 1312.339722 -366.697784
-513.904724 873.794922 -304.059052
-538.887512 858.724976 -293.156525
-424.307648 1089.266846 -239.916336
-348.850922 1050.709839 202.069809
-349.932404 1061.402832 128.510056
-651.549988 1084.270020 -719.567627
-539.138672 1287.270630 -615.071594
-711.052307 1161.611206 -613.921936
-666.705322 1615.265259 -310.119598
-385.011139 1079.263306 103.156250
-356.084015 1115.707886 -277.679291
-372.498291 1141.702881 -27.527918
-693.092712 1221.903198 -571.866699
-452.261078 1354.475098 -710.336304
-525.239868 1120.421265 -126.695274
-385.142548 915.382080 -419.581116
-177.097946 1105.631958 84.779716
-348.077209 1149.606689 -82.576942
-478.751831 866.310425 -360.405823
-566.505127 1296.006836 -641.620483
-414.189575 1189.669678 -166.100845
-816.388977 1122.638672 -546.586426
-207.078827 1174.907837 -107.827049
-291.766174 1080.419800 100.160744
-373.026215 1022.514343 -326.315338
-316.278870 1041.374390 -340.280579
-581.445251 836.244446 -266.003204
-568.148193 1611.643066 -431.680664
-854.194641 1047.415649 -586.741211
-258.661896 1191.168945 -103.561119
-369.072052 931.008057 -401.340607
-517.987488 1126.292358 -136.704437
-581.251831 1243.446655 -706.917114
-482.847473 1361.803101 -700.855286
-858.539673 1123.236694 -551.281433
-422.804474 1182.548462 -170.081299
-828.180908 1152.641968 -413.253937
-566.484619 1518.285034 -431.030762
-348.933838 1011.644958 -345.243927
-213.595276 1103.050537 45.223068
-244.145691 1089.269165 157.121292
-736.358215 1237.611206 -468.070526
-773.485718 1024.954224 -673.476196
-575.225891 1169.431396 -740.006226
-629.649536 1254.873657 -658.390503
-623.835632 1276.552002 -618.058838
-449.196259 1101.654785 50.936920
-428.327362 1006.563904 -254.431686
-577.858215 1045.793091 -138.797226
-648.829834 1458.333374 -485.422424
-609.887695 1637.505981 -377.047180
-446.886688 1067.156250 119.697952
-432.071899 1134.679321 -6.809736
-560.900208 1262.490356 -707.357239
-887.613281 1179.964844 -458.950836
-536.906921 1013.060303 -161.967438
-246.634735 1100.200195 52.044418
-713.937988 1051.567505 -663.132568
-785.172241 1177.859009 -572.248535
-412.058136 1171.896362 -211.361221
-350.464508 1043.119507 159.912460
-836.667419 1176.843872 -411.721741
-355.856750 959.204529 -460.446869
-497.734222 850.346863 -324.939941
-174.425949 1112.910889 41.673569
-183.597351 1081.069092 90.941620
-536.256226 871.499756 -301.207825
-805.242188 1037.383423 -653.531860
-686.826660 1153.259277 -663.904785
-697.657227 1394.542236 -430.634186
-462.383423 968.253113 -277.355133
-332.527832 1092.974365 63.132919
-250.608261 1142.792969 -40.812847
-878.689392 1276.880127 -399.908081
-463.424957 925.617493 -297.944916
-601.475464 1124.563843 -761.717407
-304.194122 1051.157593 175.709564
-631.695801 1199.206787 -680.425842
-670.987854 1091.868774 -647.229309
-580.398560 1395.045776 -540.445862
-531.822693 1013.557739 -182.206421
-278.138153 1157.250488 -59.514229
-310.578949 1150.753540 -44.826176
-636.437256 1363.310547 -540.747437
-733.339355 1051.704468 -661.446777
-673.234253 1106.106812 -702.787781
-562.410950 1024.688843 -178.690109
-851.936768 1196.094849 -470.414520
-681.063232 1416.559204 -421.152222
-169.905396 1101.240845 63.580376
-796.710205 1033.256226 -670.546631
-158.961609 1134.293457 -2.049891
-409.828339 1111.657104 33.482975
-649.659912 1095.844238 -708.783752
-413.510559 917.331726 -361.080353
-530.806519 1024.620850 -198.537125
-745.014221 1068.816895 -633.170898
-822.749146 1234.488525 -477.269348
-718.303650 1051.924561 -698.342773
-490.995667 851.074219 -377.604950
-457.860046 1150.328125 -21.977823
-857.795715 1339.807983 -364.704803
-251.351547 1061.749023 140.365921
-388.361084 1080.701904 -268.226440
-236.958023 1082.593750 92.354652
-434.091248 924.737854 -343.915833
-408.902130 1067.643433 115.167465
-247.681305 1078.234009 80.194496
-782.097351 1133.586426 -609.811096
-731.922729 1009.066467 -714.753174
-261.110474 1111.195923 31.327278
-468.046936 1167.866821 -137.130737
-661.398315 1036.072998 -747.047974
-503.884705 1311.907349 -615.589172
-618.030273 1157.712891 -697.249084
-696.265564 1093.576172 -633.551086
-710.844604 1143.395508 -627.298218
-563.281799 1225.484741 -715.030273
-528.286743 965.776428 -244.434067
-447.173828 1079.080322 66.909523
-159.955399 1074.254761 -211.434219
-439.614410 1052.390991 121.892075
-365.543549 938.656433 -400.318604
-602.551331 1251.865479 -685.456055
-159.243988 1115.464233 35.893799
-971.608643 1134.314575 -420.250610
-451.177917 1112.680298 -12.607932
-705.283447 1055.181152 -668.721313
-353.141144 1044.290649 171.281494
-260.831787 1068.135742 107.608910
-754.167969 1149.709961 -576.835632
-397.981812 1043.421509 135.124344
-343.000366 986.620850 -397.647522
-291.220612 1176.997314 -101.151154
-468.438904 916.624084 -303.462280
-872.302368 1123.304932 -513.701965
-383.514771 1102.110596 12.659613
-792.916626 1111.641724 -597.236267
-929.646912 1299.823730 -356.106934
-839.619324 1188.921021 -510.233978
-353.856445 1081.840576 102.722839
-436.898102 1019.547302 -258.227539
-500.474701 1374.902466 -623.190735
-245.183151 1139.194458 -66.561432
-543.133301 902.437195 -249.908539
-631.167603 1173.230225 -707.568420
-469.245575 852.387329 -393.285400
-640.651978 1316.006470 -588.998535
-379.764130 1044.775146 147.341187
-376.660522 1068.178833 -267.030823
-707.032898 1182.203491 -605.950623
-229.047852 1085.476807 69.097023
-174.111053 1100.110474 101.756203
-740.296814 1198.035278 -558.022766
-451.256866 1379.655518 -694.941345
-456.734253 1066.851685 122.783180
-565.771606 823.428772 -331.058655
-461.035614 975.794983 -270.625275
-410.791931 1034.068970 -301.439636
-783.135193 1207.514160 -534.080688
-381.770691 1120.618164 -21.618111
-393.846954 1029.415527 -287.169281
-526.417664 968.343994 -251.555984
-284.744904 1101.659790 58.749939
-159.946503 1120.731812 9.839287
-399.880951 1115.153809 -5.477523
-406.081665 945.889221 -320.479950
-314.271057 1052.605835 -352.562500
-635.368286 1210.714111 -430.316345
-367.345642 1053.037231 -282.454620
-362.907501 999.248352 -337.288605
-523.749451 1160.109253 -103.172409
-771.541748 1036.482056 -667.510132
-659.302856 1389.874390 -501.066101
-412.541962 1053.766724 120.948166
-405.415009 915.559753 -367.252289
-419.770905 1113.390259 32.442310
-265.486206 1076.736206 136.797165
-381.366302 1047.279907 179.006989
-592.461365 1277.746704 -632.015320
-359.472931 1127.459229 9.659809
-641.432556 1071.256226 -737.939270
-564.934814 839.096191 -320.627472
-620.704712 1286.963257 -597.198181
-163.228027 1088.670410 104.464928
-765.148804 1063.910645 -626.772278
-699.679199 1155.953247 -565.410583
-402.756195 1120.875244 -216.446655
-693.893555 1013.421082 -748.845947
-397.014801 1050.143066 132.327896
-562.999817 1280.441406 -690.625793
-392.213745 905.464722 -396.358978
-628.709106 1307.517090 -603.615540
-631.016052 1214.097900 -669.867920
-852.222290 1112.706665 -570.549377
-871.828796 1070.337402 -536.341370
-344.097839 1080.561035 96.343231
-228.732437 1087.688599 81.264503
-302.452179 1073.413818 -318.702606
-557.034607 843.213501 -268.835876
-271.946899 1059.862915 142.000061
-306.522003 1195.669434 -256.997070
-589.385559 1315.338013 -634.762695
-417.832245 1021.804016 -258.548340
-306.548370 1026.688477 -366.343018
-241.710831 1109.975952 60.299129
-154.447540 1134.441040 -42.703751
-384.896606 1161.681885 -51.712288
-647.600098 1263.886108 -619.878601
-494.440552 1145.437988 -136.719910
-703.854980 1022.148315 -700.968750
-532.169800 848.682922 -291.989685
-511.088654 905.823792 -279.563110
-913.882690 1260.594971 -395.670227
-495.943878 1326.487915 -606.069580
-471.790039 969.865417 -267.965485
-408.509705 889.776855 -423.036316
-194.795441 1117.818359 -15.045020
-599.310059 1331.552368 -536.240784
-627.445801 1151.184082 -728.065430
-596.907043 1243.326294 -674.294617
-213.430069 1109.153442 28.094336
-527.807312 1382.809326 -618.588684
-581.296875 1113.075073 -98.994759
-567.933350 838.300903 -341.286377
-712.296875 1094.225952 -625.102539
-394.443542 892.115051 -442.929718
-494.113525 1317.445313 -712.730225
-549.254211 1271.515747 -585.085571
-191.767227 1088.417847 59.135136
-921.161865 1115.474243 -436.873047
-306.540619 1043.007935 193.019730
-496.936066 860.060730 -319.196289
-654.992310 1106.241943 -546.099976
-524.890442 990.070801 -189.410080
-491.648041 1312.758545 -710.509888
-183.405518 1143.084229 -81.118851
-562.939270 1086.402588 -126.710640
-617.160339 1653.704224 -364.136139
-855.531799 1126.406128 -534.334412
-615.551758 1103.008545 -757.744934
-683.608765 1075.908203 -718.222534
-489.914673 995.191528 -263.120972
-683.285461 1157.511597 -604.779541
-537.876160 1093.307861 -135.804306
-484.951111 1316.695313 -733.003235
-483.204376 1073.591431 80.892723
-460.270599 1014.296753 -244.992874
-840.035339 1213.396484 -462.124420
-487.819580 963.909668 -232.787308
-285.315094 1094.972046 -325.433044
-920.670593 1114.571167 -428.148956
-445.724121 1070.994873 86.850098
-211.313492 1110.991211 10.332018
-461.155731 1350.292114 -726.724121
-637.871765 830.287537 -258.719574
-435.736694 1099.215576 -207.760590
-953.509460 1099.702393 -460.954041
-900.453735 1148.951782 -451.898163
-284.783569 1032.508057 -354.912689
-403.599182 1041.854248 -252.588440
-675.418457 1166.734619 -641.509277
-510.147919 858.352234 -358.269196
-445.947174 981.896912 -282.149658
-831.469666 1194.346069 -500.700562
-286.457947 1099.288086 52.116737
-458.046478 878.963013 -360.482819
-611.342529 1298.611450 -626.022888
-400.803375 906.755615 -394.789825
-549.373657 861.968445 -273.613098
-544.934082 1305.307495 -588.344360
-564.359131 864.066833 -259.741821
-581.909668 1482.605103 -471.352722
-485.100677 893.794495 -335.011047
-468.600586 1090.543579 44.748631
-626.763306 1121.963623 -746.927551
-690.064819 1129.449585 -624.391479
-309.654419 1062.282959 147.002670
-548.409790 850.608459 -288.256683
-155.701141 1129.393555 10.420519
-508.901978 1304.411987 -640.496277
-268.967438 1114.984253 10.402153
-522.615906 969.605164 -219.499649
-250.412079 1181.858032 -136.078690
-869.270752 1054.559937 -545.243103
-608.378052 1313.317627 -571.030273
-701.477905 1054.817261 -697.415161
-610.719666 1342.602051 -511.356720
-533.526306 917.045288 -279.585297
-917.552979 1230.136108 -390.873322
-197.865036 1086.407959 92.760124
-268.758118 1093.866821 69.031403
-800.890564 1047.824829 -647.634094
-603.914001 1288.668091 -579.439331
-537.365723 892.992126 -267.052551
-789.433472 1107.730225 -621.384583
-649.444031 1171.058960 -681.815369
-693.343445 1246.839233 -547.576599
-640.833313 1277.127197 -614.457092
-191.596054 1112.335083 13.610484
-557.838806 1178.945190 -728.440430
-171.179260 1115.335693 24.426367
-562.891296 967.272949 -197.105087
-516.173462 844.391846 -362.707489
-484.837982 862.655334 -359.630798
-666.378357 1092.760986 -683.088806
-376.838837 1110.620605 37.656830
-326.184845 1123.468384 -292.076263
-458.199890 896.557556 -328.173431
-459.536377 1064.682129 -193.474136
-677.882141 1219.736816 -648.450806
-214.395035 1080.231689 79.566132
-399.390198 1084.297729 -236.877670
-435.350250 1018.759949 -258.636200
-560.430725 1633.105103 -400.878387
-199.261658 1112.233276 13.518819
-136.863464 968.620361 -266.476654
-856.579529 1186.053223 -458.750671
-694.461792 1192.285278 -607.769104
-552.976501 840.151062 -335.299805
-360.954437 989.722168 -360.079041
-305.809357 1068.726440 122.695381
-608.364319 1324.542603 -610.289917
-295.802979 1083.817871 78.302795
-274.925964 1180.375610 -101.312294
-378.847961 963.646545 -368.909851
-523.235168 955.315369 -208.749969
-350.023193 1099.955444 39.771221
-673.325195 1284.618164 -592.658081
-779.083740 1092.419922 -626.169678
-401.320740 1117.438354 -2.349794
-665.049866 1266.442871 -403.802643
-489.072479 1292.331299 -648.357788
-307.941284 1130.257568 -12.178729
-503.039154 1105.016846 -128.806747
-320.254700 1202.979370 -118.767960
-418.826263 970.213257 -286.827209
-313.764862 1118.448975 -313.453796
-654.685913 1137.618896 -701.472473
-553.289001 1261.782471 -697.253052
-373.505707 942.798950 -365.864746
-630.942139 1194.860474 -461.447815
-376.685181 943.958374 -352.109406
-523.766235 1310.044800 -640.989807
-646.282898 1070.673218 -754.731628
-911.047852 1100.082886 -454.529297
-621.802856 853.658813 -221.283813
-714.220886 1162.911743 -567.293640
-712.682434 1203.221680 -583.423767
-825.306335 1103.325439 -590.680298
-357.014069 1147.980713 -25.138420
-790.242249 1032.705688 -669.301208
-777.688477 1055.636597 -641.162659
-517.551147 1280.381592 -680.777527
-546.585205 936.853088 -201.480972
-382.874207 1175.637085 -73.010788
-352.310913 1109.270020 33.291885
-630.073792 1065.532959 -526.102600
-235.367996 1108.698853 25.376812
-516.018616 1090.554321 45.145794
-584.363708 1471.627686 -504.190826
-341.905853 1026.997803 -334.888763
-282.926086 1065.860840 119.813362
-136.234314 1037.732422 -209.584366
-907.873962 1093.272095 -481.234711
-187.903259 1098.300171 84.028778
-583.077515 1270.464233 -683.012207
-689.884521 1055.164063 -655.012939
-545.156006 1629.902954 -416.306366
-898.965515 1122.980835 -454.167969
-818.999451 1198.173462 -512.448120
-900.006653 1093.960327 -537.698792
-245.973404 1110.954346 18.496630
-476.102600 860.899597 -381.928375
-406.397308 963.655762 -338.562592
-349.269592 957.780212 -395.689667
-557.344299 1393.872925 -583.487610
-901.528809 1107.455811 -471.871002
-524.784241 857.890198 -314.160583
-848.602173 1186.513672 -458.204926
-537.828430 1302.657959 -685.041748
-186.388168 1119.120117 10.349705
-281.118256 1127.382324 -307.850739
-610.027344 1027.689575 -122.879242
-908.145935 1086.724487 -513.176941
-677.308411 1418.953613 -507.402191
-455.607391 1040.354858 -244.193802
-206.437637 1075.754028 125.745926
-583.717834 872.633545 -266.216553
-692.811462 1164.411499 -649.900513
-801.943787 1030.530518 -641.438782
-609.528137 1307.246704 -556.360474
-421.325409 1019.248596 -265.090973
-531.316650 1390.862793 -629.133484
-604.731384 1477.770996 -507.111572
-561.000244 971.206116 -191.163971
-790.138611 1049.630615 -643.673767
-769.804810 978.953186 -703.723938
-595.315796 1292.600464 -647.656921
-473.371765 1378.011230 -678.742126
-633.225586 854.040161 -217.386963
-689.253052 1009.484375 -753.912354
-457.936249 1119.041260 3.612597
-356.758514 1135.824219 -13.621332
-379.292694 1202.342407 -107.192200
-608.291931 977.804932 -119.897835
-678.407654 1062.233398 -739.218689
-444.825378 1098.013672 45.596165
-642.573914 1116.876099 -738.350952
-683.112000 1103.914673 -648.357910
-612.013489 965.076599 -141.560379
-395.983002 957.035828 -333.797852
-254.471481 1076.301392 95.933640
-520.893616 1095.273926 -180.533096
-504.278442 1089.602539 50.718597
-246.269333 1102.380249 54.693718
-360.320221 1113.558228 -261.930542
-500.676208 867.604797 -296.575958
-478.087402 1079.518555 61.000099
-433.783508 921.793701 -342.612488
-578.823669 1478.328003 -503.581360
-484.114899 1063.574463 -212.492966
-484.553314 1112.352051 5.616758
-960.717468 1200.049683 -395.127747
-679.289673 1058.894165 -729.041138
-573.561829 1062.042358 -119.623978
-612.078308 1117.091431 -750.969727
-550.349915 1111.088013 -104.282402
-532.425476 1309.734009 -660.513916
-559.947754 1202.806030 -740.980591
-506.133209 1314.520264 -666.831909
-775.498840 1243.475220 -510.784180
-713.645081 1040.392334 -712.827087
-568.710327 1313.531494 -546.061157
-475.889648 921.716919 -318.902527
-175.313782 1141.322754 -29.742455
-437.453491 1077.318481 -218.709763
-748.549133 1006.687256 -700.929382
-402.735748 902.197693 -384.488129
-640.928223 1285.589233 -460.091370
-683.666626 1092.718872 -682.476318
-801.350281 1192.613647 -540.667908
-518.030823 868.917480 -304.754974
-410.418091 973.933838 -309.949249
-514.623352 949.746094 -245.562439
-574.630188 1317.046631 -550.619202
-422.226898 1026.339478 -290.100769
-439.631104 1080.339355 108.153534
-363.161072 978.489990 -355.141998
-817.637268 1076.990479 -614.444885
-622.608032 818.587646 -254.189667
-539.611145 840.014954 -349.351807
-864.024597 1134.704834 -495.654602
-572.409729 1531.368286 -467.649658
-837.440857 1378.136841 -388.367096
-558.655273 1291.690430 -642.916260
-786.463684 1242.116089 -509.952728
-621.656006 1351.311035 -536.359009
-521.770752 1036.339233 -199.586548
-314.141418 1144.136108 -36.348274
-391.882324 1129.779297 8.531618
-517.260376 1326.666626 -655.991760
-726.881165 1114.575928 -609.249146
-306.833221 1047.997925 -349.440277
-396.707581 1066.032715 119.060265
-854.751587 1030.086792 -594.215820
-335.326599 1084.121826 81.156189
-340.499817 1126.539429 2.997715
-279.236969 1056.536987 157.542511
-509.476807 1124.982544 -152.746674
-678.017639 1084.230957 -706.625549
-849.382080 1086.888428 -582.939636
-585.153320 880.239136 -236.794556
-555.281982 1294.184570 -591.875549
-403.029236 1042.740845 -269.737427
-443.507050 927.215942 -346.778046
-880.441528 1117.795288 -549.191101
-369.356476 1115.626587 32.197388
-390.737823 1167.148071 -54.450901
-571.310364 1291.733521 -633.130859
-547.865234 1027.412109 -145.078674
-689.124451 1223.379761 -611.285645
-185.789261 1136.866821 -21.403505
-669.861023 1034.884277 -756.740601
-814.044495 1094.347412 -624.055969
-525.166382 870.642944 -290.040802
-710.527039 1204.510254 -582.424927
-212.471603 1115.199707 40.498604
-615.773560 1187.098267 -698.698914
-779.920410 1049.000000 -652.626038
-480.285431 1096.991211 42.067577
-699.559875 1139.561768 -581.048950
-594.690430 1002.139099 -139.379547
-450.395508 957.996033 -286.275482
-246.051392 1094.901123 62.484398
-594.016296 1285.770630 -636.732971
-524.950378 1001.511414 -218.139359
-812.665466 1162.471802 -436.209473
-619.194580 1412.735474 -454.135193
-407.628387 1161.635376 -198.934113
-277.802155 1151.037231 -61.674587
-773.955566 1037.793945 -667.545044
-549.602844 910.853882 -259.394409
-472.663757 1115.477173 -202.430176
-484.469543 1109.382202 -14.410707
-463.714050 1000.751038 -246.202591
-683.824341 1127.137451 -685.112244
-579.966492 841.965515 -288.821533
-629.391846 951.092712 -149.180038
-868.024414 1093.146484 -427.229156
-664.840088 1287.226074 -483.089203
-646.973206 1074.527588 -755.116089
-314.834961 1096.637695 -293.729370
-375.314667 948.232971 -380.212494
-555.027405 1371.691162 -579.895508
-600.919617 1155.042236 -742.428223
-935.110046 1253.506226 -375.143066
-793.974915 1193.426270 -536.849854
-350.610352 1127.371460 17.495667
-375.426575 975.288879 -358.198395
-498.732025 1283.967896 -674.607971
-871.926514 1100.428467 -537.188843
-448.759766 930.274963 -339.893036
-271.586487 1109.709961 30.261274
-412.877258 1068.973267 -246.078369
-226.176910 1141.979492 -27.882421
-325.523682 1021.376770 -350.700745
-246.264694 1156.589966 -92.855042
-690.651611 1146.611450 -664.343140
-558.971924 1315.054199 -636.186279
-591.284424 1297.230103 -524.373901
-529.856567 1295.750977 -687.278931
-640.531982 1629.799194 -339.815826
-502.074585 850.843018 -330.990326
-568.231934 1239.181885 -717.644348
-550.547729 1199.093750 -744.084229
-853.590088 1163.434814 -457.897888
-258.019867 1094.001831 108.053444
-476.953705 1094.991821 57.150585
-294.979462 1063.569580 203.183762
-777.105774 1235.860718 -520.814636
-363.018250 1037.266602 180.983963
-633.464783 1263.213989 -628.231201
-914.621460 1216.608765 -403.137085
-563.134705 1392.532104 -555.654114
-441.848389 1391.216309 -682.669800
-612.031372 841.440430 -320.773193
-909.226257 1118.441650 -467.776947
-470.493317 1346.199463 -693.804810
-377.153717 1077.032471 75.197693
-671.095886 1198.835205 -425.286957
-443.789917 1075.436157 -221.856857
-314.485718 1064.510498 -319.108582
-164.026794 1134.179688 9.978055
-792.294861 1038.701660 -643.942078
-378.300751 941.227783 -402.267303
-196.025101 1130.262695 -53.166164
-210.026108 1073.736816 117.139030
-476.441895 928.117554 -266.065765
-595.310547 1496.969604 -502.034943
-680.800110 1183.399048 -450.014984
-191.982376 1146.238159 -31.494692
-273.274658 1075.007080 139.019531
-168.287643 1000.808044 -229.298691
-457.926941 897.774048 -343.165070
-402.043396 1113.155884 -17.739853
-413.986755 1027.566162 187.021988
-403.628387 916.528503 -348.784546
-515.424194 1044.172485 -204.311295
-298.254456 1073.392944 104.935875
-288.430084 1163.927979 -116.551132
-481.710388 890.735779 -322.670898
-942.486023 1107.312988 -477.433502
-436.324524 1121.014282 22.948811
-249.694473 1170.672974 -113.879578
-565.102539 834.537598 -286.365356
-444.626038 906.486023 -433.427765
-270.023926 1183.731689 -139.261841
-611.483215 1224.806274 -655.447021
-882.052185 1122.798462 -510.573120
-478.401123 1299.795532 -633.068298
-471.634918 1084.134277 49.462639
-325.487274 1041.865845 192.237473
-236.309357 1129.494995 -17.249599
-609.899231 964.131958 -121.999023
-797.029907 1063.921021 -631.287476
-709.894165 1297.867188 -399.601227
-553.905945 1263.341797 -713.141663
-330.702332 1140.101318 -16.067526
-327.912231 991.735107 -389.974274
-227.169403 1070.353516 123.063896
-893.101440 1121.701904 -491.851227
-803.003540 1051.304077 -630.539368
-447.336426 897.453308 -318.690613
-605.843933 1290.658936 -591.203003
