ply
format ascii 1.0
element vertex 1375
property float x
property float y
property float z
end_header
986.862610 -500.850861 142.753372
1027.311646 -443.216187 -38.288338
1285.046387 -743.225281 -148.198044
1074.733521 -936.780762 -188.347626
1038.486694 -456.001282 51.873875
911.448181 -526.285217 -77.987572
1324.375122 -733.959900 -303.932556
1462.619751 -648.419556 -310.011505
1083.390381 -917.927063 -254.456558
1242.338013 -923.259460 -18.186827
1119.930054 -113.054001 132.121475
1152.814209 -885.283630 -189.917938
1088.883057 -2.233596 143.692581
1169.672729 -202.655136 8.843184
927.255920 -401.718872 211.475571
1001.815186 -433.183197 -106.647202
921.319885 -551.179688 34.453411
1077.817871 -117.437782 254.820465
1330.606567 -751.261780 -299.008484
1014.379211 -476.329803 51.139008
981.580994 -409.662384 -223.734421
1163.132690 -940.451599 -67.298508
1318.028931 -791.991272 -237.952438
1168.560425 -829.670532 -213.942062
1259.045288 -911.202026 -9.894388
1048.201904 -415.225067 -97.839073
1180.918213 -225.638443 65.354790
1296.943848 -901.143372 97.716888
1144.007324 -860.965820 -182.537277
1304.237061 -776.105469 -71.540260
1278.058350 -877.730286 -34.704815
1107.189209 -393.718994 -44.465836
1093.151611 -114.627159 267.495209
1202.131348 -839.227417 -149.961639
1067.533203 -383.817322 -142.957993
1294.255249 -664.449402 -381.431091
1157.543579 -671.495544 -93.290184
1270.113281 -954.416321 128.986923
932.421509 -544.444031 62.489811
1115.744385 -77.081390 119.254707
1183.100098 -845.904602 -272.871887
1165.368652 -351.498596 -125.702057
1218.748047 -769.512817 -413.278198
1157.668457 -411.725769 94.885658
1098.695557 -129.148178 204.965561
1100.753662 -935.196655 -203.358643
1144.897583 -82.707253 28.147606
1114.880371 -867.222839 -182.752701
1001.320007 -485.290009 10.503012
1100.622925 -57.846149 138.830811
1378.047119 -761.647766 -28.635170
1116.925171 -189.407288 224.133972
1056.728271 -919.310364 -294.755981
1291.048340 -822.811829 7.385994
1351.479370 -766.447876 -71.395081
1102.249268 -29.566545 90.100677
1366.875366 -803.218445 25.510038
1219.062256 -939.211243 -2.387624
1153.676514 -155.490250 88.978348
1038.602173 -455.634216 -31.291374
1219.557739 -831.568909 -295.104431
1019.999084 -461.249573 -78.468658
1123.106323 -874.228088 -246.727951
895.416016 -534.803101 -154.778442
1356.393677 -794.290710 -80.541046
1270.226685 -919.081421 96.646950
1011.820435 -482.363922 52.093410
1097.364990 -351.600342 267.970764
1269.466675 -893.833679 -20.377983
1087.000000 -908.625183 -261.082611
1197.741821 -331.189117 -133.570496
938.429688 -539.101440 41.824829
1309.110229 -756.769287 -318.188507
1218.396240 -961.756897 67.951881
1308.886353 -897.795837 94.177910
954.841187 -587.844727 88.482414
1023.616455 -427.769379 -96.807449
1333.205566 -677.405151 -415.289917
1119.064453 -67.421944 41.728733
888.488037 -594.094727 -1.426358
1112.898926 -78.706367 87.029198
1106.360107 -418.615723 -60.005402
1093.711426 -950.078796 -159.495026
1147.353760 -163.278976 91.039162
910.943298 -518.154724 -159.080704
1167.814087 -199.782074 36.277508
1329.544556 -871.998169 16.899164
1089.795776 -920.170715 -246.478897
1317.802979 -829.227905 -86.138084
1099.237671 -17.337366 102.339745
1304.573486 -925.664368 148.165146
1197.378784 -258.492188 22.688951
948.419800 -473.684448 -113.109703
1281.950928 -791.544189 -259.222198
936.777039 -550.157532 26.043224
1320.284668 -712.035339 -80.636360
1112.235352 -929.731323 -182.205658
964.884094 -460.140472 -163.465668
1125.249512 22.451162 109.102135
1274.115601 -919.531128 112.912254
1158.024414 -329.575745 -165.942200
1006.658386 -443.037872 -43.542408
1210.162354 -923.417236 -32.701626
1132.870605 -87.311050 83.303062
1165.739380 -197.185593 20.156521
1001.692383 -519.653259 165.354111
967.627075 -536.012756 98.496902
1278.200684 -734.062927 -335.271515
1262.523315 -808.965515 -260.347656
1091.428223 -165.022552 248.106110
1187.376831 -326.804474 -128.210251
1110.381836 -95.531876 124.345451
1180.292725 -344.018372 -89.441727
1077.024536 -415.738495 -81.235252
1226.301514 -721.638489 -375.109619
982.243713 -427.811798 -122.961548
1347.357056 -803.514954 10.542498
939.205688 -481.082428 -221.021622
1007.948730 -495.304413 72.991806
1059.694946 -458.118591 33.093880
928.451965 -590.875183 81.416298
922.413147 -496.541809 -135.706680
1241.848755 -937.498901 101.997711
1254.134277 -708.310913 -107.986748
1128.646484 -85.503281 129.359756
1160.624268 -843.991882 -254.650543
986.028931 -468.670471 -9.223128
1100.891602 -5.614671 101.429192
1238.490845 -932.169983 105.000092
1163.633911 -913.698181 -100.286804
917.601501 -507.095703 -43.802757
1213.825562 -812.624451 -314.669891
1351.224121 -783.828735 10.007113
969.540222 -557.835999 108.274284
1125.647583 -444.562561 157.104950
1098.170288 -936.028137 -140.477295
931.662170 -477.936523 -148.502960
1442.333618 -663.928894 -271.625702
1184.675171 -852.121765 -183.234375
1222.314941 -794.190918 -381.369324
1187.475220 -376.500580 20.458618
995.385193 -451.134064 -28.186571
1182.814209 -150.973648 -65.344208
1180.296753 -738.647034 -136.357559
1289.592651 -799.868164 -236.466644
1399.935059 -665.390076 -185.828613
912.631714 -475.842377 -183.801895
946.494629 -520.365051 13.546829
1113.748657 -75.297394 94.002563
1122.185913 -39.939651 35.324642
1014.123230 -521.260437 106.748459
1281.329102 -859.693237 -122.619232
1185.962402 -838.393982 -301.369568
1119.744629 -63.802216 87.264458
1329.851563 -702.666016 -268.624420
1147.984985 -255.034027 193.654678
1068.903809 -941.881836 -215.003784
1148.163940 -409.406342 70.419281
936.776550 -549.320740 94.036446
898.793640 -573.445129 -47.872955
1010.497314 -520.148132 167.899597
1173.057373 -827.645142 -215.698242
1113.322388 -389.202820 -7.081397
1388.317627 -767.113892 -73.711876
1197.759521 -927.812927 -84.603722
1227.197754 -758.012695 -415.880737
902.900635 -489.563263 -212.793915
1285.997070 -863.317505 -40.948570
1075.313965 -433.546997 -22.587568
1104.188477 -103.958527 165.842392
1137.631836 -975.619568 -54.028740
1158.633179 -255.380478 148.514481
1092.683228 -911.763428 -251.012054
1100.214722 -124.862831 200.372208
1065.695923 -406.156952 -82.876045
1194.894043 -390.311096 8.105689
1351.477051 -808.993713 -57.408997
1158.249756 -386.810852 -28.986324
1210.441406 -345.565643 -4.135921
937.892578 -577.970154 79.101921
1249.472412 -931.302856 73.509216
1260.597656 -878.171753 -12.230127
1121.005005 -149.364029 126.247505
1163.754639 -215.226028 120.344055
1307.468872 -914.229858 160.551117
1296.370728 -768.662964 -293.889099
1094.014771 -172.004761 264.705139
1314.697998 -720.792786 -334.750183
1084.041016 -96.786346 223.429306
1190.960327 -827.301025 -314.266785
1327.886597 -804.118408 -81.193878
1121.640381 -170.805298 148.570511
1405.309204 -669.192993 -360.380554
1105.269531 -1.804519 48.279266
1203.849854 -925.191956 -96.418411
1204.832886 -264.876404 83.965431
1238.032837 -728.938599 -415.696320
957.499756 -486.764069 -11.882759
1095.986816 -69.261406 188.045364
1340.460571 -685.112183 -384.299652
1428.664795 -777.922546 -12.041140
1167.247314 -176.178925 53.812057
1289.999146 -695.829895 -247.432678
1141.156372 -152.857819 114.584030
1185.112549 -943.879211 30.188705
1152.715454 -140.821228 26.715168
913.127075 -507.897522 -51.283459
999.268372 -448.037598 -74.170662
920.733154 -516.191406 -14.517228
929.668213 -474.543060 -172.435013
1153.746704 -924.674561 -149.373093
1249.559692 -722.637329 -398.024902
1092.984619 -456.891632 111.268883
1108.442261 -931.980774 -177.563766
1130.057861 -866.836243 -314.402435
1647.954834 -615.317627 -0.986027
1132.437256 -159.505859 153.862595
1181.537842 -192.183075 -10.365453
1140.226074 -37.338017 -1.729384
1267.863892 -745.652649 -415.384796
1088.886475 -924.008911 -286.812561
1170.095215 -882.601685 -278.400818
1497.036499 -748.833984 56.414867
1116.244751 -827.335632 -185.752487
987.016052 -418.264069 -202.992188
1261.635620 -886.317078 95.713470
1166.618652 -156.393036 -6.771225
1252.829346 -348.197144 49.522797
1163.511475 -226.369110 84.733665
1206.034180 -947.732483 33.545677
1209.011841 -808.648682 -263.930817
1028.921875 -400.555573 -117.881439
1160.057495 -678.406494 -104.146255
1214.496216 -933.123413 -45.470051
1284.706665 -866.914551 -105.185173
1072.935791 -893.909973 -303.593811
1114.652100 -61.607628 88.062042
1503.379150 -707.751709 -8.586110
1238.985229 -878.529053 -55.806503
1187.665161 -924.043152 -98.639984
1089.819214 -45.773678 157.997391
896.505676 -561.475037 16.196760
1136.344849 -264.424103 232.661407
1055.378540 -424.196228 -3.425628
1196.503052 -799.806213 -372.133698
1404.151855 -658.494812 -386.226105
947.310059 -466.065857 -171.161652
919.236267 -478.241364 -226.568619
1230.221436 -895.003296 -119.160141
1086.849243 -110.334213 237.863281
1211.752686 -203.763214 -64.844872
1062.224243 -941.164063 -225.938950
1062.359497 -422.929962 -84.967010
1089.910034 -102.353073 253.613510
1479.043945 -679.711670 -237.578079
1194.466797 -815.899902 -342.168213
1269.798462 -787.978455 -225.313965
1160.816650 -942.557922 -123.281525
1131.270508 -148.494843 128.073792
1232.901123 -776.119385 -389.699799
1209.798706 -810.092285 -273.962921
1349.807007 -699.829163 -234.312897
1313.711548 -773.115234 -222.581741
1157.230225 -97.816917 -35.142097
1291.761230 -750.366943 -320.262634
1095.238281 -459.615051 103.896011
1034.066406 -421.669678 -96.696495
1113.270386 -106.725609 113.229630
1330.984619 -873.210327 154.166031
903.135376 -530.097595 -104.905739
1189.045532 -367.599945 -77.325966
1161.902344 -84.666496 -73.071220
1480.517212 -737.819153 -1.671315
946.859863 -488.857239 -56.678215
1164.388062 -164.730118 33.939079
964.948730 -497.689392 1.801139
1147.529297 -86.254311 -27.105604
966.552551 -491.191956 -10.145091
1341.446411 -672.680725 -170.739838
1191.519775 -909.807190 -112.563110
1167.367920 -833.020020 -231.880966
1314.399048 -803.799622 -102.026215
1118.591675 -81.303421 110.364952
1396.226074 -740.079773 -51.777134
1108.115356 -154.863861 189.784119
1122.970947 -901.487305 -264.540771
1243.334839 -884.219604 -31.017521
922.767273 -604.790405 34.786282
1141.090332 -70.848854 -16.477757
1160.953979 -374.130920 -20.714172
1106.609619 -224.089233 253.795624
1097.032715 -169.857254 240.644989
948.848816 -445.737000 -267.090149
1188.804810 -867.896851 -132.319733
1252.536377 -892.830994 -89.666267
1135.344849 -915.656189 -160.013260
1225.872925 -742.069031 -159.536301
1141.657104 -869.112427 -209.054474
1129.711914 -384.303589 -88.241928
1038.513306 -460.856476 6.845211
910.514648 -575.040894 34.028461
1116.223877 -950.282288 -121.164703
980.152588 -417.553131 -155.738663
1178.789673 -167.675369 -41.080036
1025.806519 -481.196136 54.194168
1051.174805 -957.059509 -210.459320
1256.466797 -763.682007 -173.856445
1064.381836 -923.850952 -226.089233
1297.165039 -910.987976 122.866440
929.401794 -478.733368 -154.841812
1134.658569 -359.382996 -139.792587
1268.704468 -714.829468 -462.555542
1136.900391 -185.486694 118.071213
1121.375977 -55.773037 37.827667
1185.438843 -842.407959 -281.124725
1142.940430 -54.437218 -27.844891
1091.083740 -137.449570 246.030212
1228.176880 -774.543640 -397.594666
1142.986084 -376.226318 -60.256611
1268.434937 -938.349365 102.126183
1218.652588 -852.205933 -243.470886
1116.864258 -384.767303 -59.479294
1152.535767 -144.838501 86.233200
1205.941895 -371.925964 45.272446
910.803894 -558.567444 -100.506058
1281.939575 -859.022034 70.531998
1372.206421 -694.382935 -183.944794
1124.334473 -429.175079 94.674088
1123.822388 -48.798058 21.526220
1097.839355 -214.716721 245.315262
1215.927490 -961.411377 41.867455
1208.793701 -340.471924 -75.553581
1112.557861 -190.797897 239.209534
986.682617 -519.677673 85.488693
1128.517212 -38.989697 -0.218626
1081.709351 -92.518936 230.943726
950.934265 -559.478577 58.534653
1092.707520 -53.273354 224.533295
1162.984497 -365.145996 -61.926708
952.187805 -521.002930 36.327923
1112.353027 1.516171 36.337971
1155.596924 -37.431564 -63.387745
926.096008 -593.725586 54.188869
1164.084473 -161.366272 58.448902
1008.139587 -490.709351 57.899635
1234.025513 -783.855164 -392.256104
1280.165161 -716.841248 -86.100143
985.389832 -453.729797 -76.497276
1299.284058 -809.370728 23.528841
1086.890991 -448.478973 -4.673958
1130.376465 -43.770432 25.137976
1002.549133 -518.046265 71.506004
1166.709106 -224.016586 117.567406
1293.114746 -806.473389 -132.075562
924.200867 -508.467346 -55.969849
1089.834961 -116.689743 201.506363
1174.022583 -829.310242 -232.921829
1043.990356 -442.019958 14.733791
1011.666077 -380.396027 -201.066040
1171.887085 -279.952118 91.034019
1133.829956 -257.388611 240.582565
1109.504150 -877.105042 -196.344009
1194.022095 -357.336609 -12.533555
975.922852 -433.843719 -117.666176
1138.152222 -77.950539 49.564140
1141.044678 -348.417969 -117.418312
1181.311890 -956.004944 4.569417
1085.523438 -49.134354 213.599701
1175.128052 -961.337280 13.098884
961.067444 -514.065430 17.965549
1090.879272 -384.409332 -126.463150
1101.898071 -73.757011 153.424347
1116.792603 -951.956421 -125.989868
1254.765625 -702.202637 -357.967255
1365.908691 -701.647888 -235.586990
1160.987427 -226.679825 115.467903
1160.278687 -98.270233 -11.386637
1159.880859 -711.729187 -150.461716
1131.361084 -952.115112 -48.838913
1279.028320 -825.012329 -223.034027
919.235046 -612.457397 -15.122925
1506.794800 -698.586670 -42.727436
1497.247314 -762.223694 36.181961
1146.068359 -444.694092 117.301888
1194.600952 -231.984253 56.840767
1141.390381 -945.127747 -99.255493
1256.324829 -866.846558 -55.133297
1096.804810 -387.033356 -47.077030
1189.067749 -194.859314 16.619246
1005.180054 -441.383820 -130.333923
1155.386963 -111.664566 30.802633
1103.645020 7.340071 69.332588
1286.825195 -686.973938 -251.652298
1104.816406 -921.090210 -206.895355
1303.953003 -847.906433 86.856781
1352.813843 -676.828979 -419.934235
961.989929 -539.949768 98.951538
1111.515137 -110.274689 121.279083
942.755554 -474.376282 -188.042465
1321.730835 -837.505737 -41.241444
903.457703 -595.086670 29.801888
1194.830566 -338.763184 -7.552714
1294.500854 -870.552795 82.713234
1238.984253 -726.993164 -364.844238
1101.715576 -15.933569 93.137627
1216.175049 -341.960938 -70.319489
1441.784058 -674.891479 -301.337860
1143.356079 -271.773010 207.444214
986.695068 -499.160645 68.497032
1183.922607 -916.615967 -100.163383
1069.737915 -422.571045 -21.140608
1159.996582 -427.746155 91.375862
925.510986 -520.283569 5.290530
1272.690186 -918.532043 90.544754
1126.070190 -371.214264 -82.581070
1398.093872 -797.563599 17.980080
1087.426025 7.427972 109.635765
1115.676270 -73.049065 93.625221
1637.959961 -692.000610 97.617783
1308.203247 -854.956726 4.577959
1281.956299 -855.790894 -117.866325
1058.081299 -388.355469 -160.457382
1107.395752 -180.203415 217.586761
935.617615 -540.806702 11.364327
1145.063232 -75.139572 -1.411958
1158.451416 -929.461914 -107.325813
1208.315918 -820.569214 -312.136414
1232.274780 -769.467346 -352.114838
1150.236938 -950.829651 -90.114342
1171.233887 -889.896606 -179.185623
1050.412720 -912.773560 -280.117615
1094.649780 -962.141846 -156.828079
1118.783936 -62.766785 54.102219
1252.626709 -747.157837 -368.347839
1243.821777 -911.430969 -56.534431
1104.199219 -15.117814 156.621964
1107.052368 -460.338379 162.042740
1095.061646 -964.237000 -116.198120
1101.733765 -174.409515 238.432281
1012.843506 -452.770111 -48.753284
1002.502441 -464.456177 -22.230204
1130.218994 -417.429871 1.985907
1097.724243 -112.000511 167.239410
1186.253540 -226.198349 2.234265
1147.017944 -248.479385 200.284088
1206.543823 -225.724487 17.106739
1508.613525 -703.385376 25.792191
1253.639526 -878.377991 -26.884775
1290.134766 -792.206848 -43.384289
1237.973145 -781.860901 -310.284210
1651.130615 -683.124756 53.838287
1167.735596 -123.778442 -33.125374
1031.283203 -479.321442 64.752747
1138.002563 -251.705399 215.013031
1307.263184 -745.619873 -272.638733
1122.210449 -73.574646 66.579742
1137.390869 -213.582718 175.986099
1133.958740 -91.865120 48.947685
1059.208984 -419.147308 -45.607960
1022.866455 -480.290314 77.046272
920.939453 -494.277588 -139.000854
1300.677002 -704.579590 -444.358582
1104.102051 -52.664139 227.979889
1198.231323 -202.485260 -27.114616
1285.613037 -853.587830 -95.131836
1011.444153 -493.335846 41.374805
1117.935547 -66.710968 150.434265
955.885010 -459.508972 -131.329285
1159.019287 -171.757141 35.663673
1423.136841 -648.207397 -345.656128
964.797424 -475.923737 -25.599247
1100.592285 -935.181213 -229.754303
1073.295044 -444.901276 60.965271
1006.510132 -377.044159 -241.242508
1277.422729 -765.339966 -269.926331
1448.764648 -747.218262 23.888618
896.127747 -546.809265 -49.643368
1267.401367 -717.849854 -447.367004
1302.643555 -852.272583 24.083752
1186.270264 -314.983307 -153.313995
1207.109863 -848.543701 -171.558609
1081.997559 -381.464172 -113.608612
1153.636597 -101.871033 63.785217
1125.476685 -411.473022 -10.056288
1284.388794 -902.995422 80.858994
1098.242676 -897.203430 -281.016846
1158.748901 -386.837830 -2.567676
968.280518 -503.802002 3.960691
1097.843384 -909.785828 -292.661194
1167.462280 -881.443176 -242.037155
1267.533936 -693.365784 -469.944397
1475.000732 -752.362183 -25.098919
1213.769409 -217.526505 -32.601311
1471.019043 -654.314636 -276.009979
1111.898560 -974.269775 -96.189392
1124.231812 -64.054840 32.877296
935.555542 -521.880310 -56.668694
1166.707886 -406.987518 70.357300
1024.637451 -401.041016 -123.184219
993.469971 -484.677002 10.763446
1165.965332 -840.016357 -153.402802
1214.008301 -369.955078 -20.536957
1119.830566 -137.321594 163.268692
1226.953491 -959.170532 60.264126
1062.992798 -955.499451 -195.287842
968.256592 -447.248657 -204.285980
1298.190430 -759.998840 -294.212494
984.279480 -409.783325 -242.137711
1088.278442 -128.183060 260.822601
1111.605835 -51.222294 84.023811
1121.591797 -926.063660 -127.668053
1300.089233 -869.861633 33.562347
1165.113647 -240.932007 115.882858
1126.765259 -459.967438 165.002457
1136.814087 -954.705139 -73.316116
1055.160156 -454.866547 44.554276
1153.544312 -967.167969 -49.549324
1154.946289 -865.406616 -275.067505
1129.877930 -26.107777 88.723137
906.366028 -502.138245 -162.380951
1011.409729 -459.378296 -39.594280
1315.575073 -763.668030 -260.599487
1102.061401 -89.938362 149.445892
1108.365967 -53.999527 139.979965
1264.465088 -902.228882 -2.785140
1336.974731 -760.826965 -268.302155
1031.031372 -944.058167 -230.357529
1021.904297 -492.259277 11.820611
923.334900 -543.628357 -5.008964
1254.981201 -817.580872 -250.555939
1136.422974 -125.047279 52.059402
1002.799500 -475.507538 -2.878853
1119.602051 -857.562317 -194.151627
1067.972290 -401.624908 -108.138206
1170.248169 -220.951920 93.280518
1122.638794 -43.858261 89.765648
1088.003174 -435.999146 -4.651210
1129.294312 -107.609535 85.380997
1301.195435 -714.797791 -345.604858
1007.181213 -376.281891 -232.997421
1103.856323 -940.426697 -204.489563
1035.666504 -485.778076 66.879829
1275.735718 -288.779907 70.656029
1543.894531 -662.448486 41.439171
908.951660 -543.568909 -112.981125
1253.318237 -784.252502 -260.802734
1141.005493 -182.562363 139.082626
994.700989 -456.402863 -64.643127
1091.420044 -352.367249 -140.653763
1194.167847 -189.516724 -59.792469
1502.652100 -734.459412 0.605847
1204.727417 -909.990784 -135.556763
1187.750366 -938.596619 20.531889
970.923279 -460.031708 -54.942657
1202.094116 -216.227341 -5.258443
1145.619751 -260.538940 184.317017
1303.580811 -699.468628 -331.096863
1269.448364 -909.832031 -4.394223
917.712769 -529.673706 -51.461182
1252.724487 -901.647217 -48.408348
1248.607300 -797.852356 -294.396912
940.550720 -480.846130 -178.416107
1130.318604 -249.695969 241.999588
1108.379883 -888.440674 -251.419876
1589.856323 -700.161377 96.701912
1140.115479 -869.943848 -239.516388
1031.860107 -421.367004 -136.482513
1207.762207 -830.704712 -237.635590
1156.965942 -634.493347 -125.022903
1117.967529 -951.088318 -140.805267
898.431335 -619.193176 30.611731
1164.409546 -117.004257 -65.599014
1329.781128 -674.356445 -438.787323
979.949036 -474.236755 -30.826578
1195.376099 -382.649323 80.677338
1394.401611 -790.110413 12.852310
934.018982 -590.671814 75.805222
1352.565918 -709.166687 -211.847321
995.553284 -486.014404 18.287355
1285.826660 -741.374146 -361.890198
1165.284668 -191.356110 38.995575
1263.709106 -879.989380 -65.148682
1421.366089 -773.057861 -22.302158
1169.395752 -237.286407 98.911095
1118.822266 -938.070740 -163.788528
1184.666870 -136.705170 -86.633514
1289.177979 -744.731995 -356.918732
950.466492 -550.943726 102.698036
1253.830688 -815.317566 -287.886627
1235.973145 -795.872803 -327.476135
1004.652893 -530.199524 112.216866
995.914490 -428.995392 -148.164459
1161.194824 -270.325043 171.419632
1076.302368 -928.122314 -234.795441
959.939636 -446.469971 -103.351456
1120.692627 -890.090210 -261.587128
1086.458984 -67.913788 166.098740
1143.452271 -173.545578 91.302261
1074.214478 -60.845699 216.030823
913.297485 -520.228882 -64.635674
1372.584961 -758.314758 -38.179344
1101.935303 -880.206055 -322.171356
1117.264282 -867.377380 -192.077240
1072.944458 -28.804255 220.453033
1128.718018 -252.565338 226.464050
1686.685669 -644.869934 16.437918
1283.449219 -916.915100 114.200874
969.232849 -478.793610 -87.986305
1039.635010 -519.880066 173.060791
1086.824585 -963.041748 -147.255783
950.062927 -420.313080 -250.205673
1218.564087 -911.953491 -14.913006
1187.587646 -957.442932 -19.162153
1194.714478 -839.808228 -233.660263
1107.255371 -955.634460 -144.829819
1261.832642 -921.798401 58.123291
1378.811523 -792.349243 41.277420
1274.447388 -748.113953 -320.681549
1140.982788 -63.492828 -32.267605
944.669800 -580.064575 81.531143
1361.097412 -782.108521 -126.923965
1270.204346 -884.845215 -37.053753
1106.391846 -22.182915 63.948376
1169.803589 -237.706299 104.737617
1089.929810 -872.719971 -220.031128
1129.533691 -933.045349 -156.577637
1106.470215 -883.838684 -309.659668
1202.861938 -345.175171 -29.414122
1094.385010 -30.142250 152.412399
1339.050293 -868.122620 83.550240
1061.494629 -503.456268 139.412766
1166.060913 -380.233704 -38.923946
1161.320923 -422.547882 78.416954
1277.715332 -711.474426 -387.950775
1214.048462 -926.839905 -21.210037
1640.272705 -645.447754 45.949921
1067.958984 -911.684631 -292.132751
1120.036011 -12.457040 1.852011
1105.250854 -343.212067 -200.732925
921.956482 -529.318787 -79.899521
1138.868408 -852.792175 -299.946686
1296.296997 -855.563477 -119.665215
1149.201050 -445.206726 124.650169
1306.995239 -801.587280 -35.297745
1307.256470 -908.732544 143.683212
1055.296631 -469.940155 71.496910
1208.097778 -733.928589 -124.941833
1100.404663 -889.785706 -296.907410
1276.749512 -882.067322 57.645290
1153.069946 -957.035400 -42.728573
1171.095459 -138.215836 -66.310547
970.693542 -416.723999 -224.049225
1330.138306 -725.757629 -82.368904
1169.435425 -871.521057 -290.522675
1205.397583 -337.298096 -37.881851
1470.723999 -728.298035 27.129900
1131.320068 -209.888260 197.919571
925.578308 -523.209778 -192.070877
1162.792480 -197.784180 42.818489
1185.273438 -809.212891 -367.526489
1008.645264 -447.738190 -50.180004
1039.991699 -368.861633 -220.142975
1273.823486 -890.560059 -44.669067
926.829407 -466.477631 -174.633865
1266.732544 -813.475952 -211.945099
1055.129883 -367.174194 -212.979996
904.423035 -572.327759 40.447254
1200.064941 -246.210602 76.428009
1232.639648 -886.356506 -104.641670
1004.070923 -511.515839 118.292862
1295.539063 -919.759644 136.977020
1195.887695 -314.695007 -150.887146
1076.956299 -957.220886 -173.033340
1479.905151 -759.737122 10.975121
1147.949463 -911.468628 -173.436218
1202.885864 -804.482361 -308.641998
1070.378174 -382.172943 -142.342224
1192.012329 -836.753540 -198.680740
1247.189209 -694.932617 -156.637527
923.013062 -474.186188 -178.950500
1415.013062 -713.644104 -25.502687
966.286255 -429.898376 -186.086838
1114.471436 -60.229771 78.972610
1104.583984 -151.846725 209.846985
1227.407959 -802.049072 -328.308289
906.100891 -548.488770 13.735002
1204.780640 -334.282379 -46.712070
1481.134766 -760.008606 59.153278
991.007874 -489.516327 23.796291
1001.849060 -409.401093 -193.725555
1264.766235 -902.604858 -25.983696
1175.040039 -851.060608 -201.040451
1242.886475 -340.768188 5.180066
1088.994019 -113.229416 214.262268
1254.672852 -909.711243 -35.223804
1008.661499 -366.980896 -227.052246
983.064941 -507.227722 3.982392
873.031372 -558.822327 -46.538952
1235.721558 -751.523376 -381.472778
923.219360 -460.138153 -189.559341
1122.188110 -185.397858 189.877960
1095.736084 -406.080627 -90.976334
1287.320923 -835.428467 -100.239128
1351.200073 -807.698059 -66.723633
1152.871826 -240.115814 150.953232
1173.012939 -902.337830 -150.934753
965.460693 -421.897858 -209.550964
1266.153442 -791.184265 -329.664154
1150.904419 -143.467300 79.687103
1259.056030 -776.841980 -188.454697
1064.700317 -424.448273 -36.904800
1135.972900 -423.723602 32.558205
1143.845947 -169.539749 109.279312
1276.917358 -784.022339 -33.077061
1509.524170 -737.209778 46.843063
1094.282837 -172.582840 230.526688
969.562317 -465.971222 -147.264694
945.239075 -425.402527 -237.398895
1118.983032 -386.907806 -63.014656
887.222595 -578.828308 -50.555862
1100.175049 -82.459991 172.849747
990.825378 -408.336334 -189.096924
1183.602051 -389.453857 44.999382
1202.200684 -234.645309 21.932049
902.169800 -516.668213 -89.099083
1138.897827 -209.135010 180.643845
1175.309570 -280.775330 154.285446
1289.483032 -765.416260 -98.851952
1190.144409 -197.632843 -7.169909
1206.480835 -332.022430 -55.105309
1312.107300 -761.038208 -275.114990
911.435547 -548.891113 7.737085
1141.872559 -182.672913 161.784195
1161.212646 -859.147156 -177.805237
1467.775757 -650.202087 -327.295807
1158.538330 -942.985718 -16.980864
1054.005005 -946.745178 -225.416916
897.855347 -511.271912 -89.095444
1119.563354 -4.729963 71.249664
1294.234375 -667.181335 -377.160889
1280.630859 -867.213684 -55.077782
1224.186279 -888.241333 -126.169434
936.267822 -586.823547 71.276031
1216.389771 -819.434448 -298.202301
1253.589111 -922.610840 16.751797
1151.522827 -271.077209 181.157333
1282.681152 -916.970703 85.899696
1090.258911 -91.627739 201.504517
1155.520264 -932.806641 -106.969711
1074.850952 -463.108154 92.847511
1137.900146 -183.031982 147.682571
1110.523682 -852.712891 -184.899536
1330.391113 -818.309509 -5.993382
1213.964111 -921.579468 -35.459766
1101.523438 -36.247425 79.423080
1103.619751 -106.506844 173.372147
1485.229614 -680.634460 68.323769
1185.950928 -143.677780 -73.744171
1209.880615 -351.096375 4.900751
1188.646973 -951.059692 9.446694
1249.418213 -756.571899 -375.187347
909.147888 -569.720764 -43.209415
1083.881226 -900.526062 -303.534424
1106.575317 -347.775421 -177.790695
1218.401245 -808.925293 -325.935822
1078.505737 -70.344841 217.764221
1129.080811 -450.065460 107.651581
934.404602 -558.150269 83.404037
1136.893799 -393.990906 14.129271
1041.000732 -455.820221 10.753101
1166.235962 -336.425415 -60.088955
1342.336670 -873.550171 100.286362
997.330078 -479.230957 9.539008
1038.529907 -456.078796 17.681431
1154.656860 -165.998932 35.021206
1192.873291 -843.502808 -204.437454
1097.517944 -474.144806 124.971390
1225.193115 -815.193115 -291.701782
1173.640503 -303.558929 173.587830
1219.853149 -875.803406 -103.964645
1181.739014 -221.795074 72.680550
1070.964600 -468.773682 132.416840
1120.800903 -386.942993 -59.020493
1320.432617 -858.042542 -36.927555
1100.744385 -90.123894 167.940186
1182.789063 -950.287964 -9.584812
1245.227051 -926.159424 26.759033
993.775574 -160.408798 -202.878845
1257.802368 -707.485291 -404.901215
1348.876831 -846.326355 -16.393753
1128.028442 -946.376160 -112.079391
1189.028198 -816.885071 -299.478546
1260.941772 -758.935669 -326.657471
1167.472534 -858.487488 -200.869598
995.139771 -169.367645 -224.964951
1010.306213 -472.825836 12.947134
1109.006836 -89.410339 111.450661
922.954224 -530.045959 -22.325006
1305.059570 -809.818787 -116.214211
1172.117920 -818.215637 -371.203064
1142.880249 -274.894531 185.317490
1152.463867 -159.655365 38.035156
1144.094482 -75.839462 11.710748
1093.931763 -130.724045 205.078918
1088.070557 -31.568893 161.137650
1578.933594 -679.257751 65.251717
1203.871460 -925.086731 -43.758038
1167.279297 -161.975098 -26.050600
1029.299683 -505.036896 83.307358
1320.529175 -914.572021 117.496078
1150.153198 -200.302734 131.365875
997.651672 -483.915802 13.807961
1109.235352 -66.061607 88.846992
1071.651855 -393.446960 -115.775223
1159.884399 -946.023926 -15.127891
967.478577 -420.177704 -228.326828
1109.273071 -43.392666 133.867554
990.875366 -474.142273 -12.019816
1169.010132 -303.441864 121.605507
1612.505127 -676.913696 79.559868
898.968445 -589.392090 24.314474
1202.542969 -925.496521 1.249454
1031.910034 -413.640320 -106.129425
1287.770508 -695.259583 -286.837402
1259.961670 -772.286438 -345.461090
931.533508 -447.553070 -244.774353
933.355652 -593.648926 65.553123
1394.126221 -674.084778 -396.781647
1099.894287 -186.392868 277.748413
1107.226074 -358.684143 -166.364227
1179.256836 -901.585693 -141.400558
929.572754 -534.610901 41.292931
1009.752136 -447.774445 -52.649948
1344.247437 -674.223999 -124.059128
1184.531372 -900.358704 -91.119278
1088.171387 -101.596802 226.868713
1187.697510 -388.695343 81.293129
1244.614746 -830.766846 -228.989700
1200.247681 -358.947418 21.130562
1499.267456 -650.588318 -11.395493
1255.947144 -803.535278 -338.889648
1124.172729 -176.344528 180.027435
1293.678711 -808.406006 -151.105423
1320.231689 -754.284058 -254.835663
1082.631470 -964.764038 -137.124146
1135.192871 -208.404419 172.574265
1298.745728 -749.504456 -271.913666
1233.039429 -834.622437 -196.035446
1402.997681 -788.488525 49.948818
1287.507446 -780.231628 -156.324646
1062.559204 -371.356537 -187.509171
971.880249 -573.880188 114.500214
1208.902954 -333.185364 -101.980080
1182.229004 -836.795776 -309.218323
1140.663574 -277.425812 227.648621
1318.057129 -784.660645 -253.096405
1131.629517 -250.555847 218.207840
925.045837 -521.883606 -19.919306
1175.836426 -149.420578 -52.355824
1163.596924 -384.679047 55.021225
1097.993896 -367.912231 -141.889572
1165.777466 -875.796448 -239.513275
911.813843 -513.085815 -170.528320
1104.361694 -877.073547 -293.379089
1417.852783 -681.072571 -298.488312
1337.880493 -837.858398 84.125977
1149.061035 -236.629837 131.322754
1126.211060 -91.741219 53.673428
1183.084351 -396.809937 42.811390
1112.393799 -959.547058 -137.436584
1207.943237 -915.172424 -118.366364
1258.215820 -813.021179 -201.986649
1131.056519 -916.976563 -211.402557
1260.977905 -712.069702 -358.247406
1102.405640 -910.608032 -273.518341
1331.267456 -839.186035 -43.331699
1244.430420 -767.984375 -373.615845
1305.010132 -725.163208 -205.478882
1124.881226 18.030924 133.183380
1149.603638 -783.830933 -155.256363
1398.491211 -782.082153 -25.198523
1088.585571 -147.336121 276.652710
1492.461060 -722.226807 -6.516799
1225.333740 -313.686462 -100.261192
1137.199341 -394.819427 47.622978
926.488586 -503.657288 -91.977226
1190.955444 -852.269470 -292.657532
1109.840820 -929.297852 -226.230774
1358.043579 -845.665588 30.436808
914.730286 -615.881226 -27.875917
989.267029 -422.030945 -153.260803
1051.236450 -412.707397 -98.654701
1581.041992 -725.842407 73.874725
1096.531494 -156.268234 247.943893
1100.938232 -408.377136 -7.209495
1093.992920 -95.805260 209.586823
922.984070 -462.045837 -206.039307
1332.802856 -732.687317 -224.281570
1096.708008 -162.014023 231.049942
1448.630493 -743.958069 -66.893761
1437.297852 -773.661499 -37.171471
1150.641968 -307.711731 198.639206
1265.100342 -872.927246 75.776833
1121.527466 -821.658508 -191.026840
1165.223755 -925.386475 -108.082390
1005.996887 -391.369385 -229.864105
1123.232300 -872.938293 -311.811249
1188.078003 -817.283020 -353.241272
1159.904907 -110.499245 -66.809448
1500.469116 -748.491882 47.801777
1361.624756 -857.231323 126.297325
1567.208008 -704.907410 71.110573
1156.223633 -385.842773 42.645302
1306.655273 -897.558838 109.636650
929.436523 -516.917236 -92.000267
1287.683228 -752.920654 -333.736084
998.853149 -446.681152 -43.487865
1123.565552 -226.165939 218.544876
1325.734863 -885.057861 100.191895
1186.942261 -348.960510 -131.417847
1164.909912 -231.294037 69.798439
1249.523804 -888.111389 -59.648075
1072.190552 -414.920593 -35.849522
1106.225708 -19.238148 71.211884
1194.364380 -349.105591 -32.822861
1459.785156 -681.648438 19.081614
1422.243774 -775.878052 17.977528
1225.691528 -921.706421 -15.953737
913.550964 -534.720825 -22.630310
894.614197 -525.948730 -61.236279
1278.254517 -809.553711 -3.554489
1487.861572 -671.404358 -277.523926
1357.389404 -856.854736 82.884071
1038.291992 -437.308594 -6.030369
1321.454224 -730.855957 -317.073761
1157.609985 -29.299955 -64.603828
989.880188 -513.496216 156.648010
1166.653931 -204.429642 78.237534
945.592590 -541.457642 73.523804
1140.053345 -244.862778 218.768921
1230.900635 -771.809998 -388.028320
1237.460083 -823.066711 -242.812805
1123.035645 -1.170826 -8.297228
903.567932 -528.104248 -67.844955
1269.377808 -921.345947 86.658409
1054.864502 -428.717194 -95.453499
1132.944702 -12.921372 34.892399
1167.065918 -385.391541 9.298279
1007.727844 -480.196564 28.693501
1171.380127 -834.714783 -191.238556
927.272034 -587.689880 73.837662
1121.413330 -890.569275 -187.377548
1152.862183 -366.963989 -101.960472
1307.855713 -792.884583 -34.847141
1183.056274 -845.956543 -290.334198
998.859253 -479.372406 -63.256142
1080.307495 -55.455139 193.946472
1325.712036 -740.340698 -304.751404
1228.946045 -817.321777 -348.836914
1118.931274 -123.089188 182.120941
1235.672974 -917.726746 -54.148987
1097.742188 -365.935425 -138.245712
1016.146484 -517.364685 96.085785
1248.349121 -737.421570 -420.887695
1303.614624 -777.659668 -291.540222
1144.152466 -131.704712 119.730133
1277.519409 -912.973694 42.505661
1018.515198 -416.279663 -134.569962
1117.658203 -926.370911 -165.110474
1127.032349 -275.771454 240.203110
998.740906 -476.091217 2.560306
930.748901 -524.451721 24.691616
1487.631592 -744.305298 34.314743
1231.458984 -796.902161 -263.586365
1056.991089 -931.116577 -274.340271
1237.066406 -874.631958 -125.708572
1278.025879 -894.801392 -12.522379
1021.047363 -417.269775 -202.620514
1155.010010 -182.658691 126.829300
1089.679565 -159.177628 271.789520
1127.898315 -410.818176 -21.967793
1139.640015 -62.209698 12.606152
1112.317261 -174.142075 197.178818
1121.094971 -235.881134 238.306091
1166.549194 -395.484863 59.345432
1203.903198 -368.400970 74.248604
1245.712891 -785.629761 -336.687012
1154.496460 -103.154213 9.194375
958.966797 -555.087280 124.479034
1136.683716 -889.642029 -212.799026
1069.378174 -364.944214 -215.107376
1131.194458 -275.509613 212.009964
1126.026855 -269.004272 219.095642
973.432373 -460.080109 -81.775002
1188.788330 -858.914001 -214.755173
1209.953125 -231.835632 -8.403490
1144.699463 -220.765015 158.279861
1003.730957 -465.034393 -11.573840
1133.665161 -110.429802 75.242615
1453.495728 -782.324158 43.208214
1146.297852 -269.949524 213.594849
1221.155396 -827.362427 -322.453003
1462.074829 -765.150330 25.793985
1066.464844 -939.608765 -263.600433
1215.895874 -947.783508 40.616592
1100.427124 -20.175219 180.453583
1125.120117 -947.312500 -118.551903
1300.611572 -760.198364 -102.405197
1316.342041 -743.235352 -281.576569
1103.023438 -231.160645 239.415176
1336.605225 -824.036743 44.419415
881.995911 -442.114502 229.726379
1160.513184 -916.206970 -87.359543
1081.155029 -443.737427 47.353283
1013.678833 -482.709045 41.296490
1185.464600 -151.724503 -64.645378
1153.767578 -398.849945 18.641401
1112.595947 0.434565 124.939339
1168.260864 -834.924255 -285.764404
1148.819092 -201.735580 89.863876
1219.641602 -849.905396 -172.059891
1264.960693 -763.756226 -347.205414
1525.677856 -597.886841 -3.075844
1128.165039 -948.676819 -142.052933
1123.619629 -381.903351 -143.246033
1157.228516 -187.646057 103.205254
1188.951538 -132.862152 -75.704224
1221.573486 -827.433960 -275.014679
1110.301758 -180.113678 218.886612
1100.467529 -107.253014 181.769638
997.428467 -474.011780 -5.315445
1268.897339 -825.337402 -154.196609
1421.257813 -811.311890 21.653280
1297.037598 -721.244995 -356.445007
1198.167847 -171.526718 -44.025227
1034.546997 -476.258240 171.696213
1155.928955 -391.354492 59.602615
1290.158569 -869.197571 -34.428146
1333.660400 -724.315125 -123.096512
1147.911621 -287.051422 206.734482
912.630127 -576.169617 27.811241
1156.547241 -346.960938 -109.970650
1079.441895 -55.978283 201.090393
902.995178 -535.303650 -36.244629
1283.372070 -874.909241 -79.150185
909.274170 -520.123474 -146.424713
1104.114502 16.029545 89.744713
1100.580688 -422.571533 63.393475
1200.138184 -192.044418 -75.207748
1527.232300 -644.893066 -280.451416
1266.190674 -734.146973 -166.663300
1111.052002 -129.615143 165.810196
1129.400879 -50.039917 -0.148922
1094.699463 -95.085793 169.559235
1124.159546 -409.412079 -18.364927
912.138672 -574.584900 37.915615
1041.142334 -444.390961 -11.996999
1158.972900 -902.684021 -174.624390
1172.353149 -953.960205 -54.882671
1055.996338 -421.259735 -47.578430
1264.451172 -727.617554 -438.318939
1663.146973 -639.728271 42.167721
901.519714 -483.429688 210.643372
1134.033936 -867.619934 -235.316467
1694.423584 -651.285950 45.239590
1281.071777 -872.708252 -47.620594
1110.240234 -857.671875 -322.852600
1118.087158 -85.311211 113.480667
1086.034546 -920.282043 -207.103317
1482.557495 -706.915405 24.839338
989.265808 -438.482361 -203.269760
1348.754639 -853.185547 2.739886
1034.953613 -943.110535 -237.963654
1258.896484 -949.783875 98.959114
1175.296509 -833.888550 -149.397430
1152.926270 -170.625595 105.525337
914.022400 -598.376648 39.655731
1282.782593 -879.568787 -40.922474
1211.901489 -324.188232 -18.239042
1200.584473 -667.436829 -96.608406
1156.086060 -278.273499 179.966599
1271.421143 -906.598083 88.129974
905.843994 -589.323669 16.219616
1168.054199 -321.216675 237.035736
1205.407349 -916.780518 -64.543327
1268.978760 -730.825317 -362.503601
1161.781738 -165.535706 76.211105
1279.388062 -687.072632 -221.245605
1101.897949 -128.483322 196.694565
1236.671753 -759.822144 -399.637756
1156.541260 -195.185501 96.318588
1379.475952 -654.483582 -378.153015
1178.119019 -324.641388 -152.777634
989.096375 -422.796722 -176.481720
1276.702393 -758.218567 -358.353760
1082.756226 -963.273621 -153.164139
975.813110 -556.808899 96.298836
1607.968018 -605.973816 8.906481
1565.979248 -707.812073 74.998009
1211.563110 -362.371948 -6.737371
1130.493774 -38.676464 -9.462899
1263.571777 -804.132568 -251.015060
1245.514160 -869.744202 -133.829391
1199.912109 -766.088867 -138.499069
1178.096191 -386.778290 -34.755268
1108.408203 -42.214195 89.227051
940.830444 -486.546967 -154.322250
1241.383423 -838.773132 -246.938095
896.832642 -588.922302 17.830776
989.368652 -541.344971 131.632492
1496.067139 -768.635437 47.277786
1183.004883 -902.989502 -95.928818
1097.499512 -126.590225 208.418045
1313.057495 -701.743958 -344.792145
1015.892822 -491.470551 121.990196
1014.669739 -405.887970 -181.815903
1488.441284 -724.414307 -48.413883
1221.574097 -749.722107 -404.446411
1119.584229 -888.363586 -271.914886
1289.717285 -883.806335 -16.345074
1127.128906 -220.687195 216.222672
1138.248657 -147.689972 100.482796
1209.737671 -884.043274 -160.042496
1135.714966 -938.287781 -79.370201
967.783386 -431.920258 -202.266586
1121.536133 -829.106750 -162.770416
1022.483765 -428.254456 -167.701736
1132.579102 -889.529907 -260.609344
1104.972778 -920.091431 -171.162018
1147.221436 -104.582130 -7.389907
1080.321533 -363.268341 -169.797333
1103.997192 -935.412720 -233.982193
1349.356323 -678.367981 -46.093922
1341.173706 -752.122742 -236.908600
1109.702393 -418.736420 -30.495733
1084.360596 -453.928680 43.042217
1119.942261 -217.217407 227.015839
1144.964600 -385.817505 3.715121
1239.204346 -775.976990 -403.877686
1140.008911 -889.345520 -291.311218
1176.430664 -195.966888 -0.584241
1095.956665 -20.269640 124.576347
1592.019775 -666.676575 47.477711
1096.119141 -425.925354 16.153868
1022.175781 -512.337036 67.706673
1305.061523 -852.481567 4.404946
1005.590820 -503.892365 64.417557
902.643311 -553.612793 -32.256695
958.881592 -555.290161 75.369400
1299.135620 -850.506287 -76.526993
1139.206299 -50.135536 -13.721599
1082.604004 -120.239159 221.986862
1332.336670 -842.772156 55.397236
899.437195 -568.495667 7.178511
1160.155640 -190.496292 106.486816
1308.459595 -859.900146 -8.618430
1128.597656 -862.535339 -336.296814
1132.041748 -942.708069 -132.874344
1176.500854 -817.655579 -367.881958
1128.328979 -850.525757 -351.700073
1118.926636 -905.907959 -158.457626
991.037354 -521.164673 149.704666
1106.894775 -198.855438 234.470963
1263.552124 -711.751404 -453.869507
1178.240845 -335.799957 -113.077873
935.926025 -514.681946 -11.638621
1116.127075 -197.239716 186.439072
1145.920776 -167.495728 86.670998
1178.939331 -329.334717 -130.030594
1107.419800 -116.778046 165.916275
1120.982422 -839.949463 -349.943115
969.025757 -524.628601 97.060143
1143.116943 -81.660851 -0.685077
1349.424194 -687.277893 -376.953888
955.523865 -442.854645 -177.346970
1126.525635 -440.970428 116.462112
1263.546631 -936.837280 111.579636
1485.077881 -723.992432 -57.286442
913.262146 -602.099304 2.974306
1093.304077 -419.769379 -56.180878
1106.146851 -377.548279 -176.936096
1154.540283 -201.396927 131.100525
1036.076294 -938.546814 -248.609589
1118.148926 -436.738007 92.303322
1236.421875 -916.761353 -9.157694
1153.860474 -259.218414 169.696793
1107.173950 -401.723328 -113.516815
1251.755615 -919.377014 31.996218
1454.966675 -783.414795 43.985699
1033.201294 -411.552582 -111.008781
902.919678 -563.257202 4.901169
946.548401 -506.946411 -27.067938
1238.088989 -910.057678 -51.313095
1261.646606 -853.722473 84.435783
1212.840210 -899.170227 -107.378220
982.055664 -459.686066 -70.403229
963.312134 -452.377441 -81.373596
1108.322510 -890.634155 -222.394623
1167.578247 -205.760651 17.357449
1293.998901 -784.802307 -285.961395
1190.061157 -208.545578 26.743963
1111.541382 -53.269653 116.312462
959.197021 -481.551483 -21.262659
1077.436646 -906.792542 -216.495560
1343.087891 -659.942688 -433.296234
1170.532104 -871.622742 -212.907333
1267.669312 -725.661804 -381.828583
1255.221069 -820.873840 -204.861877
1464.789673 -666.471313 -331.008514
1310.379517 -810.817871 -119.433617
1155.756470 -109.571968 -14.171499
1174.513062 -231.758987 85.621231
887.947632 -560.231384 -108.848206
1149.628906 -776.277710 -139.558502
970.200012 -455.151306 -105.749298
941.496643 -511.905914 -45.154274
1133.243896 -56.029202 47.104965
1144.385132 -909.653564 -142.092178
1112.382813 -851.749390 -334.015228
885.565186 -593.170288 -39.857731
1116.293457 -103.494194 139.157135
1110.458862 -961.162048 -110.949646
1076.223999 -104.070717 263.410919
1153.223389 -99.398056 -16.145695
1333.625244 -755.961792 -200.087158
1143.692749 -380.027832 -68.479561
1428.737183 -788.191406 22.571903
950.808899 -564.766418 66.503067
1076.269531 -2.042330 159.709702
964.418457 -435.157318 -185.495316
1112.068481 -361.823395 -143.459625
1092.338379 -141.847794 230.097900
1109.104492 -436.975159 49.157600
992.567505 -429.331085 -141.387466
1319.043213 -720.812561 -269.802643
1206.540161 -407.120697 117.357414
1332.834229 -761.346191 -249.550125
1113.059692 -212.276672 248.297058
1117.469360 -396.086517 7.592607
954.213562 -445.831879 -187.414032
1204.248779 -212.551132 -35.616005
1311.137573 -685.903931 -450.138336
1034.975952 -431.257294 -17.174889
1137.379761 -67.417633 1.731710
1470.803101 -734.301025 -39.591454
1262.319458 -760.180725 -359.086456
1257.345459 -771.131897 -354.444214
1115.120361 -38.101795 61.015774
1163.068970 -117.037933 -23.198481
1232.430542 -767.226807 -389.588745
909.690308 -536.551208 -10.167958
1183.664063 -414.467285 65.707336
1183.924316 -191.533325 21.674284
1134.374390 -104.540215 105.822296
1148.223511 -320.184937 -129.137772
1029.084473 -454.120178 -51.925842
1261.552246 -870.242126 80.186165
1280.489014 -763.090454 -293.921082
1094.587036 -391.094421 -159.099823
969.175781 -506.084961 32.993061
1102.959229 -66.857101 172.937027
1161.207642 -897.923401 -191.997833
1268.848145 -883.939453 -27.588615
1175.973022 -316.373474 -94.040794
1341.104980 -713.322205 -227.936798
1007.769409 -468.993286 35.536316
1087.903931 -437.988190 40.138367
913.243286 -585.130615 49.125660
1083.544678 -120.799629 247.139130
1091.949341 -142.670746 249.191605
1050.250000 -460.936005 46.385246
1094.294678 -115.560791 271.390778
1108.926636 -19.853498 26.541653
1287.464844 -746.747620 -299.462067
1171.810547 -141.964218 -62.333580
1123.946777 -186.753906 185.499817
1108.387695 -926.958801 -176.419601
1137.440918 -763.606628 -179.385834
1282.281738 -733.515869 -327.983032
1110.664429 -779.137939 -161.944870
1149.340088 -842.252258 -338.946564
1249.479370 -872.702515 -51.856586
1114.967041 -903.606750 -195.373993
1119.269043 -55.870594 84.147575
1124.378540 -180.807968 170.694489
940.702393 -565.984131 50.199116
1191.907471 -317.598480 177.569748
978.754150 -539.763306 107.859367
1159.098511 -841.286011 -163.708588
1141.623901 -904.439575 -217.680038
1270.077271 -715.171814 -456.688904
1237.516113 -752.867065 -410.013336
1071.303467 -948.372620 -231.925476
1086.625610 -39.379322 151.451553
1094.381958 -478.426422 186.311081
1140.454102 -44.913853 66.901787
1351.456909 -671.932800 -413.285645
1149.979736 -169.648392 47.628658
1186.409180 -764.446899 -428.420654
1145.860962 -90.935310 31.343822
924.261292 -529.741760 25.248695
1142.115601 -233.735519 175.714325
915.565796 -507.431305 -80.494293
1241.723999 -751.678650 -403.684448
1233.689087 -929.154358 -16.439920
1156.636353 -118.656860 1.756636
949.886719 -584.774109 111.498528
1317.844604 -900.024353 107.438339
1264.640137 -922.588623 97.979797
1055.528687 -502.137512 131.444244
1275.077026 -682.481018 -248.435745
1305.913574 -854.273193 41.647381
911.554565 -480.129822 -153.403793
1100.951904 -124.630013 181.217804
1159.679199 -865.887817 -263.050446
1326.408936 -827.499329 -72.073311
1153.404663 -121.255791 -9.916775
922.085999 -521.182495 -112.199219
1220.614502 -814.591370 53.630405
1302.845825 -930.154358 125.346451
1126.094971 -198.022293 184.423782
1143.440796 -52.941055 -4.416957
1280.439819 -843.270142 -113.826950
1315.008789 -834.365173 -11.457876
1091.067993 12.584398 136.380630
1175.169556 -220.859009 62.747627
1123.489624 -977.374634 -66.523941
1312.894775 -709.392517 -334.049164
1099.716919 -110.502296 183.371231
911.915710 -402.371368 252.284256
1194.151855 -307.868622 123.201614
1128.516724 -339.535492 249.216721
979.476746 -498.829895 -10.851046
1089.276001 -70.702057 230.539932
1333.644653 -800.419556 -43.557880
1190.867798 -315.394470 -109.860687
1310.073120 -770.527283 -265.951630
1249.425781 -938.179382 62.512283
1046.460205 -371.941467 -156.100601
1156.643677 -874.852051 -257.937683
1224.399780 -903.850464 -120.121658
925.177612 -507.872162 -48.348778
1110.101440 -900.667236 -269.011993
970.204102 -446.010315 -85.463058
1259.959229 -914.823669 -2.472930
1127.146851 -30.517105 -1.649101
1101.037598 -145.305664 236.541565
1104.102905 -405.533325 -78.176476
1171.304321 -873.468323 -186.476456
1164.888550 -865.797363 -258.545166
1296.746216 -776.000305 -199.512299
1222.731812 -772.715027 -395.745636
1303.358765 -724.415283 -348.322876
1121.443481 -30.145620 81.290810
1267.635376 -785.861938 -305.452362
1115.829834 -399.729828 -15.381389
1188.056763 -852.628906 -238.236969
1153.720825 -91.860420 56.860352
1176.505737 -306.448090 190.208054
1192.501099 -956.089294 7.480344
1327.811890 -682.852173 -432.971008
989.108948 -568.010864 119.773666
1175.792358 -709.152527 -138.790482
1186.113647 -316.208954 -115.680603
1100.653442 -157.782104 230.616287
1261.973267 -872.433655 90.059364
1601.462524 -695.580505 105.572533
1171.841187 -959.883362 -1.445259
1131.115723 -391.409210 -17.782415
1161.590576 -863.914978 -266.613068
1176.145142 -400.453094 41.369881
1112.417236 -97.095512 138.756287
898.111450 -541.014038 -136.442078
1322.593994 -718.890198 -273.691681
1258.651733 -931.332642 77.308838
