ply
format ascii 1.0
element vertex 1368
property float x
property float y
property float z
end_header
-440.886536 1040.134766 120.199478
-292.078522 1015.448181 -115.365715
-278.556458 1577.181519 -189.599716
-269.150665 1032.101074 436.081818
-604.630737 1248.342529 -338.595398
-415.552917 1446.046631 -83.669220
-398.943329 1044.144775 91.710037
-569.878845 1427.187256 -128.195786
-14.403977 1082.042969 343.931152
-248.565063 1206.183105 159.712830
-121.443871 1123.115479 320.272156
-708.522278 1294.616821 -196.143311
-310.449249 1068.782715 386.824005
-417.173676 1725.554443 160.565201
-83.481918 1062.361206 379.657074
-442.271515 1453.975342 -248.320602
-468.963928 1084.775024 201.615829
-153.611404 1111.320068 -69.285698
-466.759949 1573.911621 -66.335991
-454.892456 1435.130737 -236.312073
-124.384598 1001.903198 494.780121
-545.861389 1276.458740 -349.469116
-508.665771 965.104919 63.271305
-127.619011 1153.641113 298.115692
-463.094757 1526.672852 -107.795319
-401.431335 1491.893677 -210.390518
-11.191721 1065.720337 379.232727
-250.811523 1015.052368 459.576843
-430.775635 1067.911987 150.991135
-443.228699 1409.313477 -53.648254
-29.529114 1030.266846 83.838478
-8.661679 1081.571777 350.975281
-440.691681 1031.320435 120.492462
-131.798492 1171.487549 245.596390
-346.836884 981.908264 -27.484966
-278.774506 985.880371 496.247040
-53.925564 1058.986206 370.582825
-187.764511 1088.642212 365.934113
-191.648697 1111.177368 354.815277
-331.521667 988.134460 -62.170975
-67.506454 1033.264648 399.407410
-347.559082 1045.158813 413.422180
-260.489777 1013.889709 443.483124
-460.370605 1402.416626 -304.303802
-41.560665 1148.175537 271.780823
-401.072327 1390.506714 -350.739349
-232.088760 1592.843872 -184.478821
-253.400604 1023.971558 -58.515903
-755.268250 1293.306519 -110.599281
-104.732262 1151.474854 64.577301
-530.682800 1284.280396 -384.413116
-785.119080 1326.837036 -95.515564
-182.170563 1087.955444 -59.260330
-341.709015 1660.145142 29.782785
-486.499451 1429.401855 -119.166710
-551.911926 1314.036987 -266.648102
-78.442467 1070.555298 364.228180
-35.827599 1100.776978 331.065521
-564.862732 1467.255127 68.168007
-271.577087 1084.333374 371.378021
-550.885681 1271.336304 -385.530151
-236.460114 1197.443970 163.296310
-359.203156 1603.621826 -33.204403
-338.401550 1135.941040 123.424858
-243.025345 1108.821655 47.720711
-295.020142 1087.033325 31.018919
-612.923035 1310.272095 -270.593658
-118.659645 1135.154419 303.044250
-285.927246 1019.411987 -65.983299
-174.747635 1014.670593 453.049530
-234.131287 1038.593018 -80.430305
-259.116119 1141.555908 291.991364
-439.900452 1082.370850 217.038986
-288.151550 1498.903809 -257.272552
-416.572052 1085.602051 120.011536
-222.664032 1105.950684 27.842899
-269.922974 1036.365601 -32.581097
-303.296753 1550.097046 -170.015976
-222.529648 1247.799072 211.284775
-748.012146 1295.990845 -150.547409
-773.235901 1307.386963 -115.307526
-395.451447 1473.322266 -235.416641
5.023712 1147.500366 197.565079
-109.744255 1143.121826 -23.764677
-701.428650 1299.665527 -195.595306
-458.901886 1434.910400 -102.078171
-714.859436 1281.601318 -50.132030
-242.241547 1073.660767 398.046753
-88.464752 1144.827393 302.155518
-367.307495 1039.893188 90.839050
-296.952911 1133.984253 324.466675
-284.729767 1063.880371 21.558081
-661.362244 1319.867310 -53.572239
-195.171555 1106.267334 -40.625267
-480.666931 1021.531555 135.892776
-773.484558 1284.425049 -93.003082
-642.110413 1290.851074 -258.464600
-571.689575 1260.549805 -370.439301
-248.515457 1080.305176 -11.051354
-175.643372 1085.456177 371.691071
-173.157089 963.390503 506.665527
-174.289459 1051.019165 405.099579
-107.759987 1176.688354 252.341187
-136.158493 1047.833496 407.447906
-59.411377 1128.885742 299.724365
-144.672272 1169.078735 265.518677
-279.572083 1108.518433 342.598053
-229.810410 1040.883179 407.560089
-149.097382 1103.809692 -59.588558
-376.141357 1147.520996 207.016403
-255.851440 1023.925781 -119.230873
-624.908569 1298.358765 -264.496490
-45.878498 1117.572632 313.689972
-86.198654 996.433838 448.892365
-700.991272 1329.545288 -116.501427
-215.511810 1122.463623 324.272095
-111.196312 1091.533691 344.111298
-518.588806 1326.416992 -256.364960
-459.138336 1287.966431 -153.278290
-318.837128 1032.440063 11.463226
-50.530369 1027.301514 407.007233
-430.997742 1097.090210 202.416000
-422.049042 1090.803223 184.621384
-80.993568 1079.962036 354.729858
-126.828705 1019.506775 421.668091
-309.647552 1073.894165 79.827881
-221.461929 1174.349609 114.116531
-265.225098 1116.246216 363.947876
-386.269653 1417.147949 -346.313904
-436.820526 1585.889282 12.727098
-213.005661 985.997498 468.725006
-358.288544 996.325256 -9.277298
-123.158806 1173.469849 260.827301
-72.274086 1134.304932 292.602753
-306.448181 1007.168945 -24.357290
-380.849365 1618.615967 0.795743
-459.243744 1015.637512 66.286507
-87.368965 1084.069336 342.495422
-490.584961 1301.416626 -206.997009
-225.834747 1129.333374 313.083862
-367.153778 1062.702759 394.374664
-204.989883 1085.984985 -117.217789
-534.550781 1293.596313 -363.300934
-211.084045 998.318726 474.388550
-371.019501 1738.393677 141.734665
-223.400665 1565.856567 -248.988068
-689.868164 1300.774170 -223.224380
-564.857300 1370.462891 -209.020554
-126.186729 1015.154053 443.549164
-313.305817 1710.430176 79.271294
-606.466492 1272.674072 -320.744415
-216.644348 1088.665771 355.852570
-623.855652 1387.243774 -187.796341
-272.894440 1154.995728 95.267220
-68.153885 1038.396240 415.654724
-394.061127 967.871277 -41.497158
-361.852173 1627.403198 -9.133088
-383.526611 1186.285034 226.035019
-351.978394 1495.368286 -173.209869
-282.334320 1587.478271 -147.590363
-447.220398 994.573914 31.854214
-361.921570 1473.581055 -287.219086
-585.626587 1411.177734 -147.117859
-354.579102 1489.831543 -109.761330
-477.821564 1333.567139 -290.100464
-512.426086 1339.887085 -317.635590
-454.548309 1381.671509 -344.704193
-372.053650 1141.250366 174.194672
-269.009491 1531.352783 -256.017365
-80.208061 1016.495483 429.855804
-462.182190 1407.055908 -269.789856
-239.438110 1014.741577 460.637421
-761.164734 1374.986572 11.771094
-429.254791 1463.335083 -184.696854
-367.424133 1447.656494 -309.922638
-127.437943 1063.526489 379.408203
-158.777237 989.849976 467.929932
-740.463379 1322.532227 -126.692596
-122.371010 1097.636108 344.692902
-285.610016 1188.605957 165.792252
-496.202881 1338.551514 -282.047180
-724.752014 1288.434570 -151.035690
-734.897705 1289.332397 -149.732849
-271.838196 1037.636719 -117.138329
-334.197662 1064.210571 71.526466
-385.493164 1483.465088 -236.959641
-177.967438 1056.214966 410.602295
-398.617645 1666.218140 150.796768
-594.284241 1363.275391 -180.562927
-278.833466 1007.872864 -72.640213
-16.908434 1057.699829 367.777222
-355.363739 1502.416992 -180.371872
-661.378540 1260.522949 -266.576355
-332.851105 1414.441650 -157.111801
-396.353882 1483.924438 -214.288208
-314.953461 1004.070190 -49.680328
-405.515137 1441.850098 -274.046509
-302.601654 1508.427734 -180.784653
-328.364716 1129.260254 326.905396
-164.924286 1082.729736 -75.074821
-568.489807 1289.732300 -324.678772
-188.823868 1171.597900 297.192444
-625.982544 1258.269043 -325.978394
-577.295959 1264.243530 -371.191681
-237.785980 1136.147339 82.451462
-272.684143 1090.178711 385.789948
-578.974426 1334.439453 -256.571960
-387.758026 1409.362427 -355.875763
-605.937561 1438.037964 -40.344967
-470.933014 1405.296875 -266.933563
-245.427490 1040.002930 -72.870148
-54.957718 1161.546997 248.522476
-325.012634 1044.721558 -3.894944
-270.395630 1023.077515 -91.200951
-156.036880 968.367310 499.768158
-243.128799 1108.354614 17.067150
-158.685608 1203.612061 99.825310
-110.050018 1072.330688 376.712738
-647.540833 1306.216187 -241.324615
-175.943863 1073.462036 366.854675
-739.185242 1435.774780 29.704710
-535.968201 1361.739136 -54.493141
-633.655762 1349.526001 -76.997437
-189.243744 1217.033447 165.124115
-535.098877 1382.235352 -66.320450
-132.203354 992.134338 501.575043
-291.933746 1574.292114 -154.239136
-698.678772 1295.813232 -202.271393
-210.677383 1150.910400 312.571960
-663.926208 1293.618286 -241.538544
-659.509949 1314.915283 -212.615005
-411.140503 1380.946533 -355.397858
-322.204010 1497.304810 -248.939362
-410.444336 1575.385742 -45.112278
-304.570984 1523.318115 -227.898392
-613.550171 1350.567261 -201.420059
-226.306717 967.038574 496.781799
-308.499878 1557.763306 -160.558151
-405.969116 1448.157471 -284.381897
-175.433151 990.360779 485.892853
-133.595184 1118.036865 324.818756
-17.714584 1056.756470 92.337616
-624.480042 1410.689331 -92.157112
-249.208832 1577.628418 -182.756653
-788.912842 1288.974243 -106.860924
-171.691467 1085.858032 -116.732819
-688.882874 1356.165894 -113.739372
-389.168091 1575.188110 -31.675369
-409.343292 1117.868774 153.969299
-431.671844 1590.757080 3.270239
-175.692871 1072.469116 392.424957
-235.642487 1079.715088 -41.433018
-325.092346 1483.562988 -143.096420
-324.283386 1725.844238 116.248642
-288.613129 1148.389038 99.253685
-341.431793 1473.556152 -258.622498
-444.613464 1692.099243 194.758179
-166.955872 1128.478027 -16.157131
-454.929382 1591.156250 -5.587723
-420.259735 1006.800293 57.069408
-410.791718 1423.070435 -99.060852
-499.425079 1326.588257 -291.432648
-183.204163 1025.125122 447.756653
-404.794739 1456.972290 -276.145203
-486.814392 1457.616943 -162.436630
-413.354889 1690.108398 176.784149
-383.704712 1510.963257 -169.006882
-585.671509 1518.111572 68.027336
-540.796753 1271.553345 -388.814514
-298.294434 1025.617676 429.192688
-791.757507 1318.229248 -16.420736
-189.140152 1205.851440 109.200317
-401.807587 961.070313 -56.458542
-372.505127 1031.894043 30.573385
-374.317291 1625.834595 11.587914
-330.191711 992.481079 -22.823523
-428.787323 1403.898682 -286.836700
-105.295135 1116.436890 323.275391
-205.910049 1136.226440 331.694275
-427.610565 1479.988159 -212.773529
-388.922760 1488.344116 -178.539337
-596.032532 1267.948730 -344.616455
-319.743530 1224.398193 256.024902
-69.145172 1168.580078 257.451874
-104.601738 1012.080688 442.219269
-200.218353 1064.853271 -93.499969
-146.073273 1086.679321 -73.381760
-244.820587 970.616516 497.029938
-665.206665 1327.308105 -230.755554
-435.045258 1342.330322 -367.881470
-418.160828 1117.895630 216.027359
-382.934082 1055.885620 76.361954
-266.564056 1097.540161 365.832336
-93.292046 1009.979736 462.296448
-466.237488 966.585876 32.175060
-459.376984 1349.897095 -370.895905
-431.201233 1457.936035 -229.028763
-269.478699 1508.815308 -293.158783
-318.445770 1016.036743 461.815460
-174.116180 1224.032227 155.120804
-464.478516 966.822449 24.067213
-310.941101 1499.121948 -279.777924
-688.740540 1273.529785 -240.849838
-287.309784 1570.762817 -159.984985
-229.240509 1000.220032 470.293671
-352.028015 1434.535278 -338.968628
-87.728722 1131.397827 304.007568
-463.891052 1318.777954 -374.714996
-445.723663 1358.125977 -101.754013
-672.901733 1300.673584 -192.113266
-439.906158 1479.936401 -182.322784
-156.889526 987.624695 527.803955
-378.874390 1485.306519 -249.039780
-501.122894 1301.067017 -396.584808
-614.311646 1414.454102 -103.708549
-191.513748 1036.638794 432.042816
-281.030029 1577.871582 -189.294907
-255.026093 1103.203369 364.540131
-605.854004 1343.680542 -253.491302
-239.619171 1585.007202 -196.556656
-303.757019 1005.145813 452.026306
-493.116882 1289.046997 -401.453186
-318.380768 1462.071899 -162.195908
-244.162430 1184.128662 299.726685
-243.132935 1548.454102 -282.270294
-95.095016 1173.492432 252.532104
-382.858887 992.456787 37.323948
-626.470032 1345.895752 -243.933655
-325.442108 1541.929810 -110.801788
-179.044495 1016.949951 446.026733
-440.300659 957.392761 16.630751
-456.761444 967.824524 -35.355042
-177.227768 991.104004 469.952637
-278.801331 1017.369995 -48.927952
-422.332947 968.733032 0.640300
-204.092514 1196.497437 110.423988
-425.599640 1066.454956 151.348282
-144.524780 1093.113770 373.695404
-600.862488 1283.693359 -281.615082
-266.126953 1523.525879 -274.312927
-600.632080 1270.195435 -309.282959
-587.387024 1316.977783 -295.499756
-227.831314 1095.674316 23.108362
-323.909729 1007.235229 478.256470
-304.821533 1035.110962 422.506897
-424.815491 982.846313 -26.063211
-438.899475 1112.647461 214.047104
-82.810638 1070.312988 370.018188
-403.935486 1407.613770 -295.898041
-723.383240 1317.958008 -22.567289
-466.399170 1356.819580 -77.190704
-385.005890 1073.469482 120.185196
-429.780792 1461.921875 -215.335846
-86.535347 1117.661255 315.673950
-331.570038 1591.309814 36.342861
-263.520782 1067.261597 -24.187134
-189.457977 980.979797 483.370300
-176.638046 1081.470825 -108.432030
-180.297852 1042.611938 411.110260
-65.881950 1113.297363 41.072731
-591.678467 1444.675415 -69.791832
-517.907532 1408.248901 -183.518631
-99.485672 1027.988281 411.705383
-199.488983 1132.862549 29.302809
-372.894806 1607.451416 -28.850342
-305.926575 1509.211914 -241.000076
-235.935577 1030.960938 -76.453598
-426.944000 1630.349487 25.772116
-186.514954 1150.837891 306.866486
-294.281677 1508.238403 -284.075623
-368.665710 1048.265381 415.249481
-419.220612 970.072998 -36.292046
-395.700531 997.562927 27.380714
-305.495514 1508.056641 -249.711563
-690.429871 1349.279419 -124.270737
4.462322 1036.695679 70.705566
-99.252258 1127.119629 296.290131
-699.652588 1302.265991 -211.850769
-783.308167 1335.058838 -75.208549
-419.837372 1053.238037 123.377960
-220.583923 1116.989868 52.940643
-78.294769 995.158386 453.066376
-489.093506 1373.636841 -215.359390
-270.395935 1197.893555 199.270782
-281.123505 1015.123474 -124.201340
-317.415070 1114.201782 347.214478
-136.439255 1170.725830 12.904329
-449.443848 1366.725342 -339.794861
-723.518982 1356.862793 -22.582628
-505.296997 1315.223145 -333.764160
-242.355438 1064.102905 390.870087
-692.383362 1347.513428 -176.259705
-434.741913 1483.327148 -199.676178
-706.821594 1481.526489 51.257595
-438.186157 1072.715820 142.482147
-75.466011 1228.641602 238.866425
-625.136536 1394.606812 -76.347298
-768.702759 1283.934814 -102.001617
-283.187317 1227.612183 234.683990
-544.023987 1289.130615 -378.247833
-248.165558 1038.954834 -50.605858
-252.678574 1040.857300 -47.705612
-339.277222 1518.495728 -124.033211
-277.447357 1026.494873 439.614746
-493.475159 888.531128 163.264648
-272.533356 1020.800171 -63.427185
-533.279968 1286.733765 -341.228241
-69.381630 1110.742310 328.769531
-427.246124 1600.567505 -1.793496
-455.623230 1570.816895 34.846821
-445.241241 1408.254883 -258.372589
-195.157898 1046.444580 416.352173
-483.629364 1338.684937 -360.891388
-198.908539 1127.258301 318.574829
-390.823303 1399.936768 -346.061951
-420.329285 1104.637207 227.793762
-551.424377 1395.711914 -68.277992
-228.284256 1044.669189 -104.724800
-358.735413 1694.218750 103.111786
-379.977753 1059.531006 67.601898
-445.991394 1465.122314 -89.968559
-358.463470 1468.757080 -296.190918
-267.434784 1021.649170 -63.461937
-196.187668 1004.408264 473.308807
-147.008652 1153.451904 290.508148
-338.616333 1474.058594 -301.261658
-276.066284 1021.017334 -84.691345
-417.710327 1575.164307 4.168420
-388.148376 1010.952148 51.301704
-464.790375 1318.243286 -388.524719
-722.166870 1293.577881 -173.052597
-70.996338 1175.214478 241.644867
-611.443176 1412.834595 -106.721687
-201.286301 1189.987305 94.371010
-741.676086 1309.317139 -147.946335
-477.949097 952.820557 23.870708
-400.949860 1179.011719 230.868591
-243.318863 1067.765015 397.990234
-251.852570 1127.608398 105.948204
-420.074951 983.028320 -62.279808
-389.576569 1483.180542 -101.206337
-521.134216 1299.598633 -383.533203
-363.687164 1492.645996 -243.658707
-260.133423 1493.392700 -205.676025
-412.671844 1015.742188 67.109703
-48.852982 1008.876892 459.339569
-577.432312 1367.720703 -188.220474
-409.148346 1446.281250 -264.081421
-301.081665 1513.150879 -264.427124
-365.052216 1047.410400 49.222672
-750.535767 1356.523804 -31.912897
-340.106964 1009.717041 -87.014503
-274.652985 1586.343018 -178.769730
-195.263138 1113.182983 -0.656772
-218.411514 1051.225220 -103.944260
-203.005341 1099.924805 357.211853
-669.742126 1327.372192 -158.362396
-746.302368 1417.945923 21.415579
-173.391006 1150.881714 316.625793
-716.583801 1363.511963 -107.631790
-15.598300 1073.616699 364.779358
-267.157135 1033.060669 -72.315048
-342.793701 1466.776123 -154.698883
-497.200684 1289.168457 -231.633423
-492.032562 1306.286499 -387.436737
-368.635620 974.190552 -33.122074
-230.650696 1001.741638 453.144226
-470.158813 1331.002197 -369.338379
-362.662659 985.366882 3.549849
-425.426453 1504.589722 -134.770340
-331.518097 1454.244995 -336.529694
-657.382996 1331.702637 -192.088638
-309.257721 1047.392700 404.939362
-671.381653 1372.941406 -109.146294
-570.120056 1342.157837 -187.311020
-73.589043 1060.158936 373.031067
-412.782166 1517.387573 -53.961727
-410.083588 961.426270 -29.960949
-422.308472 1051.810547 156.555359
-271.668823 994.610107 464.737671
-572.692139 1324.996948 -270.013245
-174.249420 1192.023926 101.351196
-22.696306 1069.455566 357.001434
-449.395691 1354.997192 -24.324003
-190.506973 1078.261353 -52.900635
-130.696640 1150.997437 -3.259932
-237.420410 1219.449219 168.700195
-388.203064 1043.752930 64.325592
-425.970947 1358.650635 -368.317902
-394.944885 1092.195435 184.641617
-375.469727 1463.632202 -289.258728
-288.216766 1017.670227 -90.358223
-240.512558 1050.171875 -111.081161
-410.849792 1104.286621 138.297821
-514.739319 1319.792603 -311.973541
-359.228271 1023.583923 430.423920
-401.997711 1500.419434 -171.314621
-475.040283 991.453369 107.263435
-217.319702 1117.582275 325.284576
-176.007706 1155.382080 52.919727
-646.089661 1327.224121 -179.396057
-219.974304 1087.428955 -9.268697
-224.037109 991.980225 463.681732
-210.933990 1054.167725 -123.086990
-287.678284 1033.641602 -114.636497
-115.495842 1121.056885 318.318207
-482.673248 1469.503662 -168.542053
-291.907318 1058.543457 401.382721
-554.426453 1309.311401 -258.598572
-411.074615 1505.723389 -62.935757
-543.062134 1414.907959 -46.927971
-84.229416 1138.709473 30.871778
-467.849030 1283.834473 -161.505127
-367.185364 1668.767212 85.666809
-431.364380 1573.827393 -18.865614
-486.363770 1323.072266 -307.046722
-134.485321 986.173157 471.496033
-209.516388 1168.209717 100.200539
-241.460999 1567.616211 -193.667389
-309.789307 1029.058594 424.946106
-208.787323 1053.527588 392.794708
-374.259888 983.558777 -89.355270
-186.843109 1007.660767 441.717224
-272.014038 1097.773682 60.550911
-360.539032 1079.211304 107.372658
-595.113281 1363.258301 -159.755157
-450.471863 993.290161 69.942352
-511.523895 1303.769043 -375.730560
-235.894745 1020.641235 434.623627
-277.792908 1043.715942 -60.551796
-235.301346 1001.511108 458.999725
-385.940552 1469.667847 -118.152328
-738.202942 1315.819946 -93.976387
-608.097778 1414.224609 -126.645729
-244.556671 1078.163208 6.722597
-225.154541 959.417969 509.774658
-477.908264 1564.402344 -35.976944
-428.117157 981.894897 -16.706129
-353.038269 1067.468750 54.560699
-583.671631 1445.863525 -58.939133
-450.598145 1379.350098 -298.927429
-132.477615 1183.085327 258.859680
-358.720032 1118.939087 130.371323
-159.163773 1022.806702 422.598083
-362.183472 1477.470337 -148.034790
-379.044983 1519.498901 -193.450836
-60.387676 1101.498169 327.925354
-189.667847 1061.263184 404.308411
-233.801483 1047.522705 408.927032
-454.242371 1040.131958 137.362213
-229.109695 1083.337524 -31.850306
-512.852295 1351.435913 -191.265182
-466.067230 1037.218140 141.099197
-642.435181 1539.475586 106.983215
-409.262543 1604.454224 -65.556099
-248.992249 1134.549194 104.655304
-49.363232 1017.997314 422.673706
-177.369186 1133.157837 318.729187
-392.285339 1370.548828 -354.280609
-510.637726 958.590454 52.570934
-154.443939 1104.214844 -31.714642
-225.671310 1031.479614 428.927094
-91.201126 1022.068420 412.787506
-221.900726 982.548340 480.157501
-521.851501 1419.381836 -153.996582
-262.470551 1056.302612 409.470154
-346.837402 1059.174072 29.733213
-159.539810 1087.843872 364.171906
-108.245659 1063.552368 386.996002
-70.152138 995.766479 465.447906
-313.967865 1038.498169 412.717102
-566.919678 1323.046631 -251.525925
-295.101074 1518.926758 -247.517975
-119.480125 1128.415039 297.238098
-635.988525 1393.753784 -121.801582
-370.734222 1438.819824 -319.406555
-106.595177 996.088684 452.795197
-708.761414 1294.293091 -165.515259
-422.657959 1465.183228 -224.019257
-268.845123 1134.252075 339.480927
-107.778740 1193.037231 236.982285
-273.603851 1020.296448 -69.871506
-384.113312 1455.659424 -270.540009
-398.857788 1140.609619 263.942993
-493.400421 1368.686768 -91.253746
-326.466827 1111.882935 145.269791
-149.044189 1088.478882 360.706940
-329.508118 1749.557983 159.408859
-519.048706 1332.166992 -290.763519
-391.593262 1413.510620 -339.140686
-105.344299 1113.854492 334.867737
-208.902527 1062.936401 -57.638470
-25.734705 1019.826172 426.627502
-327.830353 1068.599121 72.162888
-495.758972 996.581360 105.505363
-478.774109 1309.974731 -282.077057
-171.875580 1209.185669 116.219559
-330.058777 1585.150146 43.748123
-182.594284 989.598145 462.617981
-222.973343 1176.419556 131.297745
-179.824936 1080.462769 -69.043610
-349.107025 1470.029541 -254.281723
-131.367325 1153.803467 282.184875
-270.652405 1092.445557 46.652752
-364.703400 1124.306885 170.928802
-227.395721 1024.740234 432.062195
-354.490417 1447.220825 -310.437500
-389.960175 1708.239868 156.822433
-636.492615 1387.372314 -132.736786
-621.470032 1301.882324 -290.222382
-468.912659 1422.999390 -245.941345
-316.875519 1543.640991 -168.014206
-579.339966 1351.870972 -153.499512
-90.678993 1033.482544 417.675507
-622.844910 1366.133667 -220.186035
-427.723358 1384.752075 -351.895416
-303.563995 1182.924194 206.545227
-532.773804 1278.174438 -392.735443
-369.857697 1508.839966 -140.034622
-141.095261 1098.566162 351.966125
-408.862335 1609.005005 60.535454
-495.123322 952.307373 -9.080316
-472.231567 1434.884521 -245.828705
-629.019897 1265.442505 -281.723419
-575.854553 1424.225464 -96.174843
-248.578705 1126.222778 77.090736
-30.507242 1133.526978 284.957062
-288.802307 1055.264038 34.681343
-55.034790 1047.970093 396.396271
-709.398376 1339.345093 -154.629379
-150.390076 1020.179077 445.628876
-367.153595 984.164368 -71.854904
-266.038086 1045.187622 -24.570707
-560.635071 1355.713135 50.124325
-255.261749 1162.638428 125.158089
-416.566345 1567.302124 -18.834976
-265.244965 1123.615234 64.863579
-703.314270 1331.059937 -138.211441
-435.952606 1427.044189 -266.857361
-193.244141 1103.506470 -30.880919
-63.422813 1090.960327 335.939117
-41.690182 1116.861572 312.525146
-493.003143 1346.167603 -331.068726
-422.243073 1137.346802 190.156250
-656.639465 1376.278076 -56.191910
-347.428345 1197.311157 262.219788
-505.045776 954.579529 39.031254
-98.772285 1185.219238 247.115311
-492.977478 1397.950439 -143.450516
-164.523743 1121.668091 -59.166889
-52.636665 1033.048706 441.382385
-310.744446 1144.516357 320.315033
-380.828247 1066.994873 109.972992
-587.666870 1379.621704 -69.587288
-248.668839 1046.274048 -136.157593
-224.153397 1052.794922 -42.174831
-83.061989 1203.120605 247.578934
-443.176392 1350.635986 -336.764404
-191.340881 1079.680908 375.880005
-347.473602 1504.686035 -190.186005
-297.278015 1187.733887 208.142151
-283.224762 1019.734314 431.891144
-219.904999 1085.194580 -38.353207
-562.679199 1298.994019 -311.879517
1.062421 1047.754639 390.010010
-220.307724 1090.184448 -6.312339
-332.079376 1107.956787 100.251549
-586.659790 1254.808960 -363.704773
-336.517700 1468.620239 -321.164520
-217.322937 1103.106201 12.708108
-78.034348 1000.522949 449.392059
-273.765991 1029.032227 -71.648567
-355.008270 1434.686401 -325.408112
-416.896118 1003.745728 57.184902
-377.916534 1191.009277 228.663025
-368.766205 986.535156 -68.828835
-109.449249 1036.428955 425.709045
-178.326767 1001.898193 477.390167
-330.435791 1068.769653 399.062439
-277.248596 1139.538940 137.091995
-231.377930 1090.963257 -0.191302
-700.770447 1302.761230 -190.541428
-594.930725 1323.789551 -266.568481
-373.778687 973.328552 -32.052197
-252.923447 1034.666626 -58.270725
-248.129608 1038.240234 -31.388552
-306.843140 1552.729492 -160.211945
-375.581512 1592.490845 -39.519436
-102.349770 1171.474854 260.575897
-348.645386 1506.578857 -218.825226
-14.807236 1032.501953 423.692322
-275.415527 1164.266724 158.533798
-559.086975 1378.979370 -204.298950
-358.834625 1459.380981 -285.891602
-516.223267 1305.546143 -346.057251
-438.893585 1359.921753 -364.282379
-196.867538 1001.331177 459.147797
-292.422699 1004.552490 -74.207016
-7.195343 1116.765991 289.045959
-301.621826 1084.393799 383.906158
-579.371521 1248.039551 -361.152069
-364.010895 988.581482 -50.726269
-449.531677 1146.706787 230.818268
-478.540894 1350.698730 -333.106201
-283.578888 1012.371338 -80.636192
-538.743530 1428.414429 9.531497
-413.358765 1373.086792 -359.621246
-730.728455 1317.294434 -4.266551
-717.293030 1304.440186 -76.874275
-342.098022 990.098450 -48.841335
-347.623810 1095.832642 349.590820
-279.424225 1103.213745 31.583685
-368.045013 1099.903809 112.469627
-388.787537 1408.953369 -307.269836
-555.326111 1380.172852 -201.275497
-674.416077 1309.704712 -225.254486
-371.105103 1487.811279 -229.301208
-201.694229 1057.544678 -68.877312
-440.730103 1707.014648 160.100189
-485.612671 946.882080 6.461055
-415.780090 1599.200562 -68.302238
-678.758118 1312.644531 -52.501144
-636.911255 1307.318481 -250.281494
-91.377525 1204.445801 258.720917
-278.550873 1012.908325 -93.246918
-317.291260 1124.467896 122.563416
-445.723053 1041.701782 145.452515
-199.328735 968.358093 500.580566
-357.965027 1507.311279 -190.886688
-351.187927 1494.805664 -267.959290
-753.919373 1317.272339 -18.028664
-222.786118 1141.290649 332.522461
-563.632080 1390.023682 -85.595161
-730.745728 1268.653076 -175.155563
-452.755035 977.619324 48.124580
-371.931366 982.824402 -42.313488
-466.352509 1442.739014 -217.910294
-275.374573 1082.227295 -0.153816
-286.768738 1025.863770 426.216187
-320.908386 1040.233154 427.466064
-489.933350 1317.088745 -290.215027
-384.294708 1485.899292 -252.898941
-245.619232 1066.736450 9.375711
-268.165619 1027.251587 -108.189423
-202.745392 1065.713501 -63.515457
-83.853470 1009.590576 436.223175
-503.965851 1316.898560 -355.869415
-470.557098 1553.026367 -57.000717
-317.891876 1531.657104 -206.098007
-117.564713 1080.297485 373.765106
-660.769653 1309.402832 -222.292847
-198.281616 1075.400269 -144.740326
-303.032379 1034.821655 426.570892
-113.023796 1011.866455 443.685852
-216.332993 1241.822021 179.342041
-148.990662 1162.324097 269.413116
-348.337402 1594.823364 -48.606632
-314.535278 1067.351196 60.936836
-373.485718 1009.614441 -95.227127
-347.989136 1010.120300 -42.322456
-273.117401 1524.664673 -265.860596
-616.676392 1335.793335 -228.964630
-241.335480 1171.949341 125.582123
-402.619751 1042.553955 125.865959
-353.599365 1073.252930 383.605194
-260.872437 1024.298340 -101.519211
-508.885071 1291.688110 -358.905701
-480.647797 1399.552734 -275.127563
-436.309875 977.771057 2.565091
-160.736130 1113.381592 -64.109009
-145.676163 1031.880249 415.120270
-102.542938 1110.394043 328.866882
-355.680084 1173.875366 184.682983
-582.388428 1321.764038 -268.368958
-373.673981 1411.403931 -322.701660
-87.346443 1000.818970 444.241699
-484.696838 1352.624268 -327.677429
-405.947876 1410.542358 -317.455750
-409.518707 1438.126709 -131.732971
-174.672699 1100.747437 -82.604927
-202.139572 1013.668030 447.630951
-568.386841 1351.403564 -244.180389
-406.818542 1497.069946 -184.407654
-700.453857 1295.846558 -200.946930
-322.220978 1008.695496 -125.909279
-575.552368 1433.503906 -104.166687
-736.852539 1371.493408 -20.029488
-145.549072 980.430176 490.878876
-305.504547 1029.671875 -54.800167
-569.413391 1376.605469 -224.548096
-530.741638 1296.544556 -304.190735
-662.034180 1262.135498 -254.244507
-385.024261 999.132874 9.906381
-254.982910 1144.546631 332.253845
-101.149467 1036.928223 423.760986
-344.028595 1761.755615 154.766312
-239.861389 1604.011597 -156.927414
-139.649933 1162.297607 291.000824
-449.584381 980.544067 1.896721
-261.556671 1041.812134 -128.350891
-270.624512 1034.757935 -122.156410
-401.638489 1614.409546 33.288990
-38.336250 1099.885498 326.765350
-95.625633 1174.150391 272.350372
-553.838318 1364.732788 -252.235748
-85.813103 1099.045898 343.680054
-298.210571 986.292542 482.860535
-66.595139 1023.712952 413.317932
-265.681183 1044.729492 423.034058
-648.179443 1319.262939 -221.519928
-264.435303 1019.943726 437.886902
-266.968506 1088.669556 376.556854
-354.700012 989.727905 -58.773167
-208.081940 1076.568237 -95.556442
-241.521530 1103.007690 363.437134
-121.265877 1197.397095 53.887119
-583.522827 1272.188354 -366.710052
-235.888138 1577.444336 -199.679718
-618.674744 1293.456055 -275.034241
-366.706421 972.596130 -44.393490
-413.435852 1426.760010 -283.988525
-97.024689 1082.520264 356.852997
-370.839813 1465.919678 -270.396606
-332.061768 1010.805725 -79.514526
-310.879272 1026.524414 432.649902
-647.342346 1293.149780 -232.349899
-182.774292 1001.949463 447.278595
-494.897003 1356.753296 -302.710999
-485.340668 1345.268555 -325.705231
-319.279480 1060.595825 398.046967
-103.609009 1005.094482 447.263702
-489.919525 1334.130127 -340.556946
-278.236053 1507.070801 -244.047623
-683.632813 1372.466919 -1.623686
-259.480347 1070.415771 33.546440
-435.828033 1425.081543 -92.021538
-465.427124 1558.101196 -24.414495
-462.706268 1487.914429 -163.914520
-194.769089 1063.314453 -81.356003
-418.576691 988.023621 30.556561
-699.482361 1318.013184 -134.790421
-210.228546 1094.657715 3.397297
-97.076569 1117.433105 321.067261
-451.605255 1309.151245 -134.569168
-650.906311 1353.088745 -187.085007
-363.983368 1113.889526 127.978409
-290.475189 1079.193115 39.956516
-395.289001 989.698914 -44.010227
-117.996292 1093.237183 348.764740
-268.683990 1040.531006 -109.760963
-241.228989 1033.673706 463.675232
-43.739971 1033.608032 397.368011
-212.252426 1163.370117 310.546570
-423.330292 992.786560 45.355587
-702.289734 1349.256958 -54.610344
-84.529045 1155.821411 286.718719
-235.140305 1563.308228 -269.903717
-738.946533 1301.692261 -66.474976
-221.099289 1051.376465 -62.122471
-321.119019 1128.739868 344.284271
-225.563599 990.196167 480.344299
-318.481720 1029.004272 4.597449
-78.146660 1075.626953 359.731293
-171.978470 1204.879028 96.716385
-389.720673 1433.648560 -312.798828
-338.446655 1076.765503 390.793976
-427.128082 1575.454224 -12.998588
-406.598663 1375.202515 -363.653564
-296.158630 1016.231873 -134.148422
-357.681274 1497.618408 -197.818192
-369.597076 959.775024 -71.180931
-618.124451 1261.643311 -305.630402
-393.294006 1451.657471 -281.726166
-145.373001 994.090027 490.715210
-242.627899 1020.013977 -108.081612
-450.656860 1450.607544 -247.722092
-451.802277 1276.938477 -211.796921
-381.988312 1615.047119 -16.904919
-551.440125 1300.209473 -309.785614
-81.385033 1094.554688 340.304443
-143.521240 1107.907959 -44.200596
-423.031982 1422.572510 -298.863922
-55.248276 1009.245117 434.310028
-663.845398 1488.750366 49.772438
-222.200104 1163.592407 281.425079
-376.329376 982.168030 -46.499840
-500.841278 1399.873291 -263.061035
-337.990967 990.003174 -105.885056
-248.606018 1064.586548 384.604156
-577.818970 1248.482788 -355.995483
-207.096100 1053.944092 -81.969002
-317.122559 1099.123901 58.177174
-254.927963 1159.792603 97.270653
-328.566071 1007.143555 -44.998943
-341.957794 1068.527344 86.633026
-229.008316 1068.205200 -30.682268
-347.042480 1027.596924 1.804506
-500.129181 1298.423950 -389.461151
-564.570190 1379.627930 -198.050018
-291.937439 1158.625366 178.610001
-418.741882 1553.262573 -119.425980
-714.091797 1352.913696 -80.640686
-148.807281 1153.499756 7.401963
-295.391083 1014.349487 446.322388
-378.794678 1417.843506 -309.467957
-466.249329 1458.177368 -205.877396
-365.650879 1146.120850 175.560608
-14.585298 1018.273743 441.502167
-433.253845 1074.379883 197.820770
-374.733490 1721.067017 127.456070
-38.793430 1071.125977 366.353668
-577.334534 1272.559204 -344.142487
-608.286194 1372.802734 -180.805908
-381.070374 1486.370483 -249.548172
-74.671516 1203.613770 245.321320
-444.580933 1471.987793 -175.586609
-549.170227 1350.312500 -270.619049
-426.488098 992.610535 38.868076
-116.576286 975.542847 490.963379
-393.112488 1009.886658 3.830458
-567.091125 1273.429932 -366.510498
-231.904190 1534.899658 -266.626587
-342.882965 1001.750916 -87.332397
-270.054626 1022.319885 -106.601555
-458.351318 1371.257324 -339.201019
-148.341431 987.272522 472.435913
-344.024506 1778.859375 149.471207
-433.431519 1024.203247 109.708084
-280.003235 1037.821533 -119.005692
-378.062988 1528.001831 -111.214401
-100.830063 1025.593262 455.347076
-293.162689 1052.104370 401.529053
-638.376404 1468.541992 10.821688
-702.438599 1465.336060 77.146080
-241.172180 1128.946533 303.330811
-617.036377 1329.213623 -252.661926
-428.358551 1479.787231 -160.093933
-441.525055 1487.792480 -187.941635
-282.852600 1041.190430 -9.777762
-186.634735 1174.067627 87.676445
-618.544250 1410.544067 -21.777332
-122.397049 1032.931763 420.788269
-168.074539 1192.818237 258.523102
-261.139526 1094.057861 61.932430
-380.112610 1047.578735 81.270500
-303.311035 1101.042603 80.089417
-607.548706 1406.522583 -61.782043
-305.171875 1478.170532 -171.408127
-287.824402 1036.389160 -39.877850
-317.895386 996.082275 454.750549
-424.822021 1458.927490 -257.295380
-601.294250 1408.618530 -160.575180
-374.699402 1081.232422 152.525070
-586.762207 1418.733887 -47.439964
-293.026062 1213.333984 229.425827
-458.034271 1032.724121 91.423286
-417.726471 1612.374512 9.750068
-327.710785 1010.718933 -19.738457
-352.424744 1428.060303 -349.302124
-62.756607 1163.953613 281.129883
-303.367157 1740.581543 113.913544
-392.000916 1628.189941 25.823689
-283.502594 1588.395874 -141.242279
-273.548431 1023.116943 -76.661209
-90.479851 1014.008240 435.974274
-349.139252 1642.723999 -4.430346
-244.072403 1534.083252 -188.286819
-330.177551 998.879089 -90.433487
-347.932983 1481.437378 -263.952057
-117.649536 1125.652222 1.260366
-384.876190 1067.668701 117.662331
-595.878357 1356.756348 -252.011414
-766.511108 1264.295776 -144.343781
-267.638733 1042.648804 -115.683289
-348.068115 1040.241943 23.359753
-268.408905 1554.136353 -239.694214
-258.919159 1514.965820 -226.837097
-261.689301 1534.380493 -187.064850
-416.342010 1418.061646 -101.743553
-414.464508 983.458923 19.750729
-501.756561 1298.777954 -241.028961
-272.389771 1096.646973 64.934113
-504.656219 1440.707397 -129.244736
-71.291275 1156.732666 255.716110
-139.971497 1065.910767 387.346130
-100.296799 1142.643311 295.454742
-566.373596 1241.918335 -383.908508
-515.350891 1322.715942 -309.397186
-217.092239 1117.838623 346.031281
-421.690582 1732.936768 153.283249
-501.544281 1279.625977 -229.249252
-675.964783 1409.333862 0.971743
-486.598145 1316.374634 -381.422668
-409.729736 1000.137329 19.522554
-557.929810 1284.753296 -354.202026
-539.597595 1346.929443 -275.487946
-491.041382 1428.910767 -230.069778
-326.520935 1125.755371 349.572876
-229.172714 953.477295 512.995544
-339.924713 1499.069702 -179.405365
-486.752808 1011.593872 135.745789
-440.596313 953.807190 -17.582525
-66.641624 1066.725708 360.974426
-182.374451 1176.972900 98.809486
-330.851379 993.477905 -70.470032
-466.978882 1325.897705 -388.988434
-385.899323 1623.931641 46.609730
-652.467834 1372.921631 -137.832779
-168.197067 1165.603760 284.378418
-188.996353 1202.829590 116.360924
-783.917725 1332.629883 -60.383015
-73.945000 1021.896545 423.177734
-526.240784 1311.842407 -286.016418
-471.305359 961.302673 12.851560
-416.304077 1597.157471 1.877030
-253.572220 1071.048340 8.700451
-373.596802 972.434631 -50.463448
-455.820099 1033.967773 138.131561
-627.692383 1387.562012 -172.997681
-46.811043 1103.138916 327.808929
-234.808594 1007.245911 447.420715
-174.037842 1157.458130 292.335724
-29.734240 1061.072998 374.310944
-596.087402 1292.879150 -300.119751
-199.495056 1206.200073 152.534332
-401.235443 1485.059937 -240.052765
-356.017548 987.180664 -71.772369
-53.740479 1115.977051 315.439209
-205.555267 1070.111206 -24.627995
-225.929581 1048.124268 -81.776199
-281.594482 1109.491943 356.957062
-361.302429 1650.200317 32.192616
-314.475830 990.617554 460.832947
-71.336029 1128.652588 287.578857
-498.652344 1326.156738 -356.533112
-597.942505 1290.874756 -321.999237
-459.595642 961.123108 -46.844196
-473.351196 1003.127441 95.977074
-456.451233 1295.783813 -143.149445
-522.336609 1404.946167 -176.800171
-405.709869 1375.602295 -340.488312
-363.294373 1023.414063 9.862268
-124.464630 1119.934448 321.693909
-203.935242 1160.882935 309.982086
-209.649918 1070.670776 -122.801979
-295.261780 1500.943359 -307.779205
-398.648712 980.148376 31.856853
-491.946564 1295.537231 -377.219910
-382.702820 1447.927246 -262.877777
-387.695953 1061.438110 106.730186
-375.325745 1449.534790 -308.018219
-304.275970 1013.542175 -100.860657
28.368883 1062.613159 132.880188
-671.307678 1356.789307 -123.009468
-271.824646 1578.910156 -167.169754
-427.965179 1287.517212 -28.474922
-150.455780 1149.400391 24.042414
-622.703064 1384.925171 -104.753914
-188.212921 956.816711 519.303711
-341.157959 1108.075562 345.455078
-563.910767 1355.442993 -51.295006
-199.655441 968.294250 497.309509
-265.012329 1004.767151 -122.247932
-390.425262 1413.077393 -323.499268
-188.940582 987.885742 474.946991
-439.060852 1598.197388 -35.434933
-490.833435 1357.022949 -272.429108
-490.860107 1456.895386 13.934496
-427.675262 1391.452148 -322.624908
-319.885712 1204.793823 224.646866
-251.726196 1200.980835 168.969940
-465.232117 1460.618530 -171.352814
-644.202454 1399.532104 -124.395424
-358.107269 988.117981 -81.609375
-348.260895 1450.403931 -320.639099
-510.225525 1279.213257 -333.799561
-305.246613 1139.904907 131.309219
-661.426453 1338.503296 -180.375763
-234.923370 1021.084045 430.881042
-412.066772 1117.706177 175.788071
-568.392517 1336.655396 -271.487488
-176.025162 1122.195190 2.057275
-463.541412 973.091125 -33.072880
-321.962891 1526.034668 -215.993256
-350.295563 1685.652466 56.636345
-411.444580 965.415588 7.120406
-309.488220 1469.347412 -319.432556
-348.219055 1041.138916 50.726444
-502.810577 958.138550 48.401821
-16.502794 1120.878784 292.523956
-370.053192 1594.399414 -48.267765
-129.380890 1133.307617 317.303619
-250.770386 1142.137939 115.988991
-108.516479 1052.133667 392.963074
-613.980835 1426.689087 -85.350731
-275.166840 1044.261230 -12.946768
-322.308197 1214.828735 256.580536
-269.679932 1513.852295 -198.763107
-646.950317 1554.305420 79.901970
-292.972504 1009.855225 -69.367332
-431.817627 1465.573242 -213.699219
-697.963867 1341.897583 -123.821426
-168.429382 1153.388550 32.337765
-330.650024 1738.685181 79.187485
-230.542557 1130.750244 53.001217
-214.952454 1075.689697 -117.130081
-283.487549 1509.401978 -238.583618
-232.622665 1056.690063 -16.320150
-335.164978 1517.782715 -194.054367
-615.114258 1244.295898 -334.152344
5.251029 1045.736816 412.854034
-204.037064 1083.954590 374.028595
-268.616821 1034.668701 439.082489
-335.612732 1041.229980 34.212833
-604.142456 1524.926636 75.319260
-33.087196 1085.118652 332.037720
-393.128265 1177.745483 263.696869
-271.860352 1040.427124 -123.180153
-488.722931 966.067627 51.167522
-292.480591 1074.777222 35.419773
-283.891388 1108.535889 84.639427
-257.913147 1098.233643 354.919739
-411.554840 1011.632385 64.722771
-573.992126 1432.582642 51.577896
-80.796265 1138.940796 297.952179
-425.762939 1036.964478 82.476402
-391.994202 1156.428833 213.709396
-6.385962 1054.046387 371.142670
-21.054214 1097.988403 322.064453
-308.301788 1522.450195 -231.667419
-175.752625 1042.411377 418.100586
-185.517273 1135.189941 23.341274
-595.443604 1421.378662 -91.968300
-493.218903 975.080444 87.135826
-300.282471 1198.873047 219.004227
-251.029877 1180.012573 303.642151
-160.825104 997.158508 475.535522
-728.476990 1319.188965 -102.020836
-534.135071 1290.861572 -385.299164
-352.530426 1439.116333 -344.603546
-190.378616 1111.541138 -20.384104
-418.802124 978.236816 2.714472
-166.318970 1166.249634 281.194641
-536.496338 1456.397827 48.803986
-372.057465 1431.771362 -334.877838
-194.707550 1193.109131 95.757591
-591.586487 1314.468872 -275.376526
-489.950256 1334.559692 -303.243286
-251.126312 1045.634399 -13.984248
-306.615936 1204.733398 228.723328
-697.456787 1295.869019 -205.468185
-440.493195 971.962097 13.043630
-265.235931 1131.959229 345.566132
-371.023773 1042.840332 28.300478
-334.157135 1128.951294 153.137177
-740.282593 1439.028198 43.202007
-326.823364 1073.734009 80.173775
-11.251847 1052.016479 103.628105
-360.978333 994.447266 -78.602325
-144.642975 1014.738831 437.236755
-304.555115 1096.875854 89.642860
-129.878891 1014.073792 441.282013
-399.003479 1529.222290 -140.641174
-558.632141 1330.626831 -216.013428
-408.964813 1625.732910 2.262939
-520.993408 1279.841675 -356.589111
-267.704773 1486.781250 -217.470184
-560.933350 1402.818726 -169.494598
-567.429504 1288.939331 -339.871368
-315.728638 1130.871582 334.637634
-290.852112 994.248291 473.570313
-459.136993 939.958069 -49.660686
-392.329010 1467.010132 -272.167267
-318.454041 994.278564 -126.166931
-330.780212 1017.059998 455.165588
-296.579376 1063.797852 24.609911
-441.358154 1316.117310 -52.813320
-598.052185 1356.688965 -236.859512
-234.447388 995.725098 489.792175
-162.544876 1110.577515 -53.831245
-434.989868 1566.894165 -40.780254
-176.546707 1066.043091 -102.980591
-284.493988 1045.025879 -3.079831
-139.151382 998.487000 453.237732
-314.101471 1515.353638 -235.123474
-39.546436 1040.888062 395.270203
-354.362061 1524.270264 -130.790771
-372.668579 1582.733521 3.939516
-288.749695 994.973938 451.924652
-83.216499 1117.310425 304.660034
-105.321854 1039.640259 401.573273
-234.731689 1045.479126 -116.298515
-218.500336 1266.601196 201.788239
-297.087799 994.810303 460.435150
-406.181946 1081.438354 138.882294
-464.722229 1460.860352 -145.526047
-202.095673 1027.880493 445.361237
-440.731232 1074.795044 167.232925
-276.845734 1199.353760 197.473816
-683.743286 1316.951050 -57.942554
-198.460770 1099.929688 360.163208
-99.630470 984.003357 476.007782
-690.787170 1286.051880 -221.345856
-409.644928 1480.240723 -197.653198
-661.218262 1295.980835 -242.436081
-345.338409 1481.578735 -151.454773
-249.318619 1011.362488 455.954498
-426.935394 1094.679688 160.181091
-294.807373 1521.916016 -252.476105
-393.172363 1010.989929 67.999062
-623.538269 1275.503784 -299.709961
-95.673447 1055.660400 380.750824
-315.298401 1476.716064 -270.987244
-594.030640 1430.221436 -39.651836
-236.895050 1136.467163 316.832275
-281.822723 967.685791 502.757629
-444.012543 1028.640869 73.422737
-197.952606 1146.243286 19.505100
-372.652039 1025.867554 4.851080
-85.947960 1080.665649 375.151398
-284.463837 1493.393433 -280.278076
-212.363342 1022.995850 441.442963
-367.963562 1481.755981 -270.861786
-697.979675 1338.241699 -158.050568
-216.866501 1103.405151 18.594595
-253.889236 1045.907959 -63.780979
-440.127869 1085.695190 193.412735
-227.707855 1009.758423 452.246490
-479.318817 1448.674805 -219.959106
-284.411652 1058.440552 18.340117
-296.296509 1523.634888 -243.807266
-595.802612 1330.903320 -292.285278
-175.840500 1104.214722 -47.454525
-573.089355 1302.782837 -329.848877
-214.023117 969.104492 488.766174
-268.914825 961.794067 504.722748
-401.017426 1556.542114 -114.964378
-333.854370 1648.171387 25.512163
-328.645233 1063.759888 389.738129
-263.426910 1090.075562 8.831263
-194.586838 1106.679688 -28.846882
-413.192719 967.753296 -10.261135
-290.196503 1031.538208 420.172638
-399.810760 1473.315308 -255.765167
-376.462616 1628.649536 11.902238
-305.197876 1107.954712 360.446869
-350.311310 988.769836 -61.292149
-427.841858 1151.896973 248.914352
-434.052490 1581.868164 -76.836624
-264.379395 1110.169556 363.847687
-157.807190 1096.648804 349.890411
-710.126221 1331.310791 -142.947098
-257.582001 1219.870605 235.131348
-369.066376 1626.422852 14.337231
-325.954437 1012.332520 461.799377
-413.848175 949.251831 -60.776741
-254.259903 1191.899292 188.741104
-86.234596 1065.195557 383.603027
-678.410950 1349.591187 -139.263702
-320.957458 1070.939209 394.057617
-417.371338 1045.942871 140.818710
-415.791443 1344.609985 -370.295197
-107.724518 1025.177979 426.351654
-365.686798 1432.300659 -332.554260
-167.936447 1217.677124 270.444611
-378.063171 1139.120605 176.638138
-154.284958 981.714233 481.498596
-728.343384 1315.708618 -59.372055
-459.665985 1338.785278 -385.724518
-483.076141 1395.669922 -284.345367
-290.198395 1579.071899 -177.173645
-160.418076 1116.187256 339.351288
-267.145905 1023.777832 -70.040222
-648.934814 1332.731812 -201.252808
-561.713501 1367.869019 -191.713516
-262.274719 1041.271851 432.162292
-282.021576 1216.074585 222.831161
-451.795807 1107.051025 221.742966
-130.998581 1136.599121 313.969727
-711.592285 1309.635742 -189.828568
-141.061508 1098.838257 345.405945
-522.159302 1306.890381 -351.625946
-407.540070 1379.084106 -339.355835
-688.404541 1306.530762 -196.835541
-445.666046 1340.287720 -376.721069
-190.700592 968.913452 496.567322
-414.422211 987.342163 23.064016
-5.030870 1064.722412 385.853943
-676.517151 1388.365479 -78.448914
-503.655151 1308.945068 -367.721741
-416.242737 1514.081299 -125.533020
-94.847298 1066.592529 370.805359
-303.989838 1573.651001 -147.252838
-36.347504 1034.835571 399.204407
-436.494812 980.117188 25.058027
-353.134064 1009.721130 4.236997
-94.291359 1015.791565 486.979889
-235.120087 1041.088257 -89.010475
-405.280701 995.182312 31.043505
-85.460754 1112.967163 320.602997
-103.086372 1093.679932 341.177032
-507.736725 1327.421265 -256.518799
-346.597351 1492.886108 -243.056992
-341.285400 990.971375 -73.549583
-119.233795 993.895447 475.355011
-187.940979 1090.061279 -100.750565
-406.053040 1426.030762 -274.933960
-222.057526 1216.943604 149.741714
-295.380737 1200.200317 214.416977
-81.776337 1121.000977 317.807587
-323.148376 990.738220 -74.520699
-159.913513 1187.358398 96.857445
-406.296997 973.310181 -50.281788
-592.890686 1379.858643 -190.578354
-242.439316 1569.824097 -253.216904
-301.170868 1102.571045 109.776314
-452.004425 1601.387085 7.210291
-15.376095 1042.287476 91.936966
-112.510834 964.150208 510.186279
-223.489334 1109.269043 363.502899
-392.790222 1417.209229 -318.467712
-445.916840 1392.749023 -317.750732
-224.704758 1073.514771 372.967163
-403.811951 1601.555664 -74.678749
-324.117737 1097.295288 367.291565
-281.046356 1109.538086 63.816517
-609.906189 1378.582764 -167.913879
-540.739990 1270.504883 -325.855530
-445.959869 1006.883240 85.814636
-419.430389 1623.502441 -16.008703
-298.246887 1152.851685 154.269241
-405.355194 1394.703613 -361.466125
-351.161835 988.168457 -41.493328
-321.342896 1067.535767 86.992760
-210.963608 1130.008423 314.785461
-446.966095 1559.949951 -68.591728
-723.632935 1319.877808 -114.130516
-457.885284 1445.578003 -186.772110
-293.743988 987.440369 460.438232
-171.061493 1099.529175 -94.614265
-150.907684 1149.289063 -10.105874
-671.247742 1354.638184 -107.923531
-391.095337 1494.537231 -222.119171
-235.640060 1567.879272 -228.498703
-364.174591 1456.829468 -311.132721
-153.974564 1128.619873 329.024658
-442.877869 1427.601685 -259.783783
-454.331604 1042.723022 179.201706
-108.207199 1047.819458 393.808350
-164.422791 1174.635742 58.402973
-277.091370 1154.456787 142.364609
-331.257355 1644.013062 5.070806
-354.884644 991.392151 -30.056496
-398.724976 1522.380737 -154.765823
-281.179352 1490.790771 -199.079742
-342.379120 1541.005859 -135.812546
-601.220947 1329.884644 -239.817337
-586.451965 1419.537842 -50.105217
-449.067047 1370.177856 -357.456573
-232.350250 1080.867188 388.130524
-676.490234 1344.482422 -177.662415
-612.711243 1302.717651 -273.243805
-305.792938 1085.750610 380.566162
-500.963043 1421.837646 -208.938812
-428.860077 1440.636475 -221.148361
-320.608948 1001.933960 -43.369946
-223.474457 1056.503662 -51.822811
-255.935104 973.165649 501.737701
