ply
format ascii 1.0
element vertex 1350
property float x
property float y
property float z
end_header
-1204.884766 910.643616 -353.282379
-1081.369751 189.492477 234.098282
-1296.336426 664.791809 -481.000427
-1120.127563 237.941055 131.115601
-1136.102417 429.741577 91.595192
-1150.646606 848.335876 -467.597565
-1338.890259 485.729309 -568.922485
-1281.226807 742.544434 -418.055817
-925.225464 629.366760 -121.507271
-1028.997192 273.345337 294.395538
-999.000977 360.295135 -245.762192
-1106.294067 172.624023 183.951492
-1180.627441 401.420197 -58.420891
-1141.603760 504.985352 -30.826973
-1270.440430 778.148987 -411.775879
-1328.444824 797.220337 -269.061127
-1126.328369 367.628723 112.532097
-1318.323242 661.902893 -451.326111
-1275.607300 925.013123 -242.458237
-1429.650635 824.670776 -228.846359
-1230.012451 843.039429 -367.960449
-1272.179688 727.313232 -401.751648
-945.649109 371.082520 -277.999115
-1381.457275 455.249817 -560.683960
-1434.346558 748.646790 -293.319122
-1114.872925 282.501984 122.041565
-1014.662720 375.823700 300.357727
-1070.537476 563.308960 -17.838583
-949.018738 615.447144 -78.288322
-1152.897583 945.891724 -377.895844
-938.125610 520.439209 -165.055283
-1541.378662 841.638550 -92.277885
-941.298706 442.612091 -222.482483
-1114.737915 450.130615 129.200974
-1187.482666 890.194153 -393.532837
-1103.738770 433.835693 118.583908
-911.846802 476.244965 -231.432358
-1168.340820 427.454010 -53.192062
-1147.416748 831.148926 -480.786102
-1029.437744 352.286011 -198.306351
-943.449829 653.306824 -56.648350
-1159.501831 309.171173 61.736225
-1150.082397 943.676392 -398.782318
-1137.128296 445.180725 -58.157719
-1211.651001 636.249390 -544.751892
-993.651428 463.897766 -158.514999
-1284.637451 801.881775 -299.839172
-873.720825 557.523376 -229.092621
-1148.336426 926.856384 -376.274323
-1049.680908 384.174835 -175.209793
-871.029785 614.308655 -205.131073
-1128.370850 330.642426 109.989243
-1468.077881 823.933960 -171.532944
-1062.367920 497.578949 189.409225
-1180.155884 840.744812 -414.965363
-914.383240 501.062103 -238.754364
-1005.204773 364.625824 286.907227
-1020.496033 335.675598 258.347839
-1117.199097 413.193970 -112.180428
-1191.043701 736.327148 -489.098206
-1166.747803 369.696198 -122.669052
-1063.352539 243.281265 208.684143
-1146.479370 873.753479 -456.272919
-1194.493530 850.052917 -395.256714
-1160.295532 805.472107 -508.768799
-1256.243530 569.101807 -558.274719
-1097.212891 800.325806 -544.745422
-1341.921631 578.173584 -453.791260
-1230.859741 640.648865 -548.298096
-1190.090332 675.947754 -555.447144
-1475.618530 715.351929 -223.909653
-856.494507 650.484070 -25.534191
-883.392761 597.117920 -163.485580
-924.948669 425.052368 -265.117157
-1264.396973 651.562744 -341.153870
-1425.084839 812.143127 -242.401764
-1344.530151 613.299133 -383.407379
-873.403320 544.808594 -251.716354
-1185.199341 881.626526 -294.913177
-1027.430908 257.576202 297.029266
-1175.840942 433.369812 75.750885
-1257.828247 961.003967 -257.839935
-1172.463257 514.001831 14.654640
-1153.209473 272.607300 49.720390
-1315.865601 528.320801 -555.841309
-1112.698120 458.699127 -66.663857
-1135.138672 305.135132 -170.334061
-1062.341797 535.030273 177.879562
-1204.790771 746.394958 -458.980988
-1324.406860 599.782654 -428.588623
-1212.392578 683.571350 -553.584961
-898.033020 642.126343 -122.417473
-1282.122559 810.495422 -312.013397
-1295.458740 759.444641 -410.333405
-909.081116 534.101990 -178.628632
-1191.989746 703.915894 -524.010620
-1107.576782 792.827698 -536.905029
-1272.306519 686.807617 -377.750916
-887.185181 480.125946 -286.949341
-1361.485718 530.720764 -459.589874
-992.051331 596.376892 -58.739391
-1067.015747 471.851593 159.612854
-910.397278 422.291199 -304.753662
-885.108643 530.102478 -219.633347
-1008.781433 465.086090 248.750320
-1225.146362 981.856873 -295.623871
-1087.333008 733.401428 -577.550537
-1304.572754 639.254395 -425.373505
-1251.619263 842.815735 -276.190460
-885.123962 538.413147 -194.549301
-1113.749756 434.079010 112.633812
-905.531006 459.618835 -283.824066
-876.558289 640.006897 -152.322357
-1480.351440 694.767822 -163.200546
-890.692322 605.650146 -181.422211
-1046.447510 435.260040 217.976120
-1033.532471 454.537079 -156.180725
-1265.256226 822.380371 -392.894318
-918.714355 458.572815 -306.807526
-1580.422729 752.079041 -125.648788
-1182.740601 940.726440 -364.501312
-1040.474243 258.961761 254.274933
-893.274963 528.370544 -263.750214
-1035.751099 508.254913 229.062515
-1092.540527 435.503387 153.143265
-1309.612061 617.799011 -491.114746
-915.645996 438.982086 -283.282410
-1210.041992 334.743713 -102.541977
-1174.890747 639.544861 -612.417236
-1333.287964 560.387329 -482.899109
-820.260071 607.493591 83.263672
-947.282227 474.641571 -194.139297
-1049.634399 239.262634 239.550858
-1175.266235 657.834412 -578.704041
-920.968384 459.073090 -245.466385
-1428.715576 760.552917 -139.985260
-884.858704 634.395996 -125.965340
-1081.255371 420.816895 -121.830582
-1099.052124 294.982605 185.028809
-1116.015259 452.187073 86.637291
-1234.236572 708.305176 -469.179047
-1179.940430 879.656677 -427.249146
-891.229370 621.729126 -186.364777
-1258.925293 673.928467 -393.891876
-1052.806885 527.009399 -78.730240
-1169.800903 471.564941 -13.529784
-1134.825562 300.539520 118.793671
-1148.623413 838.099060 -484.178619
-1290.616699 494.120178 -597.789368
-1126.129272 720.472717 -570.411133
-1046.898315 456.611572 -112.990456
-1208.923462 653.521729 -562.349121
-1246.167603 878.559265 -329.757416
-1291.740112 522.843018 -536.571594
-1047.920166 507.550720 208.747375
-1085.939941 474.080292 126.050186
-1266.299927 812.451904 -358.949982
-1246.446655 800.248352 -415.822235
-897.351746 445.280212 -297.044250
-1083.368164 276.432526 186.977173
-1199.555542 399.128510 -40.105247
-1294.453857 560.207581 -558.345337
-1223.554932 613.208496 -554.442261
-1163.382813 648.189819 -582.904297
-1064.637207 299.437317 212.281097
-961.744080 652.497498 -27.840937
-902.469543 605.277771 -146.455826
-1341.087280 478.106812 -505.446289
-1155.310547 270.203033 68.101738
-1058.821045 310.793884 -233.604385
-958.939331 345.620728 -312.103149
-1212.248779 595.732605 -595.098389
-1329.530518 557.210876 -479.383759
-1069.269287 529.425415 -73.392776
-1449.467407 690.406189 -224.040588
-1225.535278 865.039673 -390.391541
-1441.352173 740.925232 -260.725342
-1333.858398 816.911621 -259.984528
-1084.833740 435.417480 156.701721
-1071.068359 495.104279 179.364548
-1314.023438 602.522400 -473.167236
-893.669495 622.848511 -169.645935
-1303.114014 612.217651 -504.124878
-1299.280640 533.842285 -547.297424
-1157.342896 636.090515 -620.347900
-1316.518921 763.425720 -392.717682
-1310.471436 539.072632 -551.905640
-1170.303467 364.950928 -126.311707
-1124.556396 664.894287 -602.577759
-1044.009766 409.817719 -157.809433
-1202.963989 842.513184 -422.251434
-1293.699341 727.926758 -405.962921
-1060.454224 352.775970 205.153503
-1279.218140 525.359619 -570.012878
-1272.653931 686.376648 -468.389099
-1158.097046 870.977600 -434.222168
-1198.426025 985.844482 -319.568024
-1022.361572 509.375763 -104.020355
-1057.746826 480.070770 -78.130943
-1588.811768 757.142944 -122.657448
-1173.006714 361.273560 -106.321205
-1165.295654 259.341705 50.119251
-1082.279663 568.608826 -22.629919
-1122.534058 732.388184 -499.563660
-1452.738159 580.171753 -398.046204
-1067.426147 298.166962 217.168396
-1175.720825 932.669678 -314.142395
-1299.777100 535.798584 -561.748535
-1246.680542 599.137024 -569.164795
-884.966370 603.132751 -195.021423
-1065.773193 491.711060 -92.792564
-1387.583984 491.787842 -487.368256
-938.099609 483.720490 -177.598373
-879.645264 563.932190 -208.525497
-1033.679932 319.762726 242.695267
-1156.291016 505.219666 -6.670958
-1119.588013 269.247437 137.243118
-1333.651367 621.319946 -370.405914
-1023.021240 346.227356 277.702179
-1116.897217 859.562256 -456.739136
-1011.164124 418.935242 279.617004
-1062.973511 798.167664 -574.288391
-970.669434 331.961975 -269.803009
-1273.271729 840.189514 -342.703552
-1024.053833 478.597717 -110.685730
-1162.756470 711.931030 -544.949219
-1125.963257 315.800476 125.448677
-1095.993286 505.987579 148.021576
-1062.204590 536.872681 168.393188
-1083.102661 291.198608 -193.848602
-1115.282227 312.812317 132.377151
-1025.860352 321.182526 264.064728
-1013.257263 480.350189 -131.191284
-1124.765503 451.991974 -62.437202
-1116.463989 348.038757 123.793915
-883.184326 647.875916 -172.224442
-1153.718994 637.524658 -615.200562
-1120.651855 449.157196 120.455635
-948.236877 563.947754 -104.341171
-1076.569702 364.628967 -176.974518
-1188.684204 882.561096 -377.347900
-1066.730591 397.951324 190.844696
-1147.502808 633.569641 -626.218018
-1023.921265 536.381714 187.620056
-1165.235596 959.884033 -372.534973
-1156.225708 918.623474 -416.617340
-1447.963989 809.773315 -228.706238
-909.847656 612.578796 -131.413223
-1081.803345 366.087463 176.625824
-1222.513794 640.185791 -575.380066
-1060.266113 785.185181 -583.646912
-899.024048 466.897461 -282.512177
-1193.795410 920.285278 -333.246704
-1144.183228 395.616699 -104.226944
-904.635864 594.647949 -173.303894
-1281.525391 767.735779 -312.671356
-1123.975464 334.467804 114.552078
-901.778870 568.679016 -168.925217
-1150.620117 658.578003 -599.796509
-1082.984253 411.763458 -132.419968
-877.273132 608.800293 -189.758453
-933.586426 453.453979 -224.032913
-1260.067139 736.615051 -334.334686
-1197.905640 980.028015 -310.993103
-1075.836304 167.285065 211.040741
-1507.986450 828.156311 -158.005646
-1173.494385 709.539246 -572.454529
-1120.925171 338.781952 102.099190
-1081.495972 504.770111 -55.136269
-1146.911011 919.537537 -423.584320
-915.219849 406.811066 -323.434296
-933.354126 598.899048 -137.987106
-1193.543091 846.534241 -426.601044
-1333.415039 766.294983 -367.343475
-1254.537598 905.641113 -253.609283
-919.633667 612.969727 -101.847504
-1197.489990 892.279602 -301.908569
-1058.663574 515.962524 -79.296638
-1030.395142 362.798706 257.257263
-1102.485840 308.641968 156.715469
-1166.339722 707.494446 -565.683594
-1287.678711 955.263489 -231.541901
-1138.293945 278.420105 95.990929
-1069.297485 775.476929 -576.010071
-1035.374268 417.076141 216.245956
-1324.864136 638.526550 -340.367615
-1155.816772 749.512878 -514.191040
-1024.472534 346.877655 254.965729
-1027.977173 407.677063 -212.884155
-945.401306 371.426941 -334.730042
-1072.769775 541.101135 129.036850
-1258.159790 693.215515 -454.364960
-1266.107300 822.132690 -289.168793
-1255.809570 845.149780 -365.857513
-917.053894 470.172485 -227.094299
-888.037781 508.362793 -239.075851
-1319.354248 649.082336 -463.297272
-1244.098267 624.251770 -390.889282
-1228.973633 447.653412 71.540161
-1173.925537 827.056458 -472.164673
-1012.871643 355.775055 291.438507
-1122.490112 879.984863 -462.129364
-939.610657 571.980286 -131.681625
-1514.450073 854.112305 -146.524200
-1468.131348 560.879456 -406.964020
-1129.675415 243.598526 103.913673
-1027.437012 327.375763 263.797241
-1151.519409 663.437073 -399.996429
-928.547791 501.200928 -217.315933
-1105.868652 356.154449 -137.137726
-1139.461670 393.748932 46.244389
-1118.871826 397.892334 114.589996
-1071.757324 331.919861 186.912979
-1263.526367 681.874268 -483.729004
-1016.783325 349.684265 271.322418
-1088.727661 846.286987 -509.560120
-939.214783 412.977936 -282.418579
-1310.115601 603.285400 -512.389343
-1560.426270 833.959106 -108.554901
-1172.017456 349.804413 47.123074
-1269.221680 869.129272 -310.165314
-1210.032837 652.051819 -583.165833
-1207.566772 883.940613 -352.555878
-1034.034424 528.215210 -77.024094
-1081.600830 168.269409 195.355026
-1195.855103 743.799011 -481.141785
-1169.639526 637.506531 -580.166748
-1252.998169 434.683105 61.207005
-1050.819702 776.249146 -597.871887
-1023.343994 507.963623 -117.734749
-1099.728271 438.679047 -118.152756
-1141.694580 398.767853 100.758110
-1070.359497 555.947632 154.636597
-1334.663086 590.753845 -509.201569
-1139.024780 280.919189 75.213379
-1025.229736 457.204529 -168.085251
-1183.555542 942.556396 -337.285553
-1192.475342 884.370361 -412.923920
-1232.574219 832.242004 -404.160706
-1181.845337 929.986206 -383.383636
-1265.870728 825.013977 -279.506897
-1326.451660 535.088806 -510.431427
-992.014709 368.939178 -236.469116
-1056.912476 456.448914 -97.485817
-1089.628296 799.767578 -542.900757
-1272.241333 663.314331 -414.669525
-915.072754 629.410217 -96.827576
-1157.541138 762.771240 -519.800537
-1191.023682 621.021851 -600.446411
-1459.972656 748.932800 -224.023697
-1129.879395 725.257019 -566.181885
-1117.207520 734.184875 -499.492401
-1155.856689 495.695099 12.244216
-1109.731812 473.575958 -72.565361
-1121.705444 768.706726 -542.295715
-1000.598816 319.597595 310.271973
-1265.046753 712.268005 -408.261658
-1446.427246 823.509277 -212.895081
-1276.964966 733.123108 -308.180206
-1083.839355 450.735107 161.888412
-1151.340454 510.402557 -3.418593
-1126.776001 680.419250 -486.665314
-1281.337158 773.987366 -331.092438
-1566.507813 847.342224 -76.252846
-1029.386475 587.023926 -48.259090
-935.889282 376.228638 -282.893372
-1311.628418 799.318420 -364.324646
-1179.622314 711.706360 -556.366516
-1322.312622 557.420837 -488.506104
-1236.885254 653.945557 -339.785278
-895.958496 525.533508 -207.428360
-875.650513 593.238037 -216.494751
-1179.092163 627.603394 -601.125793
-1189.044922 701.976746 -510.095215
-1319.810303 642.162842 -468.028809
-1182.305176 699.326904 -519.557312
-1142.361206 303.246826 76.237732
-1063.513794 191.698700 232.194153
-1036.046387 301.490692 287.491730
-1230.986206 695.363892 -493.795044
-1129.099121 435.273071 120.101067
-983.264648 513.918579 -139.957077
-1075.253418 373.355896 168.692352
-1092.916504 292.519287 175.012146
-1046.314575 489.129761 -97.338699
-1274.602295 777.068237 -435.166718
-1093.634521 328.470245 158.273605
-922.206177 622.638611 -133.772049
-1181.233765 786.923706 -482.500458
-1299.624756 573.722534 -519.974792
-1509.575439 834.551758 -150.827057
-1054.726929 710.048096 -627.621521
-1019.977661 372.429016 253.908920
-945.599792 613.731628 -88.724777
-1276.421265 814.122498 -378.579346
-918.374939 453.089752 -302.840820
-890.011597 544.676697 -202.088791
-1308.059448 787.408020 -310.306061
-1561.259277 828.331787 -130.228333
-1019.272034 349.244720 -234.875641
-1233.397827 583.997498 -588.342529
-1048.894653 447.334656 205.667282
-1360.725464 631.710449 -312.995941
-1185.512329 256.395355 14.589129
-1245.133545 962.129517 -286.059631
-1486.249512 532.602173 -433.981873
-1108.207764 422.818024 143.237015
-1270.099243 970.505249 -270.314117
-894.898315 547.071716 -198.457504
-1095.073364 422.062836 154.143387
-956.934448 435.186249 -218.978638
-1297.670288 653.603882 -460.215698
-1006.089172 396.978851 -210.094650
-1158.935059 817.067078 -451.769836
-1034.685669 430.130280 -161.858398
-1046.190674 476.065613 212.209290
-1149.551147 335.627838 50.002674
-947.178772 604.293030 -75.527504
-1127.037842 853.435181 -474.893311
-928.789917 430.884979 -302.327118
-1222.105835 829.313599 -299.544739
-1055.630859 401.320068 209.012085
-1473.179688 761.444763 -145.304688
-1303.231934 638.447144 -496.772461
-1041.791626 329.955566 -228.288727
-893.677673 532.599670 -203.987793
-1095.263550 775.866333 -542.200806
-1082.212280 225.965866 212.001404
-1234.752441 869.923157 -387.810974
-1192.427490 767.199280 -481.487854
-895.768555 491.817261 -255.882324
-1098.949585 224.974457 151.201691
-1254.879150 757.709045 -399.774017
-1411.094116 484.908417 -466.974182
-1324.559448 741.240051 -279.986053
-1124.492188 382.154388 -128.689545
-1322.018311 495.314789 -507.189728
-947.681885 413.135162 -283.137634
-1082.065918 400.414307 162.629684
-948.620056 335.386261 -298.629456
-1068.602661 376.576050 171.472748
-1309.708374 556.658569 -414.698578
-1134.802246 352.756653 55.508640
-1128.651733 400.809052 -84.110672
-1175.391724 249.283707 27.995670
-1165.638428 363.620819 66.080833
-1168.177856 392.706085 -56.782852
-1115.045044 246.073486 139.516113
-1020.914490 487.298340 -101.380112
-1236.501709 966.615479 -289.922180
-1330.978882 542.957275 -521.509888
-1248.769165 635.479736 -564.351868
-1153.223633 762.830933 -500.701050
-1417.656494 815.003723 -256.947357
-1221.176758 885.589172 -357.041809
-1089.482178 345.943604 -172.578384
-1443.241211 796.942444 -266.609802
-1154.333130 298.345825 44.879898
-1371.340576 819.671692 -260.449921
-1017.166748 354.636749 258.495911
-1099.932373 525.343933 -46.983154
-1007.871582 448.342682 -168.676666
-1083.293091 547.315369 -26.649157
-1153.235840 327.323273 77.164757
-1370.372925 580.112915 -429.940643
-1015.612427 409.804718 305.639709
-1306.040649 554.006714 -427.401550
-1058.420654 333.473816 -211.192902
-1091.989502 467.342865 -115.435364
-1177.112305 942.425781 -308.948212
-1228.691772 810.013733 -293.837280
-1018.127136 326.605560 269.994415
-993.822937 603.747009 -42.329052
-1208.284058 669.798157 -544.107056
-1018.442749 438.022369 262.656067
-1188.895630 949.684021 -358.540436
-1280.910889 826.145874 -334.250153
-1106.849609 695.297546 -623.918152
-1220.197632 772.493042 -437.433746
-1211.778442 857.978333 -418.226440
-1080.255981 509.814240 164.926712
-1099.696289 275.885681 139.558456
-1092.162476 853.155273 -487.159027
-972.153442 393.910614 -263.065948
-1215.319946 842.281433 -428.286530
-1211.732666 884.865234 -388.576843
-1312.174927 757.039368 -331.929443
-866.905640 538.892334 -231.885910
-1178.105347 280.203644 18.460363
-1085.829590 477.724091 144.908066
-1118.182007 277.950256 136.626144
-1396.873901 804.859375 -271.212830
-1421.779053 585.192749 -403.994324
-1292.151978 589.112915 -540.334351
-1146.880737 281.662628 -154.300568
-1016.314819 258.178528 308.313812
-1179.083374 656.894958 -556.607239
-1022.627441 352.688049 251.989731
-1363.723022 486.982025 -521.467834
-1161.838623 645.132019 -621.336548
-1104.432861 665.058838 -619.846008
-1351.803955 419.600464 -513.119629
-1136.562256 245.961227 91.802170
-1179.585083 850.847351 -410.620270
-1099.920288 388.058075 -116.242752
-1015.369751 351.298798 270.079865
-1274.878784 730.477417 -422.939911
-1016.334717 374.721588 -248.881577
-1038.609253 269.785919 254.710083
-997.552490 491.918396 -116.399742
-924.325134 507.295288 -202.318527
-1245.011963 676.436523 -317.968353
-1092.607300 357.668549 155.272644
-1074.952148 202.261383 255.389191
-1165.384033 909.083618 -404.634033
-1261.916138 594.324402 -560.653687
-880.152954 598.073547 -223.808472
-1262.485107 785.986938 -409.690857
-1143.726318 920.066589 -385.901642
-1170.444214 303.851471 21.287361
-1133.614624 267.554932 96.540871
-1013.150146 353.959320 -233.677277
-1181.553223 399.394165 64.116928
-1110.093750 349.333344 134.746384
-1254.159546 895.124084 -310.558533
-1075.772095 556.075256 -16.295324
-1358.267822 568.533813 -486.290619
-986.996216 569.607300 -101.494720
-1069.655396 708.376831 -615.001770
-1194.686035 952.114563 -311.283936
-1040.306396 403.823242 -206.972092
-914.987183 510.859802 -202.064316
-1268.484863 654.240784 -503.272858
-907.441101 473.363251 -236.330643
-1484.939819 586.085571 -373.965485
-1163.460449 758.244629 -498.002411
-1012.007507 404.711517 309.797455
-1209.925537 808.181824 -458.794006
-1009.450195 325.972412 -261.398193
-1055.350708 496.521423 214.443924
-901.692505 562.559265 -165.418549
-1255.404053 638.707275 -453.212646
-1283.822632 597.850281 -534.940735
-1015.892700 395.395477 260.368256
-1275.047607 774.455505 -300.471710
-1101.674561 878.130981 -472.805450
-1106.218018 278.513000 143.262390
-1035.408936 485.406250 230.337372
-1111.731323 341.620667 -168.436951
-1135.317383 667.252625 -614.060181
-1075.039307 419.734955 -124.204147
-1333.770386 544.493530 -490.693512
-1024.052856 464.913788 -144.012604
-1165.908569 406.866333 -70.897102
-1123.293335 520.718323 -7.297383
-1260.538574 938.971619 -285.435028
-1139.597900 706.678833 -563.441956
-1049.178467 240.943985 252.695969
-1425.776489 485.339783 -482.028503
-1337.146851 558.336060 -483.294983
-1201.087402 647.632751 -550.854370
-1187.730713 835.415283 -413.049377
-1206.240723 930.283203 -353.272400
-1358.571655 633.433594 -388.789856
-1209.188721 673.598694 -566.499573
-1234.876221 852.640137 -389.358154
-1174.601563 797.593750 -479.434937
-1134.947144 237.656784 93.044861
-869.317017 604.738953 30.046265
-1402.380127 826.092896 -276.559387
-1537.430542 556.942200 -346.808289
-1209.449585 865.760010 -295.867035
-1449.980469 570.519836 -390.713898
-1031.407104 275.057007 264.637756
-969.343994 403.208740 -229.512589
-934.567993 522.283142 -163.630936
-1064.776855 258.198151 227.340240
-942.692200 653.938171 -58.006725
-1039.307007 353.016846 245.896332
-1405.450562 561.703064 -426.828949
-1300.306641 539.563416 -539.704529
-1070.586548 304.893250 186.629745
-1288.765991 540.638794 -581.740723
-1132.026611 470.816650 94.991013
-1251.099365 878.585999 -326.139526
-928.581543 424.038116 -245.503296
-1300.002563 492.039825 -589.239197
-1052.612671 301.468628 229.731842
-1131.765625 466.290771 -58.536797
-1006.622009 610.969604 -42.858696
-1116.366333 310.296051 -185.921982
-1145.238647 709.788879 -494.840149
-1280.277344 739.975830 -302.300720
-950.384033 381.013855 -282.743835
-1194.031006 473.809265 -31.541014
-1112.157715 478.808899 125.018883
-1486.520264 838.509338 -160.479828
-1112.255737 845.193604 -503.610718
-1234.915894 693.300232 -505.039642
-986.762939 649.440369 -40.977535
-1201.513550 877.315613 -389.697144
-1178.998047 339.887573 42.285297
-1095.409424 517.750977 147.211838
-1031.995117 370.407745 245.357010
-1002.317444 559.967590 -79.983124
-1407.550415 790.900085 -296.794861
-1105.519775 817.010742 -532.574890
-1058.934448 481.892792 192.167252
-916.734497 401.163635 -297.919678
-1272.541260 938.049561 -278.795105
-1312.590576 811.605957 -272.366028
-1019.912842 371.490173 323.761414
-1339.994507 458.472839 -551.034363
-1218.247681 686.368530 -513.283081
-1080.362183 233.023499 210.834015
-1214.851074 812.494019 -442.188477
-1341.884644 586.535889 -492.653290
-1149.010498 246.269958 74.471024
-1416.963013 782.524414 -200.532303
-982.639954 154.125031 -138.130676
-1144.009399 376.620453 84.924431
-1007.088257 369.337830 -224.469116
-1103.736572 179.112579 174.895889
-1254.404907 657.236145 -534.759155
-1098.105835 231.379974 142.566696
-935.244934 660.747253 -81.228127
-1178.002808 828.911133 -450.541504
-1120.354980 408.324493 -85.790596
-910.112122 445.052521 -248.855194
-1242.938110 578.409363 -389.762604
-1046.437500 448.982605 211.534897
-996.030029 390.087128 298.005524
-1313.265503 446.994324 -596.682922
-839.972168 579.261780 106.657150
-961.721741 460.126526 -211.315598
-1031.153687 312.938446 302.386017
-1105.026123 741.562805 -553.660889
-934.928772 399.994171 -284.554779
-885.083984 514.658813 -257.491638
-1230.208252 814.300110 -287.437469
-947.999756 594.472168 -116.055687
-877.241394 587.061523 -177.617661
-809.606628 612.439758 46.978542
-1413.134521 828.451416 -219.637772
-1135.966431 648.508240 -606.031494
-1158.091675 350.099091 -118.006180
-1084.401245 308.705627 -212.363434
-1264.115723 562.077576 -556.640930
-1069.963501 241.114365 198.185089
-1302.044067 655.509277 -419.754669
-1461.800171 843.508728 -178.452972
-1166.066284 939.990723 -388.040863
-1158.520996 217.588409 42.558094
-1091.557129 304.039581 163.366608
-1446.539307 498.044098 -467.233032
-981.059021 332.596405 -286.327911
-1040.185913 326.812317 226.899872
-1583.324829 844.666626 -103.358803
-1297.260010 515.801941 -560.059082
-1250.184448 588.642151 -576.725464
-1404.038696 783.302490 -323.260681
-1163.518066 845.880798 -450.712341
-1246.438965 873.475342 -357.723511
-1277.067383 811.262085 -388.826630
-1378.421509 838.826111 -229.347153
-828.031738 591.701721 87.505501
-1240.447876 706.617188 -495.563263
-1191.055054 292.261383 17.053009
-964.312805 653.692200 -57.617008
-1135.920044 210.216034 86.371414
-1015.008606 571.638489 -46.227478
-1056.052734 318.097290 230.008347
-1041.599121 261.075745 299.042755
-942.825500 396.983185 -314.817810
-1177.925171 923.415710 -276.336792
-1468.304565 847.433167 -172.472733
-1152.623047 627.020081 -322.033142
-1239.187622 796.019409 -307.787476
-897.128174 621.062256 -128.871429
-1147.026001 521.054932 0.153289
-876.934631 522.677429 -244.617310
-1262.053345 816.786621 -375.278442
-1084.946289 430.028870 155.352753
-1075.742065 333.276794 192.450012
-1230.363647 818.888000 -389.771057
-1327.145142 743.071472 -324.910095
-1037.223755 346.753540 227.584976
-1150.775391 852.191406 -470.325256
-1271.836304 795.217773 -394.539734
-1155.596558 689.226746 -578.384521
-1034.750244 348.632935 247.570709
-1120.989258 410.147705 94.774857
-1322.920654 607.853149 -494.231262
-1030.753052 468.887573 225.089966
-1159.908569 797.257874 -467.659149
-1133.856201 409.470703 -98.448685
-1060.479004 484.290131 -72.691025
-977.943237 567.040710 -77.617493
-1438.709473 765.155884 -275.709442
-1377.713867 473.139069 -545.570801
-1309.753174 501.095612 -554.907898
-958.715576 436.109650 -220.063950
-1100.521729 532.979187 -16.471092
-1128.987671 762.976318 -540.562195
-982.585999 630.449402 -17.109814
-1296.139282 481.249847 -596.125061
-1426.644531 774.826904 -313.272186
-938.332214 407.779877 -327.682526
-1325.593872 880.701416 -261.541290
-949.821106 371.347290 -311.163300
-1093.715576 220.331100 190.074066
-1145.627563 880.946533 -452.755707
-1242.864014 540.995667 -593.347412
-1069.912476 250.566238 210.452057
-880.768433 594.654419 -208.127274
-1130.036621 584.166443 -340.309387
-1032.646240 237.800766 292.780670
-1184.580444 834.228394 -452.079010
-942.499695 378.464844 -295.483643
-1010.081238 392.257629 270.482819
-1040.525024 349.741791 262.728821
-1120.331543 736.240295 -537.316895
-1150.462036 471.884308 -26.512239
-1263.497437 821.767395 -292.945709
-1175.860596 938.158203 -343.421997
-1194.246094 915.390869 -363.084198
-1098.252686 382.571655 -123.599274
-1121.098755 339.414154 126.147423
-1326.153687 630.114807 -464.675659
-1076.517212 783.856873 -547.059998
-1361.900879 488.770844 -496.954590
-1132.335449 427.372681 99.205597
-1079.233398 723.031433 -593.037170
-1041.584351 320.080322 233.518570
-1143.627319 319.456818 -166.083969
-1045.807007 473.348541 186.377899
-1038.981323 419.547455 -166.063370
-1147.970947 360.961029 71.957611
-1102.005615 515.503052 -34.901440
-1024.264404 563.304626 -71.531433
-1050.311035 339.874939 -215.677185
-1173.223633 233.710968 38.556328
-1010.606750 594.062073 -65.784325
-1292.298706 716.548767 -385.545563
-1133.524048 814.283936 -501.315613
-1370.568237 764.640625 -323.228760
-1009.324890 530.240112 -95.602982
-875.115845 599.681091 -193.023102
-1128.597534 794.235291 -523.037659
-1051.686890 473.426697 196.910980
-1108.168457 654.530945 -625.168213
-1227.820190 622.568420 -584.214722
-1321.579346 779.525085 -373.225189
-1181.215454 821.678589 -478.753876
-1170.166870 719.921265 -452.647095
-1135.258545 352.013062 -141.884613
-1198.380249 812.274536 -463.570679
-1086.465332 166.313950 201.418823
-1121.090576 267.917969 107.941414
-897.122314 478.291016 -240.170807
-997.959961 578.611572 -57.464500
-1262.692871 823.838501 -340.192963
-1107.504150 331.647125 142.573898
-1230.493774 944.366150 -290.653717
-1263.734863 687.412720 -482.626373
-1230.399170 791.159546 -441.258820
-1050.876099 395.686707 215.154053
-1495.841919 503.846161 -434.979584
-1297.131348 805.959290 -338.849396
-917.665649 408.112305 -276.266357
-1043.913818 296.853027 246.459366
-1077.582520 789.287781 -577.557373
-1199.762573 939.798218 -339.373047
-946.257813 671.903198 -63.341259
-1004.720337 522.677063 -87.514137
-1245.798218 637.955322 -573.013550
-1057.137207 275.180176 288.823822
-1307.742554 815.870605 -321.981903
-1278.117554 873.698730 -331.346313
-1137.470581 438.621826 104.840538
-870.816711 624.353210 -173.740005
-1238.707397 906.757629 -295.477386
-930.709473 393.426605 -314.661255
-1036.316772 500.619202 -85.775169
-1337.051514 824.350830 -270.235504
-1202.922852 754.007629 -480.407379
-886.915344 598.912537 -209.611603
-1140.689209 798.568176 -482.431244
-1187.233521 426.567902 -74.271523
-1137.880371 770.495483 -486.573395
-1178.561646 873.692139 -414.693176
-1189.001343 807.670898 -479.408173
-1090.760498 472.584961 128.068909
-1098.260864 822.661499 -525.453918
-1194.302124 617.791321 -603.649475
-1253.415283 649.779053 -500.121918
-1355.591675 769.805786 -355.776794
-1246.876709 837.497986 -403.031128
-1230.158569 931.150696 -303.421753
-1538.936890 537.176208 -364.570557
-1100.637939 225.262329 174.481140
-1207.630615 989.834351 -272.019714
-1228.718506 976.706421 -280.024536
-1029.953979 265.496094 279.419373
-1090.679321 760.779358 -572.279785
-1094.370605 490.035095 132.392899
-1454.829346 562.104248 -394.847931
-1038.015503 356.075317 244.563644
-1088.114136 280.998016 173.369263
-1126.315308 645.897217 -442.294952
-1155.349121 530.344788 -12.220785
-1098.506226 429.784668 -105.578476
-1104.367798 757.710022 -547.327026
-1158.888916 621.491150 -624.425903
-1120.893311 370.514343 -140.102295
-1117.547119 756.038513 -534.307007
-1120.945068 761.706604 -508.830688
-1162.644531 943.670288 -379.514801
-1131.159912 401.298492 -111.025169
-903.482788 447.327026 -251.517380
-1268.410889 879.179077 -297.026245
-1097.034668 243.610977 167.124512
-1018.489990 432.522400 -171.411011
-1092.777588 325.128204 187.945175
-1392.128052 748.420532 -254.339813
-1082.301270 376.524994 164.189606
-1242.573975 638.497925 -353.473206
-1148.128662 656.243530 -466.184357
-1030.776001 364.618958 -206.927841
-1321.768188 639.452942 -393.557922
-1147.414551 712.145508 -576.963806
-929.602783 506.373291 -185.795288
-1229.534546 609.414246 -575.705383
-910.275513 432.668457 -254.350876
-882.578674 604.788391 -180.386597
-1066.943359 234.363632 253.065262
-1241.592041 854.979919 -360.877533
-949.313538 330.835846 -304.830353
-1178.566650 656.647095 -605.845825
-1105.070068 295.005463 -219.474487
-1633.915771 747.130127 -114.490669
-1279.046997 745.114136 -425.740234
-1086.799683 777.462219 -548.188232
-1111.708618 346.318237 134.429092
-1094.230835 780.692261 -544.404358
-1274.795166 746.855957 -409.621979
-1416.663696 762.309387 -284.760986
-1010.356567 307.733826 308.516083
-936.734863 495.261414 -184.597488
-865.331177 584.344299 -257.152985
-1098.562866 181.688705 166.473434
-1079.162476 309.452728 188.759903
-1146.335083 865.767578 -446.866852
-1131.076782 849.660095 -488.204834
-1078.777588 274.911438 192.416977
-1238.473389 622.587524 -575.217285
-1042.345093 370.101257 231.169357
-1186.235962 744.221741 -490.046204
-1320.200195 535.935730 -483.837799
-1236.328247 935.980591 -287.568207
-1242.748535 894.775940 -336.394562
-1270.852173 820.622742 -372.777740
-1079.999878 794.571106 -563.347351
-1155.914185 305.874176 67.619499
-1083.212769 827.080261 -528.674377
-1149.513184 851.459290 -455.178955
-928.697510 474.845428 -241.798355
-1002.943848 419.929688 -216.989975
-1170.911987 312.626068 -112.706093
-1253.554810 847.290405 -381.347809
-1154.017822 687.844849 -577.206604
-1224.356323 576.667664 -603.532349
-1250.775757 826.265198 -294.432587
-1059.637695 400.791107 -152.534851
-1134.126221 415.967682 -92.685219
-1073.017334 233.881470 194.006271
-1050.649658 306.491577 233.023102
-1077.371704 454.258270 164.212677
-953.994995 577.558167 -124.865509
-1154.693726 661.720032 -420.318909
-1002.919495 573.891418 -51.703136
-1558.284790 518.732422 -353.615845
-1032.715210 286.061554 276.088593
-1010.586121 312.509827 313.850830
-1027.242188 421.767609 -167.316010
-1458.136597 800.030273 -214.655945
-1302.107910 510.615662 -564.651123
-903.186340 470.706238 -247.572006
-1326.452271 640.874756 -471.861542
-1326.666016 454.955414 -528.991638
-1414.891357 817.127380 -232.741287
-1434.033203 825.626099 -162.765045
-1305.059937 569.515320 -528.330627
-1047.166260 448.268188 191.601395
-1066.507202 289.366241 192.282791
-1348.255005 739.545471 -319.446350
-1107.901978 481.193756 112.618759
-1096.670776 787.098389 -527.814331
-1117.330200 396.128906 121.691475
-914.625732 605.791260 -104.899651
-1315.653320 508.031036 -587.169739
-1191.594116 684.281372 -529.296204
-860.436401 563.438171 -216.381805
-869.895386 511.557373 -256.225403
-855.747559 577.486023 -224.469284
-912.296204 436.292389 -301.769043
-1253.183350 849.054504 -283.943359
-1029.254150 378.009430 -205.251938
-1086.159424 721.831116 -527.597351
-1584.855835 842.412537 -50.285099
-1227.758179 643.241821 -554.824158
-1031.361206 439.269196 227.949814
-1286.063843 934.794556 -236.778610
-1240.434937 623.413635 -537.276001
-1115.735962 878.651184 -458.991364
-1083.901489 299.136047 175.499634
-1264.504028 890.719543 -319.986420
-1004.544617 429.578033 -197.755875
-968.938782 373.352386 -289.690094
-1279.572876 793.271179 -350.932068
-1066.668701 413.886230 183.794937
-911.379822 451.850220 -261.340302
-1230.651733 898.498108 -286.465363
-965.497620 633.630249 -51.705311
-1572.904785 780.500305 -149.731445
-1090.380981 226.301239 195.411652
-963.813477 354.992188 -282.002899
-964.046814 508.091675 -155.363388
-1030.599731 454.165314 226.570541
-1100.700928 349.393646 159.154633
-1128.073486 355.932190 111.320694
-1191.882935 913.876160 -341.558228
-1172.868164 642.769287 -576.766296
-1127.569702 697.127502 -594.038635
-1132.443604 306.415771 110.652855
-1016.645813 375.420258 -213.361877
-937.341248 446.017426 -258.928650
-1203.066650 704.969910 -520.357544
-1289.960449 802.076721 -385.195190
-951.412598 410.483398 -241.123062
-1094.849487 552.165466 -7.925891
-1210.195068 878.583679 -401.963318
-1210.366089 1001.113831 -263.385712
-1284.237427 953.912720 -240.046814
-1224.095337 991.105103 -260.045410
-1103.863159 745.701050 -555.696960
-1081.747070 390.306885 187.771820
-1001.364136 355.263733 294.086456
-1176.968872 679.381104 -536.936951
-1132.446777 349.700043 106.037712
-1086.828247 281.861115 187.182434
-1215.891724 654.620850 -554.671814
-1160.341919 892.365051 -429.596344
-1280.109131 823.754089 -374.932587
-1087.875977 202.312134 170.350174
-1180.484741 753.368347 -489.463593
-1267.249878 528.916992 -601.847107
-1158.234985 499.366241 -7.678177
-1207.243652 819.718628 -433.550293
-1206.136719 562.001648 -605.980591
-1398.040771 468.733490 -529.407898
-937.168640 526.022583 -147.614105
-1014.750427 561.848389 -68.115143
-1058.719238 394.677032 208.905792
-1269.456177 787.977783 -430.073395
-907.322021 622.540283 -120.875885
-1189.885742 429.752625 -52.003189
-846.456604 574.082520 64.427010
-1058.638550 458.843811 -116.765411
-996.949585 420.356567 282.318146
-1105.377686 233.662308 145.917953
-1104.329712 191.869812 138.812531
-1179.020508 351.610199 42.779842
-1048.168823 485.680176 223.357666
-1053.481201 495.350342 -98.670464
-1054.450684 518.450378 -50.678856
-1113.913208 561.809937 122.823441
-990.099243 329.708771 -278.504547
-1016.357117 391.699890 282.748901
-1091.000977 458.275360 153.458786
-1290.809937 476.443665 -567.281616
-1119.665161 251.610611 138.358261
-1028.022461 400.456116 252.557892
-908.480713 463.885132 -234.969040
-1173.358154 883.556763 -424.425385
-1256.700562 954.773376 -261.440857
-1310.377197 657.373657 -448.764954
-1104.588013 245.900970 160.461761
-1141.577271 760.171997 -526.458374
-1041.096924 267.382538 271.869354
-1205.079224 849.294739 -396.142120
-1320.351318 474.104950 -576.546509
-1169.417236 342.788605 -157.096802
-1284.879883 730.405579 -330.897522
-893.883362 461.087158 -298.757172
-1091.061157 324.367523 -198.253708
-987.852112 530.616699 -145.760910
-1126.494629 816.257813 -488.781647
-1110.420654 518.077148 -44.279087
-1199.796753 852.497009 -390.515472
-1331.734375 469.666809 -548.399231
-960.397522 326.279205 -288.415283
-1154.591431 753.256226 -500.605438
-948.812256 368.580994 -292.734100
-911.508728 630.867432 -79.671356
-1045.052490 268.844269 276.200378
-961.291016 336.854919 -316.382111
-1162.515625 794.007446 -474.294006
-1105.595581 791.315125 -535.723389
-1303.479004 560.796204 -547.699585
-1016.763733 366.343506 281.284424
-925.792725 397.129120 -273.420563
-1285.094116 661.919006 -407.009644
-968.475037 424.753021 -218.167236
-1505.331177 725.737793 -158.415268
-1071.946777 479.333710 176.659958
-1149.826904 362.045563 85.744392
-1305.949585 539.641174 -549.839417
-1066.464844 363.398346 202.877853
-842.178955 579.074585 30.124807
-1210.301636 656.574829 -587.908386
-1039.131836 548.572021 -82.140877
-1238.181152 940.571533 -296.872284
-1089.965698 708.490967 -576.441101
-1108.839233 751.629456 -554.353088
-1275.130249 866.643738 -292.890320
-1193.205200 772.166748 -462.164734
-1346.768311 464.850525 -589.051331
-1099.805176 181.144348 136.554276
-1241.045410 836.717224 -365.919769
-1078.207764 518.118713 167.639145
-1017.274475 543.322693 -61.144173
-1575.730591 837.377808 -87.255997
-914.085571 636.192261 -95.673462
-1195.123535 611.508118 -617.065674
-1293.318848 551.594604 -564.248718
-1088.305786 413.772125 -129.430542
-1156.749146 690.587280 -536.117493
-1435.810425 774.112793 -193.704208
-879.200195 495.906250 -286.067963
-1098.860718 354.098816 -167.934006
-1046.798584 486.855072 -94.440742
-1130.052612 517.041077 -18.478500
-1235.847412 793.977112 -319.687042
-1060.545288 491.074188 -72.944923
-1216.891357 648.547058 -561.159058
-1140.612305 360.771637 94.962662
-1277.556885 737.814453 -435.876434
-906.868164 428.394592 -283.281464
-1168.408081 870.801575 -447.188263
-980.382263 522.631714 -107.887718
-1590.761353 699.773193 -143.082199
-1143.719849 688.615112 -434.365997
-1190.233276 732.601257 -498.323975
-1148.787354 913.273071 -404.604828
-1357.845093 592.981628 -407.420654
-1161.094604 806.951111 -479.414795
-1196.919434 351.588257 -108.685661
-1105.084717 491.243011 122.610817
-1109.912109 336.248962 -167.341232
-1067.542480 353.649811 -192.111298
-1046.538086 598.233093 -2.172860
-1344.983643 543.649048 -511.498352
-1137.286255 331.793060 92.435951
-904.964661 642.590698 -157.348816
-1061.394653 378.982483 181.822739
-990.147827 517.001099 -154.714264
-1078.977051 498.566711 149.471878
-1214.287476 589.746643 -604.064209
-1283.881226 883.398865 -321.576477
-1214.139038 712.395508 -482.518402
-1160.492554 489.094543 -12.028501
-1006.760193 569.212402 -84.708572
-1061.874146 380.836639 197.118652
-1261.467285 723.048645 -339.081787
-1276.184204 702.214355 -434.669922
-900.982544 646.975708 -172.415115
-1210.807495 642.502747 -562.151306
-1051.664429 588.414551 -6.542022
-1157.289917 806.137085 -488.739319
-1302.401611 490.955566 -544.436462
-1211.028198 897.443115 -288.870728
-1073.528564 246.177933 191.822784
-1043.723389 479.730316 206.285339
-1283.937378 633.413269 -507.052612
-903.826294 397.622406 -330.829437
-962.834778 476.387878 -176.502884
-1077.601563 263.607727 183.232224
-918.096741 411.125702 -286.823914
-1072.967407 357.709320 -200.312103
-1132.381714 384.283508 88.070122
-1042.012329 369.572540 -179.134567
-1027.588501 324.434937 291.632355
-1225.542603 872.166138 -377.450714
-983.335999 186.864502 -203.194702
-1450.512451 791.497192 -235.249252
-1166.886597 513.330994 11.748229
-1122.702637 493.298828 117.413948
-1117.781494 342.869202 -157.013290
-1072.923096 804.857849 -569.394958
-934.656982 626.438904 -36.888172
-1117.235596 694.244324 -620.139709
-1319.811768 639.099548 -490.332367
-948.824707 388.806366 -257.642578
-1134.708740 296.545227 101.227577
-1293.320801 623.045471 -507.307098
-871.808838 615.174255 -194.699020
-988.417114 547.744812 -131.807297
-1246.362915 751.094482 -446.150391
-990.427917 391.475433 -227.039673
-1290.520386 670.007263 -452.299774
-1338.479980 764.413818 -275.341278
-1057.143188 405.633789 209.131134
-1183.552368 289.087280 4.405433
-1147.061157 317.047333 -164.652039
-1177.264160 616.394897 -592.608521
-1249.465942 828.824097 -328.554291
-1272.426636 697.063171 -440.429291
-1220.688843 1007.237122 -262.778198
-1121.673096 655.239075 -632.861755
-1123.998535 306.887665 128.627945
-1175.107300 384.011047 -78.849190
-1032.413208 459.592865 235.335617
-1228.249023 634.989319 -554.089294
-1126.488403 228.168900 126.718147
-1089.965332 315.804230 -199.271805
-1331.971191 739.532166 -352.027740
-883.794495 607.335938 -223.307297
-1087.914917 343.299835 191.821594
-1083.094238 179.427643 182.858536
-1088.745117 437.147461 140.019836
-1239.809692 820.141663 -419.048370
-1129.968628 684.048340 -575.801331
-935.844177 549.653137 -147.504059
-1020.412964 299.272278 289.504578
-1101.015747 252.247406 153.826462
-1166.565674 307.463776 -167.308792
-1224.833374 879.273438 -329.540192
-1258.102905 633.955872 -532.322205
-1582.315796 844.494690 -73.754349
-1283.540649 800.783875 -326.561768
-882.224792 560.301208 -190.030533
-1149.875000 308.152496 -178.698486
-1087.725586 224.503693 168.751328
-1565.564819 838.255432 -71.811752
-906.542786 552.864380 -166.921982
-1077.806885 774.532471 -580.043030
-1348.741943 778.855042 -279.024689
-1287.128784 519.934326 -599.375366
-1011.329102 378.606903 301.041016
-1183.386353 461.113708 -28.239428
-1325.730469 610.439270 -461.113037
-810.780823 597.404602 56.387531
-1156.356323 820.399597 -477.978516
-1314.658691 778.197571 -359.826263
-1050.672241 589.691711 -31.912018
-1120.744995 399.344879 85.965698
-1032.896729 273.141510 301.426727
-1173.045532 866.618408 -435.874939
-1310.326660 576.805176 -432.503571
-1177.128296 850.782349 -456.827057
-1033.551636 402.665894 -176.275253
-1011.648865 393.809296 276.246460
-1164.772339 492.652161 -5.219810
-1200.760742 782.119568 -471.081421
-1097.462402 186.599075 161.617035
-1069.644409 355.798187 203.381241
-1054.322998 345.500977 -203.200699
-935.764893 639.813110 -37.083714
-912.329285 545.924316 -169.391144
-1140.519287 897.229004 -435.890320
-1093.072876 296.756439 155.356796
-1227.656006 934.756531 -279.879364
-1306.479126 577.369873 -553.103333
-1283.594727 601.213989 -539.508606
-1261.071899 633.806702 -556.832214
-1622.218140 816.485718 -90.026993
-1072.464600 385.621002 203.810883
-1117.895264 242.955200 137.447327
-1033.907959 391.387909 239.067703
-1289.828979 616.317444 -523.036255
-1184.134399 353.994415 -103.842537
-1050.738403 438.442169 209.586182
-1061.785522 717.661682 -609.607117
-923.025818 402.002777 -263.618500
-1140.484619 657.595764 -421.213348
-1156.896973 261.970490 54.942341
-1268.901245 962.814941 -264.343781
-923.784973 579.143066 -151.946701
-1282.814575 826.327576 -370.206665
-1113.108032 346.679047 130.556946
-1289.715698 585.654297 -544.577026
-1031.433960 302.139130 259.484741
-1070.062988 789.172485 -548.433228
-946.576965 375.986877 -281.080811
-1150.339478 823.520569 -475.566345
-1324.098511 528.650879 -546.405579
-904.840393 441.371613 -318.015747
-1189.328735 661.167786 -600.611328
-1563.068726 816.905823 -120.444305
-1263.605591 629.322571 -291.417572
-1172.222046 364.409851 -70.879250
-1150.855713 818.058655 -481.746124
-1352.334595 460.044373 -579.879517
-1152.188599 411.987274 -99.750320
-1082.314697 448.127472 143.421661
-1157.928345 392.254242 70.285439
-1313.897095 465.016510 -523.299072
-1379.217773 793.361084 -262.699463
-1082.014404 388.467865 163.371490
-908.459351 528.121887 -187.827148
-1297.656738 521.374023 -588.841919
-1155.010620 260.058533 57.935703
-899.685730 613.839722 -129.506760
-881.810120 485.302643 -246.572647
-1195.155884 661.900452 -509.944550
-1235.420776 760.596313 -459.123413
-1073.130127 158.652344 217.463898
-1121.077148 840.945923 -487.465057
-1138.544922 186.771500 89.093575
-900.127625 555.367920 -175.509811
-1175.442261 812.802429 -490.358673
-1262.087036 457.282990 52.916256
-1323.769531 475.361389 -573.314575
-1167.973145 655.854858 -414.868927
-1100.750854 693.807983 -599.714417
-947.583435 591.792419 -94.908951
-1215.801270 953.275940 -309.147491
-1446.226685 801.899170 -259.713715
-1301.039063 797.906372 -358.198181
-1208.062622 1006.273865 -280.652832
-1059.814453 219.464676 228.296921
-1166.744263 709.193481 -548.816772
-1175.432373 627.010071 -612.035217
-1137.834717 749.828125 -529.722107
-947.183472 542.247375 -122.357201
-1206.971558 788.888611 -435.206146
-1242.857300 963.948059 -285.257782
-1302.207031 519.428040 -566.624512
-1637.763428 668.489014 -133.379288
-1420.271240 816.088806 -218.263947
-1280.359131 482.736359 -508.533936
-1036.299438 323.729309 303.645020
-1343.553833 595.150208 -438.061646
-1043.607300 457.662109 -128.585632
-1120.795044 234.069351 129.892899
-1054.620361 367.079315 -184.278061
-1129.557861 816.964844 -512.013184
-1086.792847 306.095367 158.331085
-1026.391968 458.388641 268.887024
-1046.295288 349.719299 -213.275146
-1356.989502 470.092743 -567.833313
-1387.746338 837.393921 -265.046265
-1175.135254 349.316772 -124.201683
-1140.808350 867.267700 -458.082031
-1167.065552 681.143982 -463.212402
-953.932556 366.553162 -284.684418
-1312.176392 530.842590 -559.942566
-1137.590210 217.606705 92.306961
-1170.914429 905.069946 -413.592346
-962.027954 646.719238 -43.061001
-968.156860 345.097015 -294.315552
-1265.857910 856.830139 -347.455292
-1094.482056 526.614685 -30.534147
-1096.699829 387.306854 142.365906
-1243.570679 872.777588 -344.755524
-931.698547 521.336243 -156.883835
-1115.856445 712.897095 -559.988220
-1087.485107 209.783096 170.354279
-999.312988 543.917603 -111.811302
-1068.841797 183.744659 222.394318
-1155.004517 858.973145 -425.250214
-1264.717407 692.785767 -431.666534
-1179.427368 313.837158 -143.577591
-959.050964 399.028015 -245.335449
-1105.806152 557.418701 23.378210
-947.825684 480.504089 -188.994049
-991.104248 306.247711 -269.767853
-1202.570435 606.385620 -604.815002
-1259.411133 855.184570 -294.480072
-965.859619 488.491730 -192.523697
-1258.389771 901.972290 -325.198425
-1260.519531 899.007141 -315.943115
-1077.023804 206.681992 197.769699
-1179.412598 316.487213 -141.168427
-1034.698730 435.161407 -137.517868
-971.862854 590.590576 -101.132118
-1206.543579 978.891235 -303.614410
-1145.806152 314.848602 -167.437805
-1051.024170 770.250793 -600.164490
-1215.137939 553.544189 -611.265930
-919.076172 422.985870 -293.063507
-896.825745 438.359070 -321.639709
-1218.183594 390.294403 -68.954201
-1118.090576 463.109070 -42.360592
-1084.862427 208.892746 175.333572
-1157.733154 370.535950 -114.426689
-1039.461426 291.210846 281.994507
-1032.353882 371.269501 233.835663
-1483.564087 545.060303 -409.989868
-1193.600464 919.869995 -300.146362
-991.324280 554.917236 -89.511948
-1118.656738 333.790192 130.686508
-879.604187 629.866028 -150.367844
-1066.227661 398.661957 185.730392
-1090.040405 304.052643 159.629974
-951.128174 603.405212 -90.990005
-889.662964 533.790771 -219.221161
-1123.701172 710.353577 -598.337830
-1071.850708 552.599548 -18.714680
-1141.518555 325.112152 91.428276
-1475.724121 547.002686 -402.717560
-1006.203125 342.407257 287.522339
-1083.790283 428.070221 156.736496
-1062.666992 376.155029 -157.587967
-1031.603516 475.376251 -116.268097
-923.732971 525.351257 -178.077744
-1115.615845 501.343689 114.582047
-1037.492798 292.700867 -272.922943
-1074.980469 725.828918 -607.178589
-1205.393188 347.480316 -81.500397
-1131.840820 261.704468 102.202789
-1131.908813 341.149445 78.788109
-1296.564575 597.840210 -542.802063
-1053.870361 214.247543 250.871490
-1061.570801 391.537994 178.788147
-1093.463623 803.384888 -542.894653
-1177.747070 770.871155 -474.354584
-1268.072632 664.947021 -425.416718
-954.101196 378.311157 -269.864258
-938.500305 436.535706 -231.488068
-1297.964722 620.239990 -365.969116
-937.101501 358.589478 -301.154388
-1076.070068 771.324707 -589.960815
-1262.177734 886.261780 -343.743378
-1174.151001 343.631317 46.791477
-1220.370361 830.789063 -424.991364
-1175.458374 223.555756 48.204979
-1454.048706 778.466980 -236.284973
-1099.806641 278.254852 168.627731
-1574.686646 848.888123 -54.700481
-931.083313 602.004395 -102.305519
-1089.476807 438.542267 -113.312363
-907.700378 575.803955 -136.731674
-1254.597290 575.784729 -580.416016
-1107.554077 256.493591 155.182663
-1119.570923 761.112122 -566.543762
-1094.586670 486.777740 -57.816277
-1050.122070 338.052948 223.412399
-1089.837769 717.801208 -603.584351
