ply
format ascii 1.0
element vertex 1354
property float x
property float y
property float z
end_header
-549.397034 936.892517 -236.154175
-1050.914063 1148.532471 -904.126587
-724.749329 880.602600 -1035.475098
-746.442566 831.117859 -286.964478
-665.341125 485.303833 -666.874695
-812.696472 825.855896 -425.300507
-833.338196 632.810791 -529.443237
-865.020264 789.176636 -965.674988
-983.582092 688.339417 -966.736572
-670.056458 893.811279 -1112.214844
-746.764221 883.534363 -463.305450
-743.439026 832.675903 -353.793304
-1124.383179 532.767029 -913.149170
-738.401062 783.178711 -572.011780
-792.984802 895.348816 -1031.623291
-707.363464 537.636475 -595.544128
-867.758606 600.513306 -1053.671265
-704.183594 732.992920 -1128.852051
-642.642944 873.933655 -309.952911
-603.691162 636.964050 -652.725281
-759.468811 850.423218 -428.919006
-926.194885 593.584351 -1023.377136
-1001.610657 655.858093 -983.856323
-596.933716 897.051514 -239.592636
-594.162720 648.117310 -657.508850
-773.171265 686.401062 -561.871277
-939.674744 515.729187 -1017.354492
-1008.160095 669.890442 -937.731995
-672.822815 757.943054 -600.885925
-672.406860 600.846741 -600.337769
-449.959015 705.738708 -685.213318
-733.009094 645.312256 -570.627197
-1038.737549 754.431458 -916.206787
-760.501221 850.259155 -434.808777
-741.427795 810.659546 -167.486359
-666.353943 852.997009 -240.264618
-565.542603 910.691406 -272.688843
-516.976501 950.244751 -401.132050
-624.139587 928.314819 -466.796906
-990.764526 1153.574219 -933.084534
-642.168945 905.085449 -181.266068
-729.614807 619.722473 -586.229797
-937.860474 570.611877 -1018.031860
-984.611694 646.730408 -983.090332
-600.848572 907.106567 -320.509216
-819.712402 770.688232 -292.594696
-848.566223 571.819702 -1058.271118
-615.783447 679.615540 -623.433289
-763.004395 578.964111 -1093.146606
-489.346008 802.713074 -693.532104
-754.157959 848.261047 -413.650848
-865.439514 512.168091 -1054.272827
-764.521973 441.180969 -618.418457
-546.657227 596.439636 -688.327881
-788.335754 912.924866 -547.015137
-988.641479 517.268616 -1002.827454
-673.835938 497.483093 -630.198364
-776.242126 579.390076 -576.428650
-978.790527 587.693298 -990.856628
-698.127075 881.987122 -596.464966
-719.889343 786.382751 -1123.773682
-762.077698 553.355286 -1108.073608
-873.851013 575.665955 -1042.625854
-642.804504 888.524170 -275.017456
-779.881104 530.459961 -567.145874
-712.545715 878.486938 -593.307373
-1043.154053 645.951599 -902.565491
-626.341797 636.022522 -642.267883
-560.154541 781.409851 -651.846802
-829.736572 782.651123 -522.252869
-1075.610474 516.415955 -907.254944
-769.113647 573.976563 -1093.070557
-624.702942 589.724548 -649.000549
-625.433044 891.829224 -259.219330
-847.186279 790.028931 -1044.396729
-741.415833 614.735352 -1127.673462
-583.609924 928.730774 -430.052887
-703.042175 885.674500 -439.839905
-555.468018 947.096863 -433.909027
-915.537231 933.423462 -959.590820
-572.705688 933.448425 -474.582855
-937.281250 552.371033 -1035.034790
-680.396057 867.685120 -279.139282
-790.901123 624.756226 -1038.443359
-838.196655 764.807007 -910.896423
-775.927673 551.835449 -1024.529541
-709.113342 523.047729 -615.138672
-657.880981 886.838806 -1128.212036
-755.672546 791.854309 -1108.670410
-1015.118286 514.382629 -967.905151
-689.010193 860.537964 -266.726044
-876.264404 710.799683 -871.907349
-776.494629 588.351868 -1109.478882
-850.044617 542.976746 -1036.880737
-663.837097 599.094238 -605.090515
-657.514771 914.357117 -184.316986
-736.531860 790.490173 -1105.549194
-1009.198486 1112.977905 -906.611938
-960.516724 982.042114 -882.345764
-1158.770874 737.595398 -893.373535
-1017.803040 610.555115 -982.168152
-1089.019775 636.951477 -889.000549
-995.145203 485.212402 -971.652649
-949.205750 682.558960 -945.619568
-845.681702 770.571594 -1063.599365
-770.795410 723.753845 -558.711121
-643.700073 880.020935 -286.392059
-598.975342 747.825073 -628.520691
-1084.293579 498.407501 -924.125488
-759.888733 794.867249 -1104.182617
-706.759277 627.809082 -594.943115
-856.326843 780.577026 -1044.613525
-829.354370 692.474121 -1066.615845
-645.100830 818.460083 -609.303162
-733.734741 723.819763 -1097.539429
-589.953125 900.226257 -276.448181
-678.600281 866.291016 -1135.296509
-575.787415 559.440674 -683.600708
-798.523132 834.758301 -534.906250
-1013.854431 592.594788 -951.749084
-735.778992 839.717957 -285.090912
-972.099854 840.667603 -882.820435
-590.910461 927.597107 -443.686737
-853.829346 811.534424 -1022.746460
-630.830322 668.291016 -637.141907
-849.275635 651.992676 -499.099548
-547.573547 939.596863 -343.830139
-839.783630 741.356995 -500.936462
-914.859497 1062.734741 -911.560852
-883.426270 506.607513 -1071.654419
-683.443604 882.397888 -404.313568
-1001.722412 655.072571 -965.427673
-760.566162 906.261414 -1065.267822
-784.127991 787.287659 -206.632507
-641.359192 878.324524 -196.210083
-1019.882935 549.136292 -969.431030
-887.216614 946.006165 -989.366272
-661.492615 861.919922 -1142.536377
-539.562256 934.372559 -296.124573
-797.354370 802.800903 -539.097961
-930.888855 1010.739624 -956.586182
-595.086243 603.138794 -661.366394
-615.485962 912.636047 -393.147400
-802.635254 787.979736 -297.444763
-761.018921 753.689514 -1087.772217
-1120.274170 725.746216 -899.841187
-828.520691 686.040405 -1062.761597
-845.970947 506.255981 -1085.586792
-564.100586 710.554077 -662.846252
-650.190247 787.661438 -599.316162
-1070.669189 609.263123 -872.433167
-780.795105 793.358459 -239.519241
-896.654297 967.662415 -991.311279
-688.361633 906.834351 -495.136688
-756.604614 877.166321 -1039.688477
-824.058289 659.449097 -529.503540
-618.684998 563.367249 -660.831360
-740.661011 781.590271 -1108.057129
-735.605713 833.038391 -239.837509
-522.401001 613.014221 -712.938538
-688.205994 702.274475 -1151.154663
-557.830017 927.714722 -300.830627
-727.890930 700.231323 -572.765015
-981.303284 496.247070 -998.542358
-564.221375 574.416931 -756.323608
-772.028381 740.136047 -1076.119141
-653.060608 887.580322 -444.546356
-657.341370 612.234009 -625.981689
-645.018677 866.870972 -206.840195
-592.846924 555.348206 -695.648499
-678.761963 782.505859 -1145.973022
-842.012817 515.689514 -1081.112305
-640.701172 896.243774 -449.399536
-862.660217 989.782043 -1003.660522
-673.180420 521.666504 -637.690979
-572.034058 619.666687 -672.078979
-796.566528 748.214844 -1069.544922
-823.907043 431.530334 -1072.471680
-991.617188 645.720642 -955.392212
-715.014404 542.043152 -595.003235
-893.290039 481.623657 -1042.051025
-651.012878 906.689331 -432.516632
-521.540405 641.947815 -702.520874
-821.448486 646.033508 -517.126282
-629.835754 717.988892 -639.409973
-715.861572 825.849426 -237.129196
-928.764282 1082.403809 -975.002808
-732.905884 904.980225 -1101.383179
-632.303955 649.209778 -615.904358
-603.193726 793.757996 -650.809387
-771.690735 586.299744 -545.700745
-741.043884 592.419434 -574.700012
-831.797607 538.151794 -1050.082520
-652.037537 616.819885 -623.812866
-832.772217 757.410095 -1060.667847
-804.429260 616.570557 -1093.049194
-744.545837 860.370544 -1057.026245
-707.336731 728.369141 -1129.258179
-730.047791 825.290710 -235.961975
-747.467407 852.261597 -395.482178
-486.381836 665.007019 -723.945801
-762.704712 621.635071 -931.345642
-555.054138 594.402466 -686.358154
-519.909058 643.180908 -747.671387
-524.395996 632.534241 -696.260132
-744.778137 846.982971 -261.838715
-802.035522 810.116089 -367.875397
-620.186829 896.242859 -406.852325
-748.554688 833.461121 -378.962830
-845.084778 631.511230 -1041.772095
-569.509644 560.001404 -690.089722
-712.792175 512.563354 -627.247009
-618.650391 696.640930 -635.706848
-534.653503 606.771729 -725.315796
-845.897156 770.593933 -512.932983
-993.399902 727.759949 -917.943665
-622.657654 640.515076 -637.472046
-590.916931 508.599854 -706.420654
-622.417786 883.148010 -212.321304
-566.435181 924.356445 -284.096405
-1068.896851 1103.741089 -896.226807
-766.580322 824.947327 -313.689148
-798.567261 872.097595 -1039.328247
-705.109985 807.850037 -584.531616
-638.796448 497.482788 -655.145203
-875.866577 914.864502 -982.243103
-675.244507 758.708069 -605.134521
-808.380310 457.251556 -1075.527344
-759.522949 580.048218 -1115.488403
-1128.338745 571.107544 -912.107056
-617.222107 913.950439 -355.771149
-664.834656 863.881592 -265.704437
-799.862854 661.591858 -574.359192
-648.778381 529.856079 -631.514893
-577.943787 905.828430 -277.299103
-546.225525 757.626892 -667.047241
-878.224670 491.710327 -1054.114990
-751.006592 829.601868 -318.340118
-1137.375244 580.045044 -906.395630
-538.205750 700.814392 -684.729858
-965.660767 773.685608 -869.586121
-989.836121 563.049500 -984.297546
-1058.480835 662.442139 -896.615845
-827.910889 528.410583 -1053.951050
-854.312073 721.282349 -1050.361206
-657.703186 884.656189 -346.878876
-746.103821 645.001282 -1126.399780
-593.265808 916.571167 -211.666931
-562.117126 931.532776 -342.955109
-651.423889 530.417175 -658.546509
-720.445007 845.981750 -1088.629639
-913.961365 953.822021 -941.759949
-680.996826 600.869385 -629.254944
-948.358765 655.674622 -1000.635925
-665.471252 857.618347 -234.005142
-949.547363 1048.855469 -880.273560
-766.595581 824.147827 -376.313843
-1052.452148 630.236633 -902.701721
-663.188354 866.601318 -338.040283
-992.182678 570.199585 -1003.640808
-821.548889 549.003052 -529.750244
-556.074036 920.626038 -282.039124
-684.310547 689.872070 -626.270386
-805.017212 576.574402 -1048.546021
-862.536255 589.788086 -1036.344727
-676.965271 814.484802 -594.555847
-704.540771 892.192444 -445.415405
-769.399048 943.265808 -1052.199219
-821.210999 710.070496 -1072.380859
-842.135193 479.546661 -1076.372803
-891.362549 743.053650 -505.787537
-783.470093 798.645325 -263.326111
-583.925842 907.822571 -243.162430
-758.395874 635.166016 -1110.114502
-626.928284 534.369385 -650.009766
-544.552002 936.223572 -313.378204
-965.534729 572.650574 -1001.879333
-635.254822 717.688049 -631.930359
-728.066101 521.399414 -605.963745
-755.149963 840.321655 -1097.655273
-712.137085 886.102844 -578.113464
-765.443909 564.365540 -1113.659546
-664.167480 484.720551 -638.880859
-606.270874 532.565613 -673.891479
-1031.561890 626.317993 -944.512817
-705.123718 466.492218 -618.877441
-932.367126 900.384521 -997.479736
-870.721680 568.431824 -1067.227905
-891.205322 548.134521 -1052.472534
-625.481445 660.359375 -646.194092
-891.385498 967.838135 -966.551025
-686.883240 829.707703 -608.462097
-634.517090 908.473755 -457.203339
-491.215088 654.582092 -742.090088
-607.205994 553.620422 -646.943665
-734.716553 816.847046 -576.494690
-849.673950 672.403931 -516.877563
-643.115845 651.340027 -630.180176
-825.499207 799.492554 -1033.064941
-669.267334 899.486938 -477.795593
-823.049438 560.330139 -540.386353
-554.303101 723.278564 -667.509521
-889.640442 641.288513 -1039.658813
-814.907471 637.986206 -902.575806
-759.406982 870.030090 -558.595825
-662.456787 878.431458 -191.629745
-706.150818 846.334778 -1062.182739
-707.019409 714.312744 -586.757141
-873.497070 564.859558 -1019.446533
-715.891541 862.854675 -361.254639
-973.442566 592.177307 -990.671143
-838.190857 770.565857 -1052.668091
-813.927429 801.722046 -361.850433
-687.026550 895.492615 -601.121338
-806.297302 604.830627 -559.567688
-848.738220 615.537476 -523.622314
-836.268066 720.621948 -504.659058
-1016.942261 691.700073 -793.846191
-702.002563 820.966248 -1117.492798
-771.038757 723.203735 -541.891846
-967.348877 702.397278 -936.189514
-539.719421 567.827515 -711.233337
-865.887817 744.248291 -1054.659302
-743.191223 539.571167 -1105.777954
-937.253235 694.814148 -928.771851
-763.137146 833.252563 -422.675720
-880.463684 561.447144 -1057.518555
-977.748230 483.099121 -981.671082
-707.350159 624.377563 -591.169678
-828.187378 811.802124 -538.787598
-770.328430 543.245117 -1099.565918
-970.736694 503.371796 -999.019897
-692.455139 687.464050 -611.581543
-783.036011 568.242676 -1082.559692
-590.338989 909.082947 -377.634857
-731.058960 705.739197 -1100.292358
-793.393372 806.561646 -315.622955
-747.959778 938.879211 -1088.794678
-799.740173 557.592773 -566.761780
-756.446106 710.949280 -1105.335571
-823.103516 597.114319 -1059.920532
-949.332825 544.386536 -992.477478
-756.630737 744.728516 -579.895142
-760.976257 732.927124 -1100.449951
-761.239441 832.100342 -536.842896
-932.132080 1059.136963 -944.287964
-618.025452 885.705261 -190.521576
-862.713074 724.267395 -507.992493
-784.248779 560.808411 -1076.087036
-658.768188 906.165283 -1124.115356
-815.172119 784.670654 -1064.837280
-678.750549 855.452087 -1129.331543
-779.011353 782.253601 -233.555267
-680.566040 529.644409 -616.004822
-611.021973 648.257813 -644.555298
-704.885803 639.393127 -1125.152832
-985.115051 613.230225 -978.582886
-684.855225 892.049805 -441.619751
-824.639648 773.736206 -308.454987
-560.541382 915.608032 -261.548981
-747.084961 668.970337 -1121.633545
-759.077026 651.707520 -562.446838
-632.112732 897.894897 -357.824432
-780.547241 513.242798 -1102.672607
-783.928284 794.676758 -226.580460
-787.001404 872.104065 -1003.389343
-707.334595 835.156555 -1119.045166
-579.489258 549.185730 -685.699158
-774.415283 812.780151 -553.298523
-841.852722 804.096252 -1031.189453
-947.237915 722.894287 -935.300598
-703.918457 845.640869 -1069.296387
-695.630737 687.792542 -1142.645386
-1153.027344 696.329895 -889.485229
-1070.410522 629.494873 -905.543213
-555.133118 939.461243 -379.131683
-976.397766 725.937439 -956.160950
-798.704651 707.335999 -1084.282227
-1146.622925 690.015198 -888.410095
-761.988342 823.942505 -536.201721
-727.843323 838.909729 -265.326447
-867.916199 687.145874 -512.571655
-604.731750 517.685242 -660.461914
-807.882568 733.609009 -554.143799
-721.684387 488.810303 -598.742065
-757.736145 824.619873 -377.720520
-767.526855 855.200195 -1067.053101
-630.629456 508.072784 -665.902405
-646.294312 906.683899 -464.959808
-584.206604 908.089600 -277.379944
-660.933044 605.809021 -617.456116
-592.820801 538.258667 -682.517639
-537.097412 930.091492 -299.916321
-675.405518 852.570496 -1118.716431
-770.473083 862.167664 -1007.495239
-682.054993 880.642517 -453.448730
-845.408447 580.820618 -1037.087646
-567.683594 537.628845 -684.155457
-721.497742 829.803223 -229.478119
-752.572327 759.786072 -580.640076
-922.716675 938.147583 -973.663452
-775.493042 534.191467 -1101.306152
-630.702515 778.388489 -609.437500
-801.202332 510.203339 -1085.707520
-866.619446 790.926514 -1002.144409
-872.529724 792.524170 -928.704468
-732.521423 864.007019 -422.956421
-652.146973 497.335846 -666.250000
-876.711914 998.376221 -990.977173
-631.921265 743.467712 -643.199829
-944.666382 655.628601 -1006.198303
-771.990540 468.567322 -581.985046
-651.588135 753.111572 -632.928894
-713.280212 531.157043 -581.613586
-618.828979 908.588928 -405.315338
-1156.629272 756.716614 -903.604614
-685.054504 857.436584 -178.731674
-983.759705 526.903381 -993.476318
-841.471069 806.496704 -1060.308838
-819.025330 761.038757 -559.739990
-562.555298 934.241760 -434.734375
-694.926270 890.503113 -1121.919312
-777.841675 731.020813 -1107.448853
-627.911926 882.048279 -316.531128
-1008.819641 505.643280 -979.499573
-630.807739 573.805969 -637.815063
-757.540100 592.339844 -1118.551514
-631.190552 903.943848 -311.099182
-986.657104 515.333801 -1009.432556
-570.615662 752.257324 -654.608337
-590.085938 898.777527 -213.417343
-613.360474 732.010742 -633.211487
-570.214172 740.086182 -679.179443
-776.692932 872.953552 -1080.243408
-1053.207764 552.234619 -946.264160
-837.141418 651.594055 -531.351135
-921.079224 501.857452 -1041.074341
-670.512634 899.883301 -1120.953613
-695.684570 785.373230 -1114.471924
-1017.837402 536.801392 -959.836182
-719.079468 861.680664 -414.348022
-722.064392 805.913025 -1109.902588
-783.470154 583.954895 -1044.610107
-917.368652 526.846924 -1028.591675
-651.606079 866.715271 -238.207275
-969.057678 648.974365 -904.251587
-522.136047 621.201111 -742.431458
-659.091736 869.422546 -239.555481
-584.385925 508.433563 -706.418335
-824.636169 792.041626 -508.255829
-548.480957 941.606934 -374.964264
-787.790039 632.726074 -1071.335327
-784.354553 503.665680 -1100.939453
-612.496399 694.640076 -655.878357
-772.790527 821.950500 -357.458893
-895.417969 591.263306 -1045.153198
-739.973328 644.130371 -1131.845581
-900.548950 594.914795 -1046.227173
-1038.556396 624.313660 -932.978027
-639.045044 887.377930 -184.624176
-569.410461 720.032715 -658.099792
-576.846008 561.073853 -681.422302
-1032.670776 1097.644043 -922.656128
-633.732910 613.661621 -640.079529
-817.607605 593.592407 -308.844208
-701.542419 458.209900 -657.851379
-927.434265 503.515320 -1027.439453
-862.763245 705.708740 -1040.571899
-613.828735 917.037903 -496.194397
-783.769958 498.093475 -554.379517
-689.241211 540.121826 -615.164307
-818.188965 547.855896 -1043.620483
-557.903564 939.829895 -252.870010
-743.102539 834.291504 -350.097443
-555.067322 665.783630 -695.171814
-984.718689 706.387207 -942.306763
-699.449951 855.439758 -292.360565
-804.485840 520.718872 -1068.521973
-561.702332 914.549927 -218.399445
-821.919678 472.158691 -1083.857544
-580.383301 913.819519 -236.490707
-785.086792 781.517578 -543.320313
-779.866638 822.748901 -369.985809
-664.607849 905.229370 -479.400848
-877.608887 780.667725 -993.986084
-720.661377 856.414429 -233.087952
-785.540588 491.589081 -1095.037231
-614.366516 911.381165 -425.595184
-694.576843 842.061646 -190.012360
-754.774841 826.995056 -1098.404663
-608.187744 903.327148 -333.150665
-933.017151 617.290283 -866.191772
-1064.927002 502.880188 -928.727661
-583.258179 903.458984 -266.358368
-759.255310 822.683533 -999.434509
-541.286316 581.434937 -721.657715
-757.663147 840.114136 -404.298462
-758.710693 850.858826 -417.245209
-804.891724 651.879456 -526.165527
-798.898010 719.416443 -544.888184
-614.103821 894.658508 -319.465302
-807.362915 662.979858 -1096.456787
-772.862732 818.681213 -288.915588
-834.221191 708.077759 -1081.883301
-644.007263 486.983093 -699.770752
-808.553650 713.051636 -535.686157
-798.777832 763.877136 -542.329224
-745.084717 808.799072 -1096.020264
-835.916443 781.663452 -369.102814
-714.994934 852.161194 -563.584106
-777.609070 918.852478 -1077.654907
-575.036011 663.495789 -659.837646
-1029.493042 528.364746 -980.786133
-571.815002 670.196594 -666.344238
-634.161804 887.933594 -332.632233
-679.593323 854.500305 -228.051468
-770.409363 920.742065 -1063.646362
-818.627563 788.314453 -374.400665
-928.379822 526.372375 -1009.562744
-669.386780 855.402161 -184.637726
-861.888123 784.777527 -1008.837891
-694.027527 899.053223 -473.579407
-1063.294678 552.379761 -899.349243
-872.794189 596.138184 -1044.758179
-577.769958 606.316040 -654.207214
-753.320740 792.670593 -1109.151978
-731.944275 838.077393 -378.858765
-781.244690 481.202698 -1110.154419
-710.720947 623.760132 -1136.788452
-690.728821 659.612549 -613.981689
-578.431702 534.778076 -719.435852
-802.465088 802.282471 -378.787201
-616.406860 524.337036 -672.865356
-676.119690 598.380981 -616.367065
-664.336426 832.477844 -1129.015137
-586.110535 527.648193 -672.330688
-720.312683 808.306396 -1113.984009
-667.774963 882.376404 -1124.368408
-984.879150 1170.431030 -915.832825
-552.147339 929.363831 -319.416534
-510.751404 725.801392 -688.836304
-820.253845 899.015625 -1007.631714
-698.323853 700.530518 -1133.335938
-636.908813 494.584991 -659.869934
-759.700562 790.485840 -1078.800903
-793.396362 687.784546 -1075.072021
-902.550171 607.928223 -1044.280884
-641.750122 734.278809 -614.632935
-768.694031 440.432251 -605.300171
-598.706970 597.656067 -652.446777
-766.821411 805.903748 -272.678986
-593.222595 570.977905 -663.438538
-1013.347168 510.871979 -978.195129
-646.458313 898.777466 -397.673126
-990.954407 534.234497 -1005.498474
-776.383545 599.679932 -1103.104370
-703.276184 828.312378 -583.153870
-740.179077 683.466309 -558.178101
-578.357788 941.367798 -429.907776
-770.951782 745.443726 -1108.780518
-608.023560 650.917908 -652.269470
-953.560547 1113.110962 -957.352905
-618.147644 600.706909 -647.658997
-675.931396 523.721252 -620.978455
-780.910156 695.097961 -1095.506104
-861.323059 753.219482 -1025.331909
-567.746643 562.887390 -720.549988
-642.489136 519.459595 -672.534546
-739.451965 703.747803 -586.575745
-686.385925 618.259094 -624.769592
-767.310974 812.263489 -352.726013
-752.929810 541.497803 -581.098999
-771.630981 715.241638 -1113.178223
-530.694092 628.737976 -706.822266
-756.261230 862.677124 -1043.244263
-582.546265 913.846008 -253.366470
-805.395203 547.536194 -543.159607
-790.961975 598.847961 -929.006958
-1068.323730 578.412659 -920.233887
-823.776001 816.183655 -1050.342529
-789.364441 794.763367 -280.145172
-757.965393 796.692566 -540.998657
-836.984192 701.722351 -544.152405
-694.163635 850.138306 -183.574173
-792.166687 527.340698 -1077.252197
-771.169556 580.453186 -1088.334961
-813.236145 847.007263 -1028.564209
-683.863403 712.826599 -601.835999
-807.633240 694.323120 -546.333679
-745.065308 707.559021 -596.464844
-610.064514 925.416382 -512.386902
-1043.284180 577.325256 -952.610901
-811.897827 513.316650 -1082.771240
-982.333496 720.921326 -954.561279
-850.518188 711.517456 -878.505554
-668.071960 556.754700 -624.434692
-1003.017212 1168.569824 -932.459534
-697.342346 487.926941 -611.295410
-583.404358 904.946716 -289.234772
-1042.541138 527.970825 -887.366577
-763.998047 714.495483 -578.291931
-820.464661 625.198608 -1067.212402
-542.456177 628.457703 -687.834900
-707.118042 827.789978 -164.858490
-816.882080 637.003296 -1062.541870
-729.567505 666.125671 -1120.753296
-738.718750 799.518616 -1101.350952
-793.828308 799.812134 -411.716888
-778.991821 569.457214 -560.914612
-627.400024 900.847534 -368.533142
-684.507385 841.342407 -152.205078
-727.833191 559.189087 -1140.031616
-569.039185 939.669495 -433.005524
-781.886963 514.275208 -1066.114624
-646.716553 917.557007 -480.294678
-773.157837 779.631226 -1087.688477
-1045.566040 673.127930 -929.675232
-861.152649 551.706116 -1060.267456
-641.939209 516.844666 -633.790283
-952.829895 698.843262 -1014.168335
-951.633423 609.892700 -1030.204834
-770.641113 664.458008 -574.992676
-1104.004395 630.360840 -901.949219
-723.274475 857.276428 -283.310211
-813.447510 793.938232 -1044.727417
-998.789307 697.737793 -944.279724
-955.702759 989.882324 -882.248413
-914.374939 579.144165 -1023.881409
-721.873779 862.805725 -440.408264
-508.853851 639.343018 -717.996765
-837.271240 812.271912 -1048.863281
-726.042419 840.432068 -407.299683
-1053.908325 619.863037 -893.821350
-786.795471 803.805664 -271.835510
-588.672852 900.502136 -274.769043
-627.973694 896.628296 -368.672485
-678.411987 695.632141 -1133.541748
-752.765930 537.570801 -1117.516113
-989.615906 504.605347 -987.839539
-628.569031 915.295105 -490.421509
-816.199341 803.254822 -344.032745
-577.996460 556.534424 -695.036621
-625.071960 624.041748 -624.814453
-518.177307 607.157776 -754.563965
-826.416748 679.338318 -549.019653
-880.633545 455.296051 -1052.310547
-621.981750 916.071655 -409.267487
-620.771912 916.577515 -405.834595
-958.413818 607.871887 -981.817810
-990.969788 536.133789 -988.168091
-733.087830 515.620544 -603.925964
-640.863770 879.833374 -296.762360
-806.595947 795.976746 -346.133148
-696.223267 783.293945 -600.112244
-954.237061 511.559692 -993.405518
-817.919434 645.501038 -1060.872681
-567.965515 599.274475 -677.569580
-696.702087 846.314941 -241.871017
-844.528259 729.853088 -907.147339
-622.032898 926.994019 -471.745270
-777.599854 786.780762 -252.667084
-731.652466 853.528076 -561.733398
-985.426147 629.448914 -979.687622
-752.704712 548.887756 -1103.743408
-853.786316 763.077820 -1042.158081
-698.402893 873.108154 -368.934387
-753.727905 805.017395 -209.678879
-684.901184 839.583130 -1137.337524
-691.827454 859.769897 -338.106354
-776.860840 792.064880 -218.529785
-881.174072 952.701904 -1001.306274
-922.318481 1023.231567 -916.113281
-914.982483 714.726868 -936.257019
-824.820129 683.718445 -949.414734
-797.521729 614.958374 -1042.731812
-832.365356 761.601807 -1056.953369
-622.692871 521.186096 -661.037659
-633.427979 882.548828 -350.888153
-867.346558 730.788574 -1044.536499
-911.962585 838.933411 -906.284607
-836.505127 614.600342 -1035.236450
-761.034241 550.476624 -567.763550
-650.696655 672.967407 -638.893738
-1023.360962 657.821228 -923.890564
-926.506958 995.449158 -1005.574524
-799.605469 797.371582 -287.019409
-882.776001 489.657440 -1047.613037
-697.924377 502.749268 -636.034058
-768.317688 839.985718 -392.780457
-562.595215 753.553589 -653.151184
-673.595581 832.896912 -1148.042603
-814.572632 628.069336 -1038.598022
-656.138672 872.686584 -316.364716
-994.412903 514.154419 -967.464050
-620.619019 593.940674 -640.835205
-714.003174 668.969543 -1130.578857
-992.192688 664.098694 -979.299927
-728.201904 469.498901 -611.041565
-730.842346 753.713684 -1128.457764
-575.772400 911.046448 -263.981934
-600.991333 891.883850 -229.765167
-510.995819 640.399597 -738.930847
-836.940430 769.017639 -336.386200
-526.574646 655.643738 -696.316895
-632.649170 876.413391 -209.373199
-505.761536 737.395264 -681.876709
-626.685425 884.138672 -220.367676
-1037.383667 559.520874 -942.564575
-660.937622 870.044189 -258.813446
-831.997192 727.336304 -948.403625
-669.091248 888.951416 -328.864929
-610.742065 885.836487 -213.869965
-743.198975 524.734375 -1124.788086
-611.113647 836.276306 -630.450928
-567.485535 545.894226 -709.619019
-707.799988 798.150391 -579.359131
-808.322693 608.210938 -1088.178101
-562.681458 913.003052 -277.756378
-839.838257 662.309692 -544.525513
-836.289490 663.019897 -507.719604
-887.135193 736.093140 -988.048279
-759.159546 513.916931 -601.997925
-783.195984 530.736511 -561.515808
-972.936890 599.755310 -996.592163
-774.257080 823.042969 -1001.462097
-698.494446 865.085693 -322.964874
-604.144531 588.448364 -654.119690
-816.469666 837.154480 -1021.644958
-782.577209 590.422058 -557.548157
-745.302124 920.332520 -1092.566895
-635.936768 880.194031 -191.311249
-809.175659 808.473328 -351.826660
-963.370056 890.682434 -968.257629
-716.886719 739.651184 -1122.759888
-751.259338 605.083191 -1123.107056
-780.800232 676.406555 -556.028442
-1092.463745 842.274841 -890.594421
-798.426331 646.792419 -1089.012451
-771.620728 845.662781 -1043.151611
-779.975952 721.367859 -1091.463135
-630.380981 936.361023 -533.908997
-687.630615 866.717224 -304.001251
-541.276855 941.345459 -335.797363
-790.192871 474.229706 -566.176941
-722.971252 563.849304 -590.281677
-816.447388 477.856079 -1083.773438
-724.001587 849.217163 -407.459747
-794.945374 476.767426 -565.489441
-687.542236 882.593445 -164.038177
-952.342590 627.734192 -1007.553772
-701.408508 748.845093 -594.104858
-705.230896 851.718079 -317.128052
-745.271240 858.965088 -1050.956909
-824.117310 756.891724 -534.346497
-524.236511 948.747559 -298.286285
-660.476868 570.527039 -643.710266
-681.274475 884.762878 -407.582428
-602.822021 563.637024 -661.522461
-876.942688 782.976501 -913.927612
-1067.451660 728.331177 -922.366760
-734.515625 831.498962 -1093.169800
-758.762939 555.484924 -1112.949219
-876.923401 805.202393 -1013.280945
-717.796265 663.446655 -583.268433
-767.328369 537.229126 -1112.288818
-862.049683 877.279297 -968.979492
-720.300781 813.130554 -592.520813
-756.485535 814.056641 -297.984100
-862.590820 667.183777 -1049.746826
-949.150635 618.979919 -1002.977051
-706.866821 837.903503 -267.060455
-517.491516 649.729553 -722.104370
-722.935181 867.227234 -378.747803
-544.726624 927.128540 -313.116699
-752.215027 828.826721 -1070.625122
-690.761353 843.031982 -1126.812866
-845.207764 590.905823 -1069.516602
-671.548645 879.202271 -376.664063
-810.554016 589.281616 -1067.638062
-739.553589 522.456421 -1121.462646
-762.328613 549.155579 -571.586792
-860.783813 602.928101 -1010.994324
-709.336548 672.271362 -595.538940
-961.886475 568.161804 -1004.821838
-851.516602 684.662231 -1059.341919
-567.580566 930.417969 -400.425720
-700.317505 599.727966 -585.703613
-736.362915 541.614136 -1133.960815
-831.373169 737.488037 -529.770020
-767.556091 622.565979 -557.718628
-638.003540 561.266663 -635.336609
-727.808716 624.137085 -1124.895020
-655.200989 875.344849 -267.946381
-703.026123 663.813599 -1151.107178
-786.818115 635.580688 -1103.608154
-769.140991 854.435486 -1024.715576
-536.694946 940.404785 -300.555756
-493.081970 683.914124 -729.758789
-883.535217 523.549683 -1045.722656
-726.170105 507.502594 -609.604797
-583.207214 780.779907 -653.721436
-716.102844 632.363892 -1130.663574
-614.062378 774.967957 -633.846191
-660.137451 801.683899 -620.404358
-702.607544 563.643005 -621.844177
-856.130005 614.324341 -1000.958313
-892.418640 648.010071 -1000.917358
-727.213135 551.027832 -587.628906
-799.507629 483.216614 -1093.434326
-745.023865 438.035217 -632.066589
-907.393738 980.545349 -984.387512
-821.986877 631.446106 -516.604492
-788.119324 675.460449 -535.176636
-555.384827 932.340454 -339.578705
-882.416199 591.902710 -1045.133057
-743.054810 826.025391 -221.961441
-951.480652 707.658997 -884.440552
-780.322205 548.106201 -565.721436
-637.719482 555.860962 -636.522827
-708.183594 853.029236 -341.518005
-676.443604 754.104004 -1155.511475
-779.966248 551.461487 -1099.033691
-852.526855 741.896606 -1058.308838
-921.518311 737.476440 -866.860413
-791.019348 628.284607 -1075.409668
-802.921997 793.463806 -317.016357
-932.620056 948.445801 -986.395752
-959.134033 950.248779 -905.347229
-511.636566 644.094177 -736.753357
-643.902771 866.304626 -234.515427
-799.312134 736.573669 -1063.058960
-559.705872 646.840088 -694.695129
-967.928955 554.004211 -999.924744
-752.817810 578.386108 -1101.566528
-1005.056396 645.305908 -873.523804
-830.356812 499.113983 -1077.980225
-775.197327 595.311096 -982.926270
-800.830139 854.047546 -1015.515808
-810.491516 810.759094 -1063.077637
-545.586487 844.299438 -643.134521
-689.186523 856.945251 -1124.568848
-604.781677 914.507446 -259.150726
-500.908875 670.346863 -724.888245
-723.589417 737.961304 -597.731628
-873.370667 993.339355 -937.944641
-770.771118 480.082672 -1106.029663
-684.900208 866.408264 -295.720276
-658.787170 504.850250 -647.632751
-720.363342 710.952637 -583.857483
-880.602783 893.263000 -925.192871
-596.366333 952.924744 -472.212128
-754.788330 848.952637 -394.613617
-609.781372 651.287231 -648.600220
-528.142517 661.367493 -705.545776
-815.480591 782.924805 -313.280060
-697.414490 837.777527 -195.440704
-657.205200 864.661743 -300.992218
-774.091064 666.938171 -558.711487
-935.388794 693.502258 -892.523804
-838.584412 620.055359 -1037.038696
-993.685181 531.581970 -984.497559
-764.764038 513.071594 -594.237732
-847.942017 777.378723 -359.106873
-701.151978 877.002502 -436.418335
-691.043762 849.151184 -262.799774
-770.201965 789.862854 -1099.755127
-791.393005 729.253906 -548.750977
-524.558533 728.560852 -705.302307
-685.872192 770.110779 -1148.276001
-531.654419 687.080383 -675.057190
-821.026123 804.197388 -416.283722
-684.662109 876.868774 -1138.311279
-930.018921 1123.625732 -986.236389
-1127.739258 769.165344 -892.487976
-537.080017 583.399841 -719.032227
-1021.185364 1155.958496 -935.231934
-824.293701 801.413208 -973.328552
-859.493469 762.371582 -518.292053
-535.479919 585.542542 -703.482178
-598.028259 739.269226 -655.906128
-668.846558 905.938416 -469.413483
-557.397583 728.399780 -652.412842
-666.589600 876.045715 -341.791351
-519.459229 627.878967 -743.965454
-994.438660 636.040710 -955.444336
-925.781738 614.360596 -1021.417358
-638.769653 564.673889 -644.019226
-755.021179 738.101501 -1117.857178
-1007.921997 587.298462 -995.549316
-780.230286 763.864380 -1104.227417
-568.543701 924.284485 -462.883636
-717.455017 831.427490 -1096.033325
-698.645935 671.934021 -1134.885986
-663.155151 693.939453 -609.567993
-922.303833 915.640869 -1006.578613
-755.171997 494.085205 -596.275757
-787.885498 818.582703 -367.926117
-703.987000 755.718445 -613.215271
-566.820679 934.082336 -259.724579
-982.497192 749.507263 -963.314209
-722.127991 836.246399 -259.645050
-571.627380 652.767883 -668.166809
-721.849792 834.029968 -259.411163
-920.724365 935.484497 -999.994141
-698.253174 857.800781 -335.098297
-756.886414 807.266113 -561.978027
-669.653259 887.907471 -425.427917
-766.732056 767.115540 -539.432434
-805.997131 859.521362 -1025.078003
-889.764465 481.557770 -1033.644287
-619.810669 561.261658 -649.388245
-809.778625 725.900757 -553.770508
-785.580872 818.915100 -558.108215
-777.974304 827.310303 -314.412231
-1043.272217 735.018860 -915.700317
-543.515137 933.979614 -350.684204
-636.781006 889.167419 -230.506958
-708.234192 609.463867 -618.843079
-536.862854 927.874634 -262.193420
-818.828003 701.217468 -532.953125
-845.541016 695.676636 -1061.219238
-811.453369 533.368652 -1064.699585
-1006.024841 683.556335 -929.902649
-707.503662 674.455261 -615.902100
-647.851990 618.948975 -629.559570
-724.345337 601.407898 -588.343201
-685.256409 881.756531 -408.989960
-777.156311 747.469238 -536.674255
-743.758545 589.628418 -1119.743530
-733.073303 667.806396 -1125.343262
-912.224731 835.547302 -988.863770
-521.814758 944.171387 -336.519440
-606.404907 677.095032 -649.329895
-740.722229 590.718811 -1109.878540
-848.426941 664.341675 -539.717285
-667.775085 772.436829 -602.615967
-583.548767 923.990601 -222.565247
-753.507935 653.621887 -1115.138184
-709.328857 879.410156 -442.422455
-688.060364 841.801086 -245.963730
-881.488586 741.724426 -1014.803040
-673.955017 888.558655 -388.981750
-626.882324 877.588013 -207.672150
-749.379456 581.583862 -589.937561
-833.798584 823.348816 -996.932678
-700.694641 781.363220 -1139.931641
-863.487122 792.881836 -996.276489
-756.468262 564.250061 -1100.730591
-802.246582 641.934387 -528.644104
-716.009277 868.909302 -485.973663
-790.449768 643.533081 -548.428772
-704.058411 844.921936 -277.396088
-681.449768 858.157959 -342.495483
-608.320679 683.952209 -654.883179
-729.615417 471.288818 -602.618713
-876.113647 760.548950 -877.762024
-742.145752 769.009399 -1091.337036
-744.908203 607.870911 -558.694153
-855.663513 721.501587 -877.386414
-740.700500 713.887085 -577.794678
-687.234314 870.033386 -1072.126831
-656.749207 512.829407 -623.888672
-813.176514 566.954407 -1043.116089
-649.961121 668.340820 -634.177795
-725.383362 701.303223 -565.242371
-697.642822 700.220093 -593.870239
-732.082886 482.002289 -599.579651
-654.846436 716.308044 -628.611450
-765.993103 838.970459 -384.986633
-526.319275 944.229736 -318.915527
-1015.645630 686.248352 -914.196655
-606.759399 912.468323 -451.027039
-955.492554 904.754700 -949.956726
-856.930176 637.309692 -518.396484
-650.457642 505.402222 -652.618225
-553.498596 589.705261 -679.833801
-869.725281 781.437500 -1021.332092
-771.740906 751.301086 -1092.017944
-972.294556 877.056274 -937.918884
-791.207031 514.481628 -1098.180908
-1079.494629 835.407776 -900.754578
-702.376282 850.217346 -1067.880005
-1024.368042 1087.367554 -919.724060
-801.227356 802.023743 -359.573456
-778.673035 548.796326 -1053.488037
-612.666382 899.025208 -330.937622
-544.007202 714.740784 -661.350708
-1138.580811 587.837830 -897.553955
-778.926392 816.222046 -1002.664795
-803.903442 540.409546 -547.629089
-902.111755 794.608643 -967.246704
-1067.687622 489.727081 -924.680786
-1088.390015 836.404175 -908.142090
-945.753845 571.339111 -1025.176514
-984.681641 589.246460 -970.897583
-669.861694 700.766907 -615.351013
-640.323242 886.337036 -190.180710
-511.099396 739.931152 -706.317749
-884.917053 751.656433 -1010.388733
-773.001709 605.910645 -1102.935059
-736.209717 857.402649 -1060.897583
-832.733093 748.082825 -1042.617065
-708.736511 869.200928 -1100.242310
-756.915405 759.755310 -1082.604370
-885.147400 530.860718 -1044.882202
-765.563477 852.542725 -539.623291
-692.208862 734.728821 -1146.879517
-760.215271 861.530640 -1085.087524
-1149.736450 728.666443 -884.919373
-513.505737 662.407043 -741.926453
-975.656921 944.048584 -944.312134
-880.820496 777.404053 -504.755066
-758.753174 639.081177 -1126.501465
-461.168091 864.324524 -500.013184
-799.610901 809.114685 -352.819000
-548.870056 597.287048 -719.896362
-632.492737 882.280090 -297.620514
-556.418884 583.554504 -692.771973
-1068.830933 513.172729 -924.925354
-672.375000 851.075989 -214.329056
-692.852051 817.946777 -1108.396362
-694.979614 842.176575 -232.749832
-1013.685242 594.517151 -967.852539
-1061.535034 524.694885 -959.609497
-983.376953 505.148682 -991.664673
-566.209778 909.690186 -224.799728
-779.815613 821.593140 -358.809998
-766.100586 730.762756 -560.443054
-733.672791 665.344971 -1117.647217
-798.806519 790.060120 -287.721680
-631.927368 508.240234 -669.914368
-567.801819 914.191650 -282.575439
-755.787720 805.446045 -225.230698
-834.174316 778.020935 -943.791321
-518.426819 614.351318 -736.271790
-896.233154 1002.748108 -1002.403381
-672.617310 538.060608 -642.344482
-845.781616 555.615356 -1069.480835
-597.336853 917.312195 -432.919159
-785.040466 792.922913 -251.846039
-763.822632 779.835144 -1094.025269
-644.376099 893.854614 -368.688324
-516.197388 664.861877 -713.562744
-852.543823 779.632019 -366.522888
-690.895264 659.981018 -1146.585327
-980.255920 715.422424 -967.479797
-1021.668396 525.044006 -981.256470
-667.807190 864.514404 -328.845703
-712.989136 581.787598 -580.279419
-751.409058 896.078125 -473.881714
-797.764465 815.129395 -977.630920
-700.848999 936.894348 -1101.650146
-792.590271 844.097717 -1043.027954
-599.675293 756.118286 -629.019104
-573.679504 940.465515 -235.647690
-1031.276245 547.520508 -966.329285
-710.447327 559.447693 -612.387573
-810.803284 795.823364 -513.979248
-946.231323 917.993896 -988.721802
-1080.636353 511.198486 -905.108887
-805.959595 822.383118 -981.447449
-533.716187 944.041626 -314.237030
-769.146362 604.035645 -1090.676392
-996.878479 591.631775 -980.588318
-840.385803 434.278900 -1059.965210
-784.963379 554.269348 -1093.324219
-772.181335 501.353210 -1100.355835
-785.122437 509.738617 -563.965088
-791.904602 634.064880 -956.336365
-883.992310 980.679443 -1008.442200
-910.997009 627.468201 -1028.079712
-655.103027 872.334534 -229.828156
-847.447449 606.099548 -1043.594971
-810.887390 817.723450 -1072.487793
-661.359802 470.425659 -677.640991
-827.372253 684.203735 -1052.602173
-688.302368 834.785095 -605.877808
-1132.240601 535.358582 -909.633789
-735.968994 850.430786 -263.612396
-852.753784 608.166321 -498.027313
-873.231140 615.607910 -517.872681
-784.080872 681.567749 -570.437805
-835.358826 770.669800 -1061.138794
-641.418823 534.067871 -663.966492
-792.585693 571.099792 -568.520752
-578.859314 532.082336 -699.095825
-518.262390 680.911255 -699.025085
-940.426147 558.617615 -1014.964966
-978.875305 518.554077 -991.418091
-769.082458 807.091492 -1082.332520
-768.918823 544.374939 -1103.010254
-631.316833 893.519165 -310.285461
-702.734375 871.409363 -571.420410
-766.225220 856.170715 -549.827209
-536.841125 947.433411 -329.307098
-1060.762939 595.275208 -906.349060
-755.788696 650.624146 -1123.428101
-675.237061 852.138977 -207.689697
-605.564514 914.536072 -307.948700
-690.576904 762.264587 -595.531799
-789.483093 816.415527 -354.150299
-783.853516 664.841125 -555.450928
-958.287476 492.620728 -994.754395
-645.678894 481.048737 -664.160889
-809.836426 601.362183 -536.187195
-698.792358 451.147675 -635.130371
-1042.408447 645.207397 -933.282898
-822.249390 830.287231 -1006.430237
-651.176453 889.409729 -379.545685
-631.317383 647.432129 -630.486938
-919.428589 639.626343 -1016.785217
-970.885986 491.112152 -1002.118530
-1084.412598 522.358704 -882.756348
-974.598450 538.581665 -1020.479858
-715.882263 676.920044 -1126.695557
-752.648193 572.712708 -556.290955
-808.532104 693.465942 -522.612305
-750.071472 840.790405 -1095.200928
-939.172729 1175.319946 -957.718079
-727.266296 529.026917 -617.553528
-758.135803 833.080261 -405.283966
-693.041870 460.712372 -656.704163
-557.344299 926.534912 -288.723602
-545.833496 708.223083 -660.872803
-791.490906 794.825256 -521.556396
-791.953674 795.807190 -294.449554
-637.585999 630.296997 -634.382324
-786.574829 536.324280 -1105.107422
-723.191040 848.413513 -579.320068
-832.806763 508.119080 -1076.130981
-898.392334 617.731079 -1031.496216
-585.715149 942.365662 -514.337219
-749.966003 824.501343 -230.114426
-928.586914 533.635376 -1023.820313
-546.089050 723.311401 -659.309570
-651.945068 450.214844 -667.532532
-608.896729 898.817871 -329.167114
-899.546326 772.137390 -965.010681
-681.354858 865.065186 -326.993927
-563.135315 945.493530 -432.958221
-697.289551 750.534546 -610.149658
-840.257507 854.461975 -975.817139
-635.203979 604.432495 -636.098083
-796.387390 624.331238 -1091.652222
-868.372620 859.195496 -994.880737
-593.003845 902.463562 -309.232544
-629.805298 871.890137 -205.544586
-552.518066 938.269714 -371.035828
-623.188538 889.552917 -318.617981
-863.791931 494.444580 -1056.723877
-584.570618 951.728882 -477.530304
-693.993469 639.569153 -586.945984
-754.690857 831.700928 -307.020752
-741.379883 829.463867 -280.458649
-856.528137 561.287170 -1066.121704
-618.320923 885.440063 -211.032318
-498.620697 634.906067 -728.808960
-784.683533 523.452454 -1093.976563
-819.781677 613.961304 -553.973572
-732.634521 838.718750 -343.582825
-529.258179 597.816956 -725.490845
-746.336304 866.850830 -1040.615723
-788.589844 844.957458 -1025.533081
-603.928467 917.599731 -415.913116
-504.978973 753.344666 -688.486084
-545.342712 948.162903 -394.119415
-802.143555 512.356873 -1100.285767
-783.533081 830.651917 -367.493469
-833.425781 584.242493 -1050.884277
-738.121094 839.196167 -417.079681
-702.312988 832.132141 -223.970749
-905.585388 970.989563 -986.075500
-904.426941 975.274658 -954.908813
-630.670959 895.709229 -433.229919
-741.774719 698.541199 -573.994385
-757.848816 558.366089 -1085.685181
-825.435913 778.430481 -941.348511
-760.228882 512.621765 -1094.316650
-1118.419067 542.710693 -915.396912
-826.988159 790.802368 -341.606018
-553.249146 711.627319 -656.144409
-764.640625 546.382080 -1093.348877
-870.989868 757.110352 -1013.487488
-944.132263 607.420227 -1006.793762
-843.801514 672.825012 -551.978271
-1053.041382 533.380615 -958.933472
-617.780884 903.572571 -361.247681
-795.235535 805.600037 -352.115021
-617.153076 720.167480 -641.212524
-580.292542 700.255249 -668.901184
-675.183899 905.596497 -1140.857788
-551.657959 591.432678 -720.171448
-670.927673 722.979309 -614.949463
-806.389648 493.754791 -1108.140015
-761.071472 568.268982 -1081.966431
-734.735718 833.931458 -245.369278
-927.056458 487.566376 -1037.035767
-838.622620 580.250916 -1042.564453
-727.691223 860.549561 -392.965332
-939.565430 713.840332 -901.544617
-564.159607 515.312134 -699.739441
-580.581726 541.794617 -678.040771
-799.510864 630.784180 -1080.186523
-556.221802 755.756287 -652.910889
-621.094299 742.408997 -630.170044
-751.827209 582.138306 -559.984253
-605.468323 919.142578 -445.316589
-503.237427 762.953735 -657.285095
-741.070679 642.501770 -1134.511475
-978.349609 730.493469 -929.098511
-612.610779 586.790833 -646.951416
-849.726746 523.107666 -1060.132324
-825.686951 828.595337 -985.997620
-521.289124 734.435425 -697.835266
-599.403870 893.684448 -229.434631
-772.292053 819.912109 -366.154480
-721.678467 876.764221 -451.113495
-820.578186 837.950684 -1032.684448
-767.205688 832.563965 -344.211029
-670.246399 870.802429 -388.497284
-712.616516 651.644104 -1142.216187
-899.304138 475.996857 -1045.736206
-579.407654 930.650391 -371.103058
-740.569031 894.452332 -568.028625
-713.633057 690.868103 -1139.298584
-1035.710571 643.708740 -909.566772
-600.376770 904.565613 -323.237915
-859.651489 732.816284 -541.586731
-939.728333 615.818237 -1024.124146
-869.067139 875.697021 -959.966492
-1033.770874 619.697998 -929.759644
-700.645447 662.026306 -582.773682
-704.403320 837.338806 -1124.541382
-657.216919 885.996887 -1138.655884
-624.862671 842.538208 -626.056396
-779.834045 658.837585 -1098.172852
-681.767029 756.958923 -1150.879395
-601.260742 917.360474 -407.442139
-702.403015 839.491821 -578.996399
-512.146606 733.330322 -698.946350
-810.688171 818.839844 -1061.749146
-805.336670 558.125610 -537.439575
-536.764832 729.506958 -674.286438
-578.502991 905.872559 -224.992371
-642.290649 895.261230 -250.661209
-529.569824 938.409302 -312.709717
-1102.693604 746.473206 -906.881958
-1074.927002 590.231445 -921.968689
-995.750916 665.775330 -938.638000
-809.663513 798.468323 -559.934631
-535.810669 764.282410 -684.157532
-666.029846 847.769714 -1133.366577
-395.568604 791.731079 -504.072235
-911.185913 512.867493 -1035.592896
-684.252197 876.290894 -605.017517
-691.338867 828.515564 -615.278442
-878.115784 522.872375 -1048.532593
-554.465210 945.650574 -255.158066
-1039.172607 576.907654 -949.146179
-755.235596 622.425598 -1129.892456
-674.682434 831.663940 -1138.108154
-688.850708 742.201599 -1148.281494
-529.152283 671.428162 -714.757446
-878.849792 976.216980 -1020.647766
-973.843506 636.289124 -1006.221802
-758.042236 807.337952 -250.945740
-758.640747 669.945313 -562.278809
-599.972046 944.109924 -496.993835
-781.928467 527.685486 -1101.711060
-793.010193 837.666992 -1047.897583
-758.922668 694.664917 -560.929321
-711.468384 899.609924 -1056.684814
-675.632385 489.920990 -640.494995
-934.445618 683.270691 -1002.069153
-667.434814 856.016296 -213.865631
-617.399658 545.012329 -652.744812
-679.565369 855.209778 -608.334045
-773.425110 606.513306 -1110.237915
-574.951721 935.130432 -456.451385
-807.332458 636.869385 -525.122192
-704.485535 696.742310 -1129.774658
-652.570068 509.916351 -632.593140
-589.214661 593.652405 -662.742798
-828.737305 612.347473 -1066.692505
-680.116882 886.295715 -424.843964
-631.839111 878.359558 -304.789825
-707.137817 870.751465 -415.614624
-509.652222 671.644653 -717.300842
-799.795837 814.071899 -386.368164
-753.096558 834.522522 -1052.789063
-730.019470 466.617004 -621.467285
-820.283386 834.013489 -1051.745117
-505.773865 673.993225 -732.873962
-520.214905 946.361755 -328.157440
-807.178162 796.301819 -319.627991
-823.441345 678.085999 -1055.938965
-1091.528809 790.756958 -928.574402
-659.898865 509.115753 -634.124573
-878.867126 781.406921 -1024.487427
-808.316956 616.496521 -1022.070374
-833.148315 676.168091 -530.489563
-558.837158 712.471130 -671.905701
-574.774231 926.281311 -461.242767
-578.530823 915.388855 -352.526794
-811.852783 469.157013 -1091.846436
-633.274902 890.820679 -193.447647
-561.390686 916.871033 -294.891632
-755.825806 836.456909 -583.269592
-844.280457 532.455688 -537.722412
-705.139526 724.010803 -1117.761108
-924.708191 993.163452 -956.393494
-661.361023 876.121216 -199.488235
-809.333252 799.348938 -971.263123
-636.830872 633.823120 -653.080139
-763.755005 568.607361 -568.025757
-696.087158 796.333008 -1136.067139
-812.523254 788.655884 -347.775116
-805.629211 517.004211 -550.820862
-743.071411 737.640686 -570.001221
-746.724976 640.454102 -1114.321899
-847.422302 802.178772 -961.414124
-766.427063 549.364624 -1054.815552
-772.356812 818.897888 -1030.212769
-682.853210 889.830811 -421.568787
-571.492493 555.413025 -703.371704
-800.336426 679.462219 -861.864136
-884.555176 663.029297 -501.439606
-710.334473 618.597839 -576.301575
-1142.404175 706.816040 -889.773071
-696.665894 852.721191 -227.710449
-801.267334 804.202332 -380.806915
-1132.409058 695.748840 -902.451843
-677.266663 797.426025 -595.568542
-755.905212 834.780884 -332.907837
-529.796692 572.864075 -734.529419
-1009.911133 640.401978 -965.994019
-630.036255 890.595886 -240.877838
-739.173340 575.810974 -595.604248
-676.089355 793.642517 -597.035339
-713.853943 851.651917 -281.862396
-743.400513 693.943726 -1094.754761
-778.541687 800.315247 -267.663116
-841.791199 740.450562 -517.096497
-856.015015 438.052948 -1051.243408
-513.486877 650.657227 -724.929688
-601.800293 537.423645 -703.379517
-1001.713745 510.353607 -984.321472
-654.284119 638.440918 -643.819214
-750.004761 772.371643 -1101.988892
-644.574280 879.864868 -273.140503
-808.000122 667.666687 -544.858337
-958.416016 929.718689 -977.666809
-686.984680 884.460571 -183.930664
-1058.708984 623.264587 -889.808594
