ply
format ascii 1.0
element vertex 1393
property float x
property float y
property float z
end_header
433.214264 67.161636 -1367.942993
529.855652 353.169830 -916.002197
722.520386 564.841492 -718.075500
815.195862 407.344971 -1392.459717
445.299988 385.023163 -1430.539063
570.237183 702.525208 -650.082153
679.665039 589.889587 -724.113586
508.091736 782.663391 -654.608032
527.677429 173.686234 -924.242859
795.700928 126.274010 -1342.125977
595.332886 346.627136 -938.085571
636.467224 615.584351 -724.078552
314.475830 292.872406 -1416.562012
730.530640 78.463898 -1340.952393
840.657776 421.424500 -1379.096313
725.964539 286.258209 -1354.202759
501.176727 391.792023 -1344.381592
725.191650 89.504280 -1335.783691
594.609131 248.954666 -1388.387329
555.646423 286.678925 -1270.666260
570.415344 39.043095 -1337.098511
626.666321 643.088440 -661.264709
594.779114 668.852478 -652.681274
603.035461 621.345337 -845.453186
467.089233 381.676239 -938.265137
883.220154 581.347778 -1383.112549
520.656128 55.220940 -1363.208374
304.435944 277.532593 -957.742065
359.631439 221.418686 -1411.830078
465.192169 137.557892 -1374.730103
435.725616 267.770325 -1396.547852
534.128784 212.626541 -1279.930420
633.775757 284.905243 -894.428345
313.796600 340.914795 -974.583740
806.004456 219.953918 -1327.047241
749.815735 500.106720 -748.165527
569.124573 639.243774 -785.192078
600.871826 321.204590 -1281.461914
589.917847 232.982941 -890.965942
415.441925 330.263733 -1411.026611
391.815521 302.667236 -1410.840454
527.974976 404.584564 -940.178894
517.452332 667.290039 -811.380981
800.055908 162.498978 -1318.322144
472.978577 178.906342 -1381.664917
511.934448 705.738220 -723.717407
428.852783 220.418793 -937.458252
556.087402 364.729523 -1257.575562
505.581421 48.315853 -1356.223877
452.096527 193.654114 -938.482849
568.893860 173.486252 -941.692627
725.655212 119.798462 -1329.337036
531.872253 242.629776 -1384.867798
530.084351 32.877655 -1349.532593
545.156067 553.787415 -1464.662231
506.008636 430.604431 -966.028748
374.609161 255.708405 -1418.327881
908.321411 641.957458 -1419.101196
658.934753 560.635132 -849.221375
311.783722 370.381500 -1444.297729
516.860596 363.133362 -1339.300903
384.834900 283.245544 -936.583313
450.230621 43.784420 -1351.018433
686.513245 294.077271 -1374.256470
592.308228 194.581680 -920.042908
664.410217 71.374725 -1339.773804
545.084717 673.293152 -748.760742
401.111786 234.451355 -932.795532
616.602051 638.138794 -747.363831
408.561676 209.848938 -1405.874756
490.627563 329.916260 -944.378418
538.443665 102.198708 -1353.608154
758.528931 121.700417 -1338.704224
743.018555 175.439789 -1335.184082
770.516907 108.641991 -1332.137451
616.307129 633.935425 -735.252319
506.762665 439.850342 -947.940979
714.737488 592.710876 -626.173157
713.598694 316.472595 -1330.879150
525.246765 95.670677 -1350.631226
540.012634 724.724854 -638.472839
710.708801 255.071930 -1349.403809
467.874298 451.604156 -1373.861816
451.196716 49.401196 -1364.278564
569.566223 697.123962 -632.768860
540.828369 649.212646 -864.869690
524.569458 724.916138 -649.209473
597.089783 386.429657 -936.961853
640.867065 290.962311 -1388.768188
639.197876 78.975754 -1360.463257
498.040710 229.291138 -912.311951
776.247620 244.646622 -1295.840576
389.346527 397.963501 -957.831726
363.851624 292.530304 -942.886780
611.008728 246.898544 -893.139099
614.701050 597.858948 -810.055298
523.350220 240.946579 -1268.754761
423.000153 137.965805 -1369.756348
436.004669 64.964561 -1365.677124
683.014832 100.483162 -1343.263794
516.504150 704.926819 -706.130859
529.221985 378.437134 -929.935425
477.332062 344.611420 -1419.838989
463.106964 522.978699 -991.470032
556.135315 190.199905 -902.525696
697.444702 592.682922 -660.150513
432.132751 249.312149 -927.134216
511.263519 304.104401 -930.453430
499.958130 541.934631 -995.665710
728.963135 116.524246 -1351.880005
521.746216 211.583313 -1348.215210
681.327271 614.263428 -618.818726
372.131531 204.207397 -1390.413574
424.528442 354.128723 -1428.604248
740.491333 81.203094 -1345.174072
491.601135 213.417953 -1373.307861
743.463074 557.966858 -665.683533
346.363464 420.515442 -965.410217
651.852051 279.071625 -835.043091
706.608887 266.116272 -878.881836
715.390503 609.995422 -623.065674
453.218506 740.650696 -735.336243
664.192017 654.566406 -589.876648
665.600342 132.994080 -1355.500854
475.767944 93.393562 -1355.403931
386.411285 388.055298 -958.361328
329.539398 268.101868 -973.032898
522.392883 217.213058 -901.166077
682.582153 308.028503 -1340.357666
541.340698 99.594315 -1365.091187
656.563477 311.256866 -1351.679565
392.778137 336.949310 -946.905212
437.016876 323.968506 -1423.256226
578.449890 398.990173 -1339.744385
684.293457 145.998047 -1353.488525
587.000793 254.311752 -1377.446411
508.132690 171.322647 -945.948425
787.643921 427.775726 -1396.537354
626.245605 627.800781 -758.945557
497.911804 440.057190 -940.468689
792.683350 364.045868 -1367.744873
654.937805 283.953369 -904.644043
942.317322 607.822266 -1404.543701
611.216431 614.448669 -798.818359
473.495728 499.373199 -976.919067
636.044617 289.011444 -910.806702
654.735474 61.677631 -1338.646729
670.731140 628.159851 -666.559692
650.686584 80.192436 -1350.469116
709.637878 551.743225 -819.979858
555.880920 677.838562 -709.728943
629.744751 247.030960 -887.310913
450.760101 261.338287 -1427.556885
781.326294 165.347458 -1346.383545
536.994751 409.126923 -930.376953
475.158295 165.305618 -1359.889648
538.812866 704.254456 -708.926208
448.503967 272.043488 -1430.372925
374.860260 370.359070 -950.001892
493.153290 347.339172 -1429.918945
680.330200 564.434631 -757.141785
580.184021 687.663147 -638.567017
483.770233 294.634857 -907.152283
691.414917 120.676018 -1359.900513
390.056793 224.528305 -1425.311279
546.172363 546.864136 -985.073608
539.606628 218.362106 -1283.762207
459.655426 241.453613 -1414.651123
689.919800 577.278259 -726.994263
559.341431 332.440491 -1343.492676
492.617706 210.219925 -1323.838745
414.237976 132.816238 -1389.269775
497.332123 515.803162 -999.107483
629.374817 286.684723 -901.801086
642.547546 314.824371 -1380.709717
395.082062 451.218292 -969.528625
443.501282 185.525360 -1392.624756
497.792847 698.502502 -758.752869
507.129608 715.399597 -692.129395
714.940491 582.148438 -643.737061
757.458557 240.314728 -1336.416382
719.473511 534.203857 -762.552124
876.728210 208.294693 -1333.217163
503.164612 678.853638 -815.916321
560.502869 733.436401 -607.402222
486.086700 45.408569 -1345.069336
446.582245 285.523560 -925.663147
532.625244 698.933533 -685.248108
700.460571 564.033630 -771.395203
533.889526 63.105366 -1352.451294
684.711487 561.912537 -985.516479
398.668243 210.817474 -1403.533691
744.688110 266.400146 -1307.025146
690.648376 290.574371 -734.494446
735.459045 514.442627 -787.914124
813.221069 419.606903 -1387.160034
470.643646 211.304916 -936.395813
335.803680 350.014679 -945.059631
465.327393 427.346069 -941.298584
401.058502 270.251892 -921.592224
663.801025 682.413086 -607.513184
481.964966 287.124237 -908.440308
345.186768 474.660217 -983.939758
531.173462 491.728119 -945.933289
758.606018 96.866005 -1318.840576
674.951416 337.680817 -1327.975952
382.076263 146.282181 -1396.479858
708.656067 116.689865 -1356.391968
495.857483 700.199463 -771.546936
667.861145 597.529236 -700.339966
731.213928 454.592316 -1393.494385
576.972656 211.310104 -912.259216
321.131836 367.955078 -984.360535
497.313629 262.331421 -912.443054
530.369507 707.015442 -677.939392
487.301392 145.636932 -1364.902344
468.187744 275.287445 -1410.229858
527.425964 92.299240 -1349.323853
737.228027 272.158905 -1310.304565
613.112793 614.636902 -762.319885
596.112427 408.818512 -938.157532
678.942993 518.001099 -947.229553
548.002563 353.954956 -1412.976074
511.355377 351.834930 -1414.853271
451.157562 298.364441 -1414.809814
603.539673 690.488220 -603.107056
609.755554 272.558807 -911.925659
391.169586 380.727844 -1411.329956
633.890869 620.533569 -743.571777
497.744720 654.871094 -892.419556
850.384827 217.587677 -1332.050415
950.995544 572.533081 -1395.362305
689.576233 575.188965 -788.528564
446.091003 152.729324 -1367.390747
516.760376 112.870522 -1355.628296
497.237610 696.037964 -754.708740
581.759338 359.920868 -1292.027222
605.456421 475.425018 -968.618286
396.298004 465.153595 -1431.298462
593.364929 253.035202 -1390.320190
516.113770 293.611603 -1407.895264
623.799011 272.785645 -1390.223022
586.294617 208.652435 -896.285706
526.987793 362.216614 -928.639038
568.234863 639.777649 -839.493103
425.280609 109.641891 -1377.031494
413.787354 490.863403 -974.717285
366.786896 462.966278 -976.333435
318.708618 370.535126 -946.756653
614.130432 430.884583 -956.175842
437.451660 309.726776 -1404.463623
566.471497 59.676208 -1339.428223
697.454346 302.905487 -1372.637817
386.262848 270.132904 -941.239746
480.258728 305.128113 -940.650146
626.768555 356.225037 -925.247253
634.176758 632.566406 -660.108337
409.733734 413.314240 -1413.417114
465.162445 689.203186 -853.295593
591.388306 624.586670 -871.925903
897.131226 256.367523 -1332.855103
796.351196 154.807800 -1331.227539
410.730011 222.679718 -959.691284
788.091187 151.849014 -1342.406006
339.350861 328.479034 -947.496643
671.076172 371.992432 -914.741211
838.816711 133.732040 -1315.937500
611.182739 682.277588 -587.378662
554.093018 240.199768 -911.273376
368.889557 370.778595 -937.862000
785.773743 428.785156 -1393.029663
614.235413 56.067249 -1342.126953
701.236084 584.464111 -698.448364
631.480652 607.933594 -751.270020
687.749207 306.610229 -720.715454
694.634705 267.372070 -1319.421509
475.391357 70.643219 -1349.782593
347.347809 356.228271 -1411.731567
489.577545 700.120789 -757.340881
468.111786 267.224670 -930.097046
551.826599 669.430908 -805.400391
439.917633 369.614166 -944.429321
722.684692 534.715820 -791.253784
516.515442 224.606796 -925.408936
349.700104 141.418503 -1381.107178
628.914246 302.151947 -892.302063
541.309448 229.147949 -1373.895752
519.564758 167.476730 -941.908875
449.684418 326.559845 -917.560242
872.796814 576.567261 -1389.589600
844.174072 288.128876 -1346.016846
659.732727 551.332336 -849.617126
688.710144 500.665588 -958.466736
755.655029 235.795975 -1365.300415
351.779633 257.612274 -938.696533
522.988464 672.084839 -812.537659
572.335205 349.357971 -907.012207
865.883606 169.874069 -1332.072754
350.166565 291.768890 -967.938293
695.495422 589.985413 -715.491516
704.996094 541.229248 -783.729614
556.701050 168.294235 -1364.713623
561.979065 632.328064 -872.199097
755.205322 85.225937 -1343.730347
648.948975 604.256836 -725.649353
763.280762 219.830460 -1353.112183
489.796173 672.888428 -886.349304
518.310181 625.508301 -1003.535645
648.622314 273.184631 -875.493835
725.204285 177.033722 -1365.447510
641.005615 615.228088 -728.403137
696.271912 154.766342 -1362.274536
519.693604 31.531502 -1354.895386
300.711578 333.405914 -969.457275
569.881226 346.435669 -926.006287
467.521667 451.324036 -984.706482
516.025269 349.701630 -926.515564
536.170532 134.576996 -1341.242676
509.170990 173.998901 -914.197449
541.041199 280.317780 -897.744812
415.193359 381.103394 -1433.373535
649.791443 352.322723 -1311.841797
556.594299 303.106201 -1263.638672
642.708374 578.542175 -817.473206
651.979370 48.743382 -1348.279541
563.824585 671.076294 -701.404236
526.471436 523.461182 -1447.529053
620.677429 405.878723 -931.689026
659.931213 589.909180 -787.037109
533.641174 581.172668 -961.770325
779.021423 133.806931 -1342.823730
531.570374 719.189636 -647.579651
509.577728 324.335876 -1416.901978
681.916931 172.684601 -1361.244995
705.393677 341.707642 -1344.693359
577.956360 439.294983 -954.488098
524.619690 277.395752 -1238.144043
412.587585 383.468719 -951.993835
672.281494 133.682770 -1364.862793
480.860413 162.544937 -951.516357
317.241974 315.096771 -953.944458
595.448914 224.262497 -1384.779175
609.450989 421.001984 -1314.646973
929.294800 570.961670 -1396.456055
648.520874 222.289856 -1374.429443
602.262634 626.911499 -852.745422
730.618896 188.020691 -1352.770508
662.437622 69.071579 -1326.833862
446.024567 294.058380 -914.715576
331.188599 324.681610 -956.421814
508.488373 150.885406 -937.524536
452.496765 97.045876 -1341.116333
429.605469 113.964394 -1366.170044
612.463928 668.142395 -669.949463
676.655090 613.392883 -643.491394
775.103516 126.618950 -1333.111328
458.712982 72.019188 -1385.737793
683.789246 240.194107 -1366.730347
763.544678 154.430801 -1327.097168
688.699036 101.408287 -1357.832886
675.733643 314.243439 -885.338623
361.187317 227.903030 -1409.655029
334.458832 296.612701 -974.361877
503.034119 245.512131 -1406.982544
569.168396 389.089142 -919.910278
640.938293 649.883911 -619.659180
682.541992 319.327301 -1319.911987
634.595398 653.388306 -625.392456
508.013580 321.303864 -920.975159
371.759430 246.182251 -959.133667
580.100891 442.475922 -937.587036
603.562683 653.306519 -691.656982
397.125214 236.433426 -1396.163208
593.888000 684.141296 -646.290527
636.429626 682.186951 -630.434387
575.326416 356.649200 -927.233337
563.046143 571.922180 -976.212158
287.546417 374.553101 -1427.635742
529.260315 719.658752 -694.882996
574.383728 231.429077 -1374.583984
572.110657 211.434708 -1370.580322
553.968323 628.925293 -891.989014
506.291321 650.537231 -885.454590
467.230652 342.250031 -944.304016
342.833252 302.040802 -949.033386
500.744995 192.679184 -934.251953
659.247314 278.754395 -1380.989624
358.293854 467.024200 -973.608582
492.032410 377.116760 -1417.888184
738.196106 174.091461 -1338.075317
267.264099 556.382019 -747.198608
505.912140 170.760437 -908.481567
765.270996 203.117172 -1337.968750
652.644043 634.051575 -661.270874
673.294128 566.575073 -778.496338
603.347656 278.254364 -920.348389
712.339172 539.853699 -759.178772
467.327698 132.100143 -1375.471802
462.300354 371.069153 -1426.874878
560.623108 407.796967 -1372.562988
559.286560 63.422935 -1353.276611
803.525269 419.927521 -1345.698608
732.852356 536.477905 -808.552063
416.410126 277.261932 -1417.139404
505.985260 550.338867 -993.006287
577.758545 361.654968 -943.996643
646.820251 317.057922 -1286.286499
729.995911 255.131454 -1292.158325
772.593201 327.062805 -1333.259644
739.545410 543.904785 -747.289246
825.310608 148.214584 -1335.922607
497.851166 47.358177 -1356.709351
449.030334 254.933289 -1395.280151
677.826965 257.728394 -1380.364258
586.520386 230.341599 -1377.878540
590.801941 677.867065 -644.072266
690.011719 563.812195 -813.092041
856.270874 232.288071 -1346.805664
662.559082 600.104248 -753.419067
719.540833 156.127380 -1351.724609
657.916809 225.479599 -1359.002563
447.936615 194.883301 -957.280884
672.423828 224.616852 -740.316040
606.873413 202.980331 -903.258545
642.463989 629.487854 -699.090088
683.840454 634.290466 -587.478088
597.332825 65.779182 -1352.519531
360.907959 272.317993 -1438.566162
415.664001 378.905365 -961.730469
653.758362 56.806942 -1345.716064
289.856873 318.482666 -997.026794
559.128784 657.674500 -796.883667
463.588715 177.074234 -953.949646
541.282227 44.688175 -1339.918579
537.719849 676.576721 -784.862122
463.077026 229.477402 -918.340454
713.062195 337.513031 -877.003540
796.855896 468.781128 -1328.840088
510.267181 673.711731 -829.773987
664.415527 174.623611 -1364.606812
686.575317 364.949799 -1379.811035
776.263916 218.753281 -1313.429199
438.853363 344.973633 -959.448669
544.325012 397.029602 -921.036499
609.393250 146.168228 -1354.435791
550.100037 672.085449 -754.661865
447.181824 59.989552 -1384.937134
534.004700 676.229736 -807.515747
467.866089 686.309265 -879.852112
776.176208 470.298615 -1378.144531
583.809265 614.367432 -820.840271
692.457214 626.812927 -604.776184
536.520325 681.372681 -767.199280
341.210693 299.284668 -969.652039
590.335632 200.360703 -918.008484
478.471527 176.669830 -934.651062
551.401978 578.396729 -1461.883789
293.141754 283.777435 -990.310669
540.318787 54.648254 -1358.333496
283.398224 359.920319 -973.882202
702.580078 264.668488 -903.036316
462.303741 705.286072 -786.093201
628.574890 637.613159 -699.771484
717.755676 222.871048 -1359.604858
443.771088 359.087921 -1404.944214
569.066284 675.666748 -765.428284
555.479126 417.118683 -1295.818115
536.923523 518.961365 -1446.259277
506.759033 369.266113 -951.268250
451.364410 738.934204 -766.544128
591.616577 275.305756 -1379.999268
719.008728 440.216858 -918.523376
430.949066 85.463921 -1372.102173
598.656616 593.902222 -859.866943
497.085663 595.883545 -997.917542
516.959656 687.760498 -794.685242
453.806976 37.210400 -1363.651245
725.543823 126.088539 -1350.165771
355.163483 363.563995 -1437.478271
629.894836 629.080322 -680.696777
578.751343 139.845139 -1354.588989
475.064240 559.359314 -1451.899536
597.878784 376.164703 -929.021912
577.640137 496.302826 -1412.767700
652.424866 598.372192 -734.293457
649.078613 239.206818 -908.019287
356.775635 366.121704 -951.234314
333.272522 388.422760 -1385.866943
316.819305 397.677521 -957.439087
376.671051 262.293976 -1415.320801
618.589172 648.475647 -738.697205
601.195313 38.617390 -1340.469482
732.023132 86.932869 -1318.663086
495.884766 761.720337 -632.087830
464.946472 261.807983 -928.569153
714.070984 136.089752 -1359.297852
540.333801 55.060257 -1351.542480
469.528198 690.691040 -865.326233
618.838013 648.355957 -706.711182
645.397522 629.426514 -675.690063
575.393005 167.480453 -1366.932495
705.729309 540.470337 -823.235535
524.254028 685.166138 -789.273193
451.063599 499.621582 -1454.563232
450.263580 452.257843 -1380.304932
499.457703 93.142448 -1358.676758
654.284119 486.485474 -954.871643
556.678284 64.359230 -1368.975830
452.835297 458.127289 -1423.751099
595.860413 135.903168 -1351.611206
687.801392 578.864868 -729.217712
691.958862 289.653046 -1291.250854
688.068542 561.105469 -889.162415
345.583099 374.533539 -1407.015503
563.692139 706.571838 -616.408997
421.870361 59.859276 -1368.021240
676.730591 490.743866 -953.485229
565.230347 342.297180 -918.080933
422.117371 182.418793 -1393.941162
359.268433 194.975159 -1403.148438
567.548401 125.909615 -1371.037598
518.475891 555.139587 -961.619324
354.639984 361.489136 -970.619019
404.568298 293.590271 -1443.182739
400.199036 489.128296 -1443.219238
631.566223 680.169067 -596.939331
386.926636 294.738800 -934.208191
643.057556 654.173950 -619.168396
581.924683 689.779663 -649.428711
550.369263 556.059814 -975.007996
475.727844 225.496155 -924.371887
742.060242 368.214874 -683.340820
830.471191 193.860077 -1277.253784
488.389374 762.591980 -683.821106
556.903625 666.605713 -727.462524
758.478455 515.050293 -840.273865
614.710205 485.201965 -960.534851
596.200745 337.844666 -906.073975
741.932007 195.200760 -1360.196411
589.065613 720.938843 -594.491028
353.229706 356.479919 -954.644897
301.038940 332.103058 -963.115295
581.013428 483.079285 -966.131470
452.547424 116.053383 -1360.012695
475.627136 39.508446 -1355.880127
578.904480 635.816467 -797.796387
641.202759 172.271088 -1378.646973
339.936890 335.740265 -1447.319214
530.036499 709.703369 -698.604309
415.598206 127.296036 -1383.286377
460.732635 589.323120 -1003.470703
346.167206 319.983368 -967.792847
455.197235 726.120361 -737.049927
623.939087 632.730896 -736.507324
428.597839 402.226044 -1412.184326
418.826660 262.615601 -946.915344
326.942657 281.796417 -1426.527954
699.882813 269.484039 -1349.858643
699.050903 355.299591 -898.772583
420.979706 77.505127 -1361.734985
525.161316 717.454163 -663.956360
340.047607 311.607330 -970.806458
626.998230 643.869080 -682.529541
439.281219 122.605240 -1396.467896
657.327942 234.766968 -910.173584
689.301697 456.990143 -926.043396
600.140869 164.954437 -1366.569214
578.179871 355.256622 -917.723694
564.246338 135.653915 -1355.451050
554.182739 53.277611 -1350.255615
548.510132 33.355343 -1351.204102
556.241333 49.161774 -1360.761719
852.515259 460.984894 -1372.557007
825.560852 452.487793 -1323.916138
710.401611 522.311890 -827.206299
326.378448 327.771820 -961.291687
526.928467 126.820320 -1367.219727
654.196045 603.585876 -746.140137
342.406952 296.157104 -1432.959839
684.745300 581.548462 -702.016113
693.422241 170.341202 -1372.894287
612.782349 151.896362 -1350.387451
668.610474 391.669861 -911.652466
818.612793 196.602188 -1290.056030
686.187988 574.419861 -769.351257
505.215881 169.771286 -1381.800537
680.332825 323.285889 -1310.138428
702.940552 597.671326 -626.224426
580.336121 706.296692 -638.826721
384.154572 417.405487 -964.067505
635.450012 616.274231 -732.856567
618.111023 647.090332 -670.266479
678.476013 313.417023 -1382.013794
679.920349 594.165405 -714.479309
474.989685 471.911560 -1279.874023
619.607666 102.923164 -1354.761597
547.403320 374.716583 -915.061157
517.347717 72.188217 -1356.596924
396.666199 216.527267 -1392.244629
395.646423 266.597595 -942.996094
544.713745 165.974091 -909.622253
770.539795 209.384659 -1352.744141
374.216919 320.031372 -1413.157837
325.876740 328.177551 -1421.021851
461.573761 691.654175 -877.772156
705.246643 541.302795 -796.154785
642.769226 621.130127 -674.188354
359.722015 268.303253 -1421.874756
798.124207 180.623688 -1338.611938
673.082642 589.860291 -727.239685
542.428223 551.804016 -957.850525
461.397339 698.152466 -846.744202
705.832214 369.043335 -900.169250
430.938629 169.596527 -1390.612671
398.902374 520.717651 -981.473450
670.283203 76.157303 -1338.276611
458.577362 145.861740 -1375.266113
490.173431 75.987823 -1357.915771
718.637085 313.215210 -1331.620117
692.450684 636.091675 -607.666809
481.641602 79.237495 -1328.666626
722.958435 537.267334 -833.057983
621.121460 327.957977 -1342.054321
523.792664 703.270874 -741.092041
897.690979 192.032745 -1317.676270
647.166138 606.486023 -777.214233
701.099670 643.434937 -597.345398
672.845276 666.144043 -574.912781
456.074585 246.892288 -1429.450195
700.189941 287.263824 -1297.431396
655.898193 473.764648 -937.940186
763.069031 519.310059 -831.667297
631.470703 381.255981 -921.371094
671.755981 439.797729 -943.850281
723.812317 547.040222 -751.135986
474.255219 365.784485 -1435.118896
778.868469 349.092987 -1349.519653
407.997498 177.643036 -1399.031494
645.739868 630.907532 -653.622314
253.645447 552.052185 -841.697144
829.006531 400.688721 -1365.620972
358.226105 524.713318 -970.276428
697.997131 110.740257 -1351.961060
486.595917 728.788818 -733.308105
621.645447 78.902657 -1347.801147
585.534241 481.675049 -936.002563
547.812195 152.891617 -925.290405
739.289734 366.812439 -912.650391
544.044617 265.936920 -1261.184326
470.313904 230.030014 -1422.954590
728.893066 601.390198 -631.044312
443.187500 278.997467 -926.386169
612.345642 308.523529 -893.923157
549.748352 341.778534 -1396.824829
610.437073 609.618469 -853.261963
492.800903 328.742096 -923.826843
889.504578 199.896820 -1321.023560
460.228241 564.492615 -985.644836
665.306824 632.923035 -618.093689
368.024841 309.419128 -954.068726
526.994812 331.439789 -1406.594360
744.582886 256.157288 -1283.566528
506.143005 683.981567 -835.640320
654.653992 498.983124 -946.188293
502.742157 455.366577 -972.369019
288.745087 374.440369 -952.304871
611.644775 653.691711 -651.119446
591.668701 629.731873 -878.915283
334.258698 317.037689 -947.098816
354.623749 459.288330 -955.852356
471.814453 680.971008 -880.219299
683.638123 621.391235 -622.820923
677.272705 295.088287 -901.280762
406.378601 476.854218 -997.998230
606.999695 303.544159 -919.150085
619.778625 52.729141 -1352.758911
331.223328 256.632477 -956.428467
612.385925 141.328400 -1373.736084
601.149414 324.748047 -909.116394
684.912109 559.743164 -811.562744
686.756042 573.216980 -808.957214
591.099915 566.981323 -1435.739868
703.523315 537.027710 -814.260742
789.983948 379.808105 -1362.629150
723.453003 556.902466 -737.637634
669.166626 253.466934 -906.146973
394.043640 289.862030 -945.312317
699.363647 537.281738 -795.511475
855.049927 434.500214 -1374.246216
504.665344 204.822083 -910.310425
736.669739 113.795486 -1323.592285
347.246735 349.217682 -1434.479736
519.301758 575.670532 -1472.343262
731.610779 552.415283 -733.104126
507.920227 265.304840 -1397.490723
488.868195 122.615158 -1384.465698
470.512848 702.836548 -799.562805
588.359924 70.039070 -1361.764648
520.838745 199.786301 -1334.381470
502.407227 125.388115 -1317.152588
631.842529 629.269226 -707.763184
676.847351 589.538391 -745.048096
619.326965 482.497314 -946.056885
492.139099 671.402405 -874.262695
507.990875 390.756134 -1417.439697
597.871521 717.986694 -625.406738
323.689667 382.039215 -964.842834
506.719330 268.715088 -928.281311
475.983887 170.822845 -935.620605
721.671326 524.247131 -794.514709
666.757141 600.726379 -736.618835
426.566589 45.547047 -1354.739868
737.071716 214.533920 -1364.325928
547.015625 406.834656 -934.906921
608.748901 616.089355 -817.103088
597.658630 698.840515 -637.367310
710.894348 533.000000 -798.470398
446.971130 94.648445 -1358.959351
484.782166 703.916443 -790.670410
489.337219 723.463257 -710.692261
610.164856 80.770943 -1361.835327
468.806244 273.534882 -929.873962
718.186829 74.871292 -1333.653809
636.194580 686.820313 -582.282166
361.373505 304.198608 -1441.471069
677.127930 270.647827 -1372.815063
691.872498 318.786255 -849.448486
483.046173 214.919601 -1368.767822
390.182312 264.289093 -926.838684
635.279907 199.637268 -1374.683960
725.179260 532.631836 -744.950134
708.049622 621.131348 -612.972412
746.528015 194.115784 -1337.905884
578.931335 39.232090 -1329.821655
456.617188 341.416504 -932.533997
589.882813 177.922287 -1369.272217
804.203186 148.961792 -1321.796631
462.679291 698.523376 -810.043152
686.026123 602.025757 -634.638794
423.462402 187.280594 -945.944946
618.480469 654.264099 -669.635803
726.139404 128.087906 -1344.786743
636.768127 619.615417 -750.310242
673.802673 603.950928 -693.075745
667.068176 297.295990 -729.752441
467.921021 323.534760 -1417.097900
456.412903 217.846756 -1395.683105
613.311523 524.033020 -969.918945
595.228760 55.506588 -1351.718750
840.825623 146.703506 -1313.642700
597.626282 166.694794 -907.116028
624.745605 643.703003 -657.329529
655.968262 53.138741 -1335.191040
502.950806 715.237915 -702.111633
705.567017 569.356201 -751.422974
545.045715 662.822144 -783.924072
735.008240 96.612663 -1336.259399
750.566956 525.183899 -757.977722
300.527618 385.500885 -979.851990
416.605225 188.198288 -1400.171753
532.507935 711.712646 -707.645752
698.215271 80.387802 -1343.482300
775.934265 484.687225 -1396.211914
333.501343 342.697784 -940.808105
879.621704 203.544495 -1337.676025
435.355560 428.387573 -958.513000
635.232544 577.294983 -849.094788
509.212799 673.970764 -826.581665
281.989014 330.026886 -978.423950
393.720551 151.273010 -1392.156372
776.774048 403.443085 -1395.820190
397.690277 134.428482 -1392.015381
280.173889 340.797607 -1425.923706
497.157867 307.592651 -1378.166870
505.395081 307.878601 -1421.772339
490.410339 674.150513 -865.790466
798.276611 137.554962 -1340.614990
643.233154 613.311462 -763.220947
588.815125 680.882019 -638.456848
613.445801 487.157867 -962.490723
773.401855 396.440552 -1375.339111
420.069153 354.097900 -941.200317
397.056091 113.868446 -1382.078979
381.936707 322.750000 -946.374146
372.193512 328.972443 -930.264404
595.282776 55.862358 -1350.591797
424.960571 257.518127 -1408.938110
838.887329 149.907166 -1307.236816
427.770752 158.694443 -1375.685303
388.653870 469.410645 -980.961792
557.418274 631.211548 -852.255432
596.402954 599.811096 -841.233154
710.614380 568.511292 -739.734863
591.898804 184.853912 -1381.331177
661.375061 163.429794 -1362.567139
512.489746 401.174316 -1332.988403
443.952606 401.776855 -1355.359619
564.150696 116.063362 -1373.963623
394.688629 218.865005 -1407.229248
665.971741 576.565552 -825.057312
965.827087 604.080872 -1402.098877
656.687500 255.732559 -885.171875
463.499634 377.457520 -1339.894165
554.417664 183.952988 -907.403931
470.171265 281.584961 -937.820862
553.926208 704.768311 -654.716064
329.382965 409.528778 -1396.021240
556.680786 691.832947 -712.055786
391.713745 461.749207 -976.769043
695.231873 585.827148 -692.859314
532.472595 429.745789 -930.969727
450.942444 723.716187 -836.368347
662.760376 575.253967 -815.974121
318.657257 346.974426 -1446.425049
608.085693 248.745667 -907.106262
632.877930 413.911957 -924.715332
595.822510 407.086395 -922.937439
639.489258 634.208984 -653.395874
610.196350 632.285889 -746.496704
636.748352 656.109619 -609.211243
611.165649 333.313019 -1341.234253
548.623657 661.419739 -805.551697
514.286316 225.613937 -1262.998779
438.702881 500.882111 -978.367432
634.008057 404.772430 -947.972900
751.821777 278.255432 -1361.310791
400.825867 377.693085 -964.036499
694.397766 535.654785 -816.058044
761.289551 443.345337 -1391.021606
364.401611 461.691620 -981.309143
350.582245 334.870605 -1441.491699
681.007263 478.813843 -941.331421
519.146057 355.409973 -1414.242676
763.176331 205.594757 -1337.957397
751.015747 522.943176 -708.956177
542.916931 242.958755 -1205.819458
482.136108 713.232910 -780.455994
471.013336 255.546265 -1402.962402
602.931519 457.890900 -932.521057
476.438721 184.640900 -929.060059
631.013916 628.798218 -763.909973
564.136108 135.654510 -1365.320679
643.925415 152.425217 -1377.488892
545.328125 242.574066 -914.091431
270.569214 371.772125 -1431.187622
412.382446 307.757813 -1407.260132
551.644104 218.081558 -919.342468
462.258789 268.176819 -920.036072
591.373474 329.825226 -1358.343018
431.951355 498.767883 -972.119080
439.312988 284.722137 -1415.273560
509.427673 216.874222 -1384.789429
646.594543 61.827789 -1339.782715
471.560577 223.939377 -1395.306885
549.297668 656.115051 -838.742798
757.032654 191.937317 -1342.224976
586.519592 680.738770 -660.447815
538.757813 379.685791 -1389.830566
739.112549 416.355072 -1417.742676
652.863464 141.766312 -1370.831299
357.490021 335.400299 -948.249878
368.132629 291.701080 -1425.155884
712.848511 570.263550 -728.886536
447.139984 257.368347 -939.217957
777.603210 406.774414 -1412.767578
372.105255 464.013275 -1452.566040
602.867920 491.548615 -1351.508545
701.200439 323.839111 -1352.407715
935.778625 537.741089 -1392.057007
725.855042 257.932770 -1365.056519
530.297485 585.509155 -987.287781
782.599915 219.369354 -1316.193481
643.873962 619.799133 -726.905090
785.316467 392.040222 -1392.937256
383.147369 145.472153 -1391.714600
565.662659 256.300018 -907.031311
547.729919 372.049561 -1355.364624
560.296021 344.768616 -942.333923
604.662659 168.306213 -910.081482
493.249023 686.402222 -791.381653
493.355530 653.272766 -879.625061
515.664673 247.604935 -912.648254
467.670868 292.015167 -923.526184
457.157196 739.019775 -750.695984
347.631836 398.725250 -978.030518
729.636841 130.264816 -1357.365967
536.584412 718.820679 -636.534851
536.647583 635.791504 -867.455078
426.117096 362.953186 -965.985413
474.499268 374.589813 -927.259583
529.922974 574.111816 -1471.360718
579.786438 215.902023 -1378.990112
373.954376 363.869263 -1408.130249
672.043884 322.974792 -1298.363159
500.568878 693.245850 -813.502991
525.222046 151.109070 -1366.896240
474.597504 740.199402 -740.178589
836.105774 413.582794 -1369.076050
664.723511 210.510880 -1384.468506
733.971802 531.195740 -759.085388
453.548798 157.827377 -1395.840576
676.465149 598.581421 -683.435364
451.464874 352.474731 -933.606934
416.704468 158.334122 -1393.316895
467.153717 239.620697 -1425.926514
516.433105 675.342957 -793.268860
680.983398 592.244873 -686.552551
412.117889 204.725235 -935.195801
624.555603 648.854431 -696.251587
589.715454 668.406250 -663.426270
682.265991 105.378746 -1353.614868
511.668915 699.119385 -764.521118
776.453613 229.541794 -1327.621460
469.011444 62.592876 -1379.348267
417.650482 221.446167 -943.838135
462.834747 207.285934 -942.549622
373.196777 301.742523 -1420.298584
698.268799 96.193901 -1349.341064
406.764709 115.475113 -1384.870850
598.465210 630.014954 -819.415222
513.495789 608.516663 -995.050110
873.130798 159.942917 -1337.757690
486.130981 486.090393 -967.110352
513.426025 59.500961 -1342.839600
601.609131 304.714661 -1376.941650
515.433838 36.349056 -1352.785034
726.594910 636.696350 -610.963867
748.570801 525.633911 -755.828796
584.910645 634.673645 -826.271301
595.555542 191.067993 -1375.857056
765.052612 112.107155 -1346.500122
511.728546 178.956696 -1349.147583
493.056091 689.878235 -816.935364
584.321045 86.632187 -1357.471436
352.353271 203.161057 -1394.963745
696.059937 236.092560 -1355.130127
400.408478 228.574860 -1418.439209
593.112732 86.617073 -1357.594238
523.836548 172.124008 -1357.158569
762.743713 158.985657 -1343.917969
335.338165 475.014160 -958.091431
523.194031 304.669830 -903.716003
658.176514 181.622055 -1374.670166
467.114563 318.371948 -1414.696655
680.790955 457.652313 -927.556824
679.604492 394.822449 -1380.362915
889.618530 612.362427 -1388.789185
465.417755 43.699467 -1375.761230
375.232117 311.209778 -1413.458130
578.886414 252.506012 -1378.119507
432.959198 264.445526 -935.354980
343.283783 258.624146 -965.729309
710.555115 135.080322 -1331.762085
640.681091 313.906738 -1387.147583
523.641602 101.126030 -1349.713501
503.664459 90.138809 -1352.878418
347.972870 214.453949 -1408.439819
740.434937 272.709778 -1305.460693
467.661316 282.609650 -919.293701
509.699249 300.793091 -1407.229858
380.748322 357.460205 -1416.625000
620.781311 479.657562 -1342.506104
651.917786 658.170044 -641.138916
884.211548 163.134827 -1327.866333
510.555389 101.499596 -1354.899292
761.247803 265.131042 -1319.255737
512.736267 694.367310 -782.000122
324.967377 340.394623 -977.763062
330.371613 285.812561 -949.879639
660.156555 258.935059 -803.058899
689.309937 246.310745 -1363.676270
449.562622 552.612183 -968.848511
511.716461 709.084778 -720.640686
437.273560 410.707703 -1402.062622
424.729797 510.041992 -1458.230103
588.439636 420.754974 -1275.188110
548.962341 446.320038 -953.540466
670.446655 610.646545 -666.441101
509.014801 242.516434 -1195.548584
799.333313 577.950745 -1338.482422
739.644226 549.613037 -720.931946
602.423096 396.454346 -925.066467
675.827942 629.470642 -619.974060
903.917664 522.651794 -1379.544189
539.483093 681.790100 -772.684631
460.947784 364.790649 -1401.338989
357.478058 288.193817 -955.162781
362.426819 303.904999 -938.613525
532.141907 503.324890 -968.633423
772.869019 225.091141 -1317.571289
673.844788 596.332275 -702.591858
358.638031 495.132721 -1453.215088
487.391724 265.440948 -1401.598511
690.488220 167.688187 -1341.916138
551.447632 164.817963 -947.288940
448.439728 552.443542 -1005.965088
328.548279 343.969208 -1416.417969
668.544922 593.816223 -726.954102
664.762512 601.065063 -714.468811
568.252441 133.310699 -1352.436523
429.749603 416.122467 -951.812073
538.316345 365.673218 -1389.093262
641.141724 270.995605 -890.469482
414.098083 228.292755 -928.616882
393.527405 346.979858 -1416.213745
509.882660 723.957886 -696.104187
577.082703 187.645187 -907.874878
634.092163 603.452026 -746.221008
491.241119 600.252136 -989.311401
640.050293 649.414429 -652.121216
536.664917 325.741974 -940.821899
795.770142 226.257935 -1329.658691
683.223022 70.741455 -1345.051758
613.190186 702.407227 -611.356750
448.824677 359.774933 -961.835144
479.772278 708.304993 -802.592896
389.796051 77.561470 -1366.565430
576.016113 72.415466 -1352.640503
519.515503 223.559753 -906.397278
952.068604 604.952820 -1403.904297
417.220184 236.557693 -926.287170
750.976074 88.101379 -1341.561279
913.692688 496.945770 -1390.305176
636.176880 158.790131 -1365.513306
558.172668 85.390854 -1355.878296
630.822266 183.277664 -1383.386963
596.881897 188.101288 -1386.149170
564.574829 696.142334 -639.815125
480.893768 470.268829 -1428.935059
517.171814 713.101318 -713.214539
521.118103 674.741577 -805.090820
492.174347 739.285156 -706.478149
501.306244 191.102112 -1377.003784
430.806763 403.681610 -1398.563721
679.115845 268.185730 -1360.544678
433.946075 255.487915 -942.508057
435.933319 344.282104 -934.421753
558.765198 644.053955 -883.539734
327.833221 352.294830 -979.758911
682.493469 331.794434 -911.674255
445.049713 253.528839 -1431.411011
323.413055 358.711914 -963.366150
640.959656 220.175537 -1375.667847
386.088776 277.126373 -1418.620850
614.004272 542.214172 -971.943787
472.808197 276.636597 -921.305786
607.418213 668.751526 -651.835266
467.936310 272.658966 -907.362671
329.647369 367.249237 -1414.512817
450.127502 218.126358 -1404.000122
724.047729 512.113892 -832.838562
638.776794 645.667725 -628.376709
700.710266 586.054138 -676.989685
752.499084 147.536774 -1329.219727
510.406586 320.052826 -926.120544
755.172119 431.355988 -1391.424561
540.092712 45.419113 -1351.790527
544.899109 407.165802 -950.172058
543.759216 725.997925 -657.925598
595.170654 238.613266 -901.597656
409.565216 333.928467 -1410.394531
550.357422 171.867859 -1376.263428
574.808594 347.985077 -1405.387207
407.580231 176.261887 -1394.287109
586.226685 552.326111 -967.069336
664.194763 608.693054 -695.162048
612.598572 185.571045 -1359.463867
694.400085 302.768677 -872.905334
590.289551 156.216446 -941.208435
655.634827 524.762207 -940.947754
313.502594 393.693573 -1448.205322
634.296936 260.017334 -911.805908
613.343994 158.960846 -1368.522339
721.485901 538.082703 -792.900085
743.280334 434.383698 -1370.819458
512.225952 42.988300 -1366.530518
661.667969 572.245117 -840.556946
515.820618 399.944824 -1416.177002
568.908569 706.195618 -624.811951
530.798279 352.294098 -943.652100
375.579987 391.814941 -1412.804810
446.188782 393.682861 -971.348877
870.618652 221.870850 -1331.117065
759.577820 523.850281 -769.657043
507.618561 332.710602 -923.499756
643.461487 617.723938 -682.454895
544.782532 695.451477 -679.554626
516.652710 222.697235 -898.968567
327.391052 303.435638 -1431.679321
801.969727 370.211639 -1402.491699
416.934814 546.656921 -992.436951
529.773804 296.673523 -916.351746
454.473053 194.265610 -1395.241089
610.265686 225.798920 -1379.366455
596.630066 270.275024 -896.572083
533.913147 538.451172 -1471.367676
478.071960 523.263733 -973.038269
679.897278 153.373642 -1370.072754
615.864746 240.877777 -891.059021
795.702087 175.420563 -1313.021484
670.217285 560.734253 -807.771240
576.886536 160.972992 -925.038757
781.614990 125.429420 -1316.555664
627.356934 65.591087 -1328.253296
594.144043 304.200104 -902.433411
470.700714 339.664612 -1423.002197
394.720184 188.732071 -1404.347900
517.207336 656.528748 -856.771912
798.139954 497.509003 -1369.834717
533.208801 371.263062 -1397.843140
698.266113 288.098572 -890.268616
560.454224 689.317505 -659.375793
500.343903 260.863586 -1406.854492
652.352051 602.231018 -793.537781
663.106079 623.418152 -666.098694
448.060822 276.189270 -1415.712036
415.733917 314.594116 -938.617737
488.137421 472.043793 -1427.693970
897.122253 651.236511 -1422.721436
477.420471 42.343479 -1376.320190
334.237457 291.802246 -944.645020
493.888306 591.257813 -1002.560669
484.766052 285.409088 -919.180359
476.492035 712.756531 -761.957153
659.979065 348.882996 -1368.583130
481.053711 289.745209 -1414.983643
665.642761 532.998047 -939.747253
619.976440 317.922607 -920.600037
552.563293 677.493652 -729.485535
463.924805 313.926331 -929.638000
442.706726 161.591599 -1371.108154
288.819763 310.318054 -989.960693
711.307190 114.135071 -1352.950317
628.378235 317.963379 -1340.493530
714.945740 372.538879 -918.174500
260.025665 497.826294 -852.662964
493.248474 320.934448 -1388.742676
468.342804 136.842377 -1392.195313
439.326324 311.641724 -1434.079102
550.076050 230.287399 -892.960022
560.123901 58.475533 -1350.451416
844.925293 415.565338 -1368.250366
479.051300 511.770844 -976.818787
366.048553 209.588837 -1410.486450
818.521118 197.817169 -1324.055298
507.713654 473.384521 -963.087036
543.394836 303.699066 -919.017517
683.259338 501.575592 -937.697205
472.083405 193.031631 -1387.808228
781.912781 327.936096 -1383.664185
661.914063 630.395447 -629.117249
391.940063 413.353088 -1421.703125
672.142822 426.709503 -939.911743
638.361694 430.919006 -929.263916
802.380493 333.853271 -1345.267700
452.252838 293.151001 -923.614441
615.702881 72.833839 -1347.756348
702.863831 428.168457 -915.527832
655.580505 598.989319 -779.131714
358.240753 282.846832 -1440.945313
424.687927 278.835358 -948.242676
677.664551 172.747986 -1374.726074
513.043762 715.804688 -697.534180
371.841705 165.969330 -1395.923218
584.568909 492.152832 -953.000183
634.193237 676.739868 -620.008850
512.968811 667.888977 -863.214661
562.941772 207.475739 -904.923157
421.556519 205.603149 -1385.076904
381.441772 348.807922 -1430.921387
526.963684 507.829010 -1432.764160
553.536255 324.968018 -927.900208
570.671326 700.345459 -635.891296
842.654968 539.398010 -1353.470459
488.336273 219.974625 -928.680420
552.384827 72.804153 -1363.335693
370.694153 464.664612 -995.362549
393.607513 422.179291 -1423.608887
409.686707 466.137268 -995.620972
432.125824 421.080322 -954.778748
865.963135 524.826477 -1383.135620
500.152954 530.841248 -975.346008
662.763916 461.285217 -949.022583
650.575684 667.188293 -609.725037
804.194031 464.281738 -1390.768433
499.963196 579.515198 -1465.018188
373.839203 285.177856 -961.105286
464.156158 330.952026 -921.255981
338.478210 346.331055 -957.057190
800.993774 484.015869 -1316.109375
620.757690 306.873962 -917.577393
390.653137 412.234741 -956.931519
538.071777 456.463776 -1410.566040
461.095734 341.458191 -937.063904
430.858002 331.187347 -1422.575928
453.227722 418.070374 -937.555054
476.072510 362.696991 -933.564636
552.251343 718.955933 -652.536499
777.568359 100.502052 -1341.960571
514.271118 35.990604 -1350.253296
385.700958 255.827484 -944.939209
697.732727 233.194244 -717.155396
789.993774 176.772339 -1331.859131
590.912292 508.596710 -959.806580
313.888611 365.214355 -1422.156860
487.423279 169.906174 -922.157837
521.957031 660.119995 -883.834229
478.021912 113.554306 -1371.782593
617.691223 216.091660 -902.562744
919.619263 559.162964 -1402.801392
533.661987 370.910492 -915.969971
431.261230 76.785149 -1368.636108
503.716705 223.178253 -1350.726196
351.922180 398.547058 -976.807312
483.424713 503.408356 -954.760681
634.921021 661.623291 -618.757019
560.501465 673.828491 -758.403748
830.161682 245.445831 -1339.851563
576.615356 571.934143 -979.986267
766.796387 204.065125 -1340.208130
374.689270 324.212494 -948.607422
634.701965 107.809258 -1352.483887
591.749084 337.354706 -1254.885742
428.421875 366.964142 -942.698730
497.283325 160.717072 -919.289917
311.123474 305.882996 -954.125916
514.035706 242.352966 -1393.356812
488.491089 212.663437 -906.695740
515.439758 416.053009 -949.851196
480.419525 566.890869 -967.100464
734.174988 537.255005 -736.526062
523.752441 604.231262 -984.001343
672.445251 632.628357 -599.408386
663.661011 264.542267 -1363.739990
585.459961 319.167572 -922.436951
686.884766 572.370789 -779.532593
610.641907 269.575012 -909.191345
424.422546 196.214386 -955.504517
658.556335 340.771698 -907.354370
324.498871 325.835358 -952.653564
858.414490 652.164795 -1430.410767
653.890015 673.798279 -589.611755
350.621552 250.007004 -1401.805298
623.250671 611.513672 -762.208435
541.522278 319.617096 -904.229431
533.742188 311.283875 -1322.737061
620.346436 178.900711 -1372.072266
405.621338 59.926693 -1367.238892
455.192535 502.026917 -976.770203
509.965118 266.604889 -909.170654
423.304901 219.703293 -957.864929
494.478088 725.032959 -700.418457
507.878510 766.747559 -681.341919
775.632019 479.904297 -791.553284
713.362244 523.923584 -829.141174
466.768127 572.948792 -994.604492
635.164795 262.367889 -1377.033203
649.552429 600.445923 -758.493774
632.231445 248.623123 -1382.474365
353.033752 306.864166 -936.601563
380.442780 340.856628 -960.960754
339.151886 374.658752 -943.347778
444.213043 315.499664 -1415.636963
773.129578 170.014175 -1342.782227
305.851654 364.647888 -1432.224243
510.737396 708.791138 -756.249084
705.804749 293.878693 -703.727173
570.322021 56.334961 -1353.000244
406.507507 251.987228 -1422.964233
911.413208 508.144775 -1376.207031
477.799896 231.809692 -913.987976
567.937683 661.918701 -743.951782
522.246155 484.962280 -958.717346
382.790466 275.854980 -939.709778
646.716370 621.329651 -683.503662
763.115051 423.569397 -1366.897827
341.173615 313.581238 -944.795654
465.636627 588.901978 -987.757263
675.496338 319.557770 -1306.886719
431.878876 308.110687 -943.539856
761.857178 429.272552 -1407.448242
406.615112 397.542816 -955.822021
511.989624 212.916809 -908.003601
507.961884 250.134872 -1355.042480
392.263977 239.342621 -1423.634399
646.882996 454.850525 -957.918701
676.208374 612.832764 -623.856201
597.676392 368.893280 -943.202637
648.343567 326.470398 -909.494995
298.246521 272.431763 -977.230286
452.080475 60.783958 -1362.249512
644.215881 142.188019 -1369.769897
713.078979 308.732513 -1299.456909
378.604858 257.662262 -951.962830
750.754578 271.054779 -1293.256348
419.440308 278.455963 -922.511292
310.081665 344.221466 -962.631348
542.846252 249.203949 -923.302124
441.149200 707.370911 -822.569885
483.372498 672.588196 -875.687073
588.358459 557.425354 -1440.562988
561.427917 172.738525 -941.761353
559.788147 697.875610 -681.562561
537.116638 698.628662 -726.601013
592.316650 311.079681 -923.599426
482.435669 677.411804 -840.079285
543.994446 691.792114 -678.426758
485.773468 755.225403 -671.277161
629.753967 630.053467 -734.228394
694.290771 247.821014 -1375.400635
661.809082 584.622192 -779.726318
398.885345 209.053741 -941.327515
425.879364 404.424286 -953.193176
640.845703 627.783264 -667.787354
544.942993 428.808838 -1395.631836
325.120575 492.324341 -998.966309
729.532410 445.009430 -1401.434692
611.397278 314.964996 -905.802734
502.854553 303.144928 -1423.418091
429.194275 272.389160 -933.363831
386.691559 294.777557 -937.809021
702.364319 349.210388 -717.031677
608.101196 320.169006 -930.249939
549.544983 464.419556 -947.533325
530.413330 24.347504 -1356.378540
600.308289 234.126755 -896.509583
513.916443 641.740906 -891.488953
479.214264 251.037781 -1389.458130
656.829468 255.168488 -1386.097046
464.770142 347.628265 -933.168579
712.324463 304.543701 -742.531128
583.512878 262.718750 -905.819458
477.254791 717.638916 -751.702148
595.609375 458.295959 -939.055359
635.634888 657.829895 -672.470642
337.755188 376.647614 -956.745911
776.495728 195.429703 -1340.394897
581.986450 679.073547 -662.002869
588.204285 638.979065 -766.655579
681.793396 573.917419 -821.124573
653.923401 630.840759 -662.194153
443.035065 423.953308 -967.646118
374.734314 347.298096 -1420.075562
527.689453 564.571533 -993.196289
625.858521 215.896011 -1377.995850
464.462158 306.142334 -1397.858887
613.542480 272.913971 -902.805359
759.788513 106.535835 -1331.793823
409.128082 440.160095 -1432.861206
462.459045 199.116882 -921.847351
578.163452 653.015991 -771.326172
424.021332 483.670990 -972.549194
636.514526 419.220215 -939.406006
431.119354 304.387970 -949.127319
861.359985 148.753677 -1340.032715
725.506592 110.260986 -1338.181641
710.251526 618.104187 -596.376831
544.986328 724.856628 -661.929138
526.987427 220.192322 -1363.966675
451.180756 327.110779 -1405.224365
424.348877 356.007965 -944.638245
569.046326 680.490356 -724.330872
556.846069 184.072647 -910.759399
742.090637 541.554138 -736.543579
299.480103 430.261383 -975.572205
667.271729 430.203583 -929.656250
327.871552 445.859528 -979.770752
542.317871 59.053101 -1366.477051
650.579163 84.563942 -1353.447144
642.668640 663.856445 -617.385010
687.576721 581.675659 -728.147034
851.414368 466.891632 -1376.742310
426.321808 123.316307 -1381.173462
441.964020 260.293915 -921.465820
591.678040 713.824280 -597.514709
696.919189 572.614319 -739.684753
738.828918 537.193359 -775.312927
451.441162 217.208176 -1416.212280
933.753235 616.248962 -1424.738892
440.933533 68.028137 -1367.208374
701.205322 197.134232 -1374.234863
563.945068 180.861755 -927.304810
646.387085 97.837997 -1335.331909
652.944214 599.906860 -831.251282
474.125366 217.948593 -909.140259
540.662964 704.950317 -699.810425
597.153992 667.447510 -662.020020
608.687927 227.588364 -909.417908
527.475586 102.925919 -1367.570679
697.645630 583.326355 -679.643066
530.302490 692.808167 -763.371765
544.619385 280.236206 -1326.600464
509.976776 721.058960 -668.130310
