ply
format ascii 1.0
element vertex 1352
property float x
property float y
property float z
end_header
1423.912109 -594.629456 -155.928818
1003.873108 -289.967682 -270.163391
1066.577515 147.038330 -339.614655
1445.981689 -591.429688 -38.724194
1166.209839 36.400993 -259.192657
1049.612305 213.690521 -245.832184
955.713135 -344.079010 -229.236328
1044.931763 -363.924103 -87.357414
1217.111694 -770.287842 -221.983292
1283.545898 -541.428040 -490.785828
1093.082153 107.673111 -340.376801
1081.037476 197.126190 -154.693344
1535.811157 -433.863800 -258.294403
1081.467896 187.029770 -224.504196
1138.240723 78.249245 -229.340302
1070.200439 134.995361 -318.000824
1430.419678 -527.878906 -213.604599
1300.936035 -534.897095 -314.856415
1144.595825 -202.492004 -101.684372
1505.555542 -428.808380 -299.524872
1065.848389 230.153214 -225.603790
965.639709 -324.259735 -314.962128
1061.266968 193.231110 -264.731079
1004.621277 -292.347046 -250.125092
1345.523315 -585.647766 -480.371674
1452.541626 -484.100800 -127.446129
1070.374023 95.675346 -408.763580
1082.670044 120.963455 -309.975983
1117.761353 79.497314 -364.188019
952.131409 -349.786133 -261.480774
1425.833862 -410.559692 -287.899323
1108.858032 -237.075119 -120.795753
1329.453979 -622.258423 -403.355896
956.731262 -369.234497 -300.382019
1139.635742 79.061386 -241.629089
1055.519775 -329.082550 -75.644791
1222.613892 -747.189636 -251.983368
1082.484131 -261.857117 -108.560135
1567.818481 -423.301971 -290.705444
1321.457520 -577.119751 -487.692139
1287.337158 -414.010590 -469.093384
1376.922485 -633.754211 -132.450378
1092.786621 89.810234 -356.823608
1334.810791 -644.555603 -336.551178
977.440247 -273.243927 -412.848785
1098.331055 -271.722626 -47.954189
1526.481323 -489.761566 -120.615723
1005.081970 -265.679871 -408.890411
1360.987427 -650.085205 -201.903061
1436.547485 -556.014404 -180.280746
1120.406250 141.364044 -128.221527
1461.329834 -550.758301 -136.482178
1057.582642 221.961166 -320.996185
1076.691040 -262.394562 -83.758820
1100.651611 140.328262 -228.502686
1080.701294 112.176285 -377.946625
960.891541 -377.802826 -243.575180
1346.864380 -643.022522 -212.609955
1045.730469 180.124496 -342.798218
1162.766113 -152.198837 -352.868866
1018.148743 -266.152069 -254.047684
1404.424561 -623.231384 -58.831940
1201.543701 -142.091751 -250.235062
1577.040161 -430.110870 -299.055328
1324.864258 -592.323792 -477.001282
967.941223 -348.333557 -164.847092
1081.179077 202.139328 -183.826019
1047.963135 -239.955734 -244.653473
953.812561 -346.711761 -344.837555
1002.721619 -291.283752 -298.475128
1104.927856 144.461502 -143.089981
1046.749756 -263.388977 -210.832947
1098.364502 181.478622 -155.586227
1325.648315 -555.656250 -591.299011
1085.367432 132.137039 -336.119873
1214.693726 -458.900482 -310.279877
1167.631226 43.992340 -145.654221
1270.210083 -676.952820 -494.692200
981.247009 -282.192383 -315.838989
1225.737061 -119.829597 -260.791351
1222.385742 -597.953735 -281.985779
1225.148193 -729.858215 -269.005524
1617.498779 -371.460571 -217.737350
1423.587402 -579.405762 -50.195637
1173.377808 40.700626 -226.140671
942.116516 -342.454651 -327.129822
1102.197998 -210.024231 -173.586182
1061.629028 200.353424 -226.056137
1025.562012 182.571976 -397.471008
1597.928711 -426.895233 -237.212204
1031.575439 -302.533051 -105.172241
1428.315308 -509.979340 -94.769196
1195.603149 44.082748 -139.041504
1390.616455 -626.729980 -215.085129
1051.326904 114.840599 -432.498566
1283.870605 -717.170044 -170.979172
1396.348267 -501.218109 -276.196991
1338.479004 -579.946228 -321.916168
1104.640015 128.985550 -185.338333
1108.709106 58.099953 -405.239166
1347.988403 -584.143494 -449.299652
1023.465393 -326.012573 -151.598511
1390.828125 -618.930481 -146.354187
1200.211670 -6.680376 -203.138885
1013.029846 -398.845764 -148.193985
1456.793823 -537.486755 -115.163696
1244.790771 -632.365662 -237.153183
1272.733398 -656.599060 -524.757080
1060.310059 207.994827 -204.865067
1236.903687 -136.103088 -158.590866
1074.246460 163.744492 -290.225983
1368.437866 -648.804504 -81.908363
1234.955078 -681.587036 -259.257050
1053.354858 -238.745071 -348.678162
1025.141968 -299.281555 -212.131516
1409.749878 -619.367554 -55.168583
1068.751465 -248.621231 -175.314774
1524.921631 -517.650879 -17.662445
1376.919678 -622.154907 -198.496475
1117.186523 -206.726791 -146.759232
1119.674438 -233.158447 -129.237106
1000.799072 -318.099701 -158.431686
1114.420532 -245.563538 -160.878738
1192.896484 -166.737915 -182.899323
1456.398682 -543.293579 -248.115051
1123.456055 -205.511642 -172.165009
1100.467407 110.040207 -326.542236
1433.458984 -615.005432 -57.249966
993.274658 -300.454437 -402.159973
1085.628662 174.974472 -187.348099
1201.479736 10.512833 -155.925766
1155.158569 -181.992264 -62.192501
1058.118286 196.389145 -275.259949
965.152832 -299.609161 -423.018341
1247.461670 -656.826599 -519.057007
1271.249756 -676.158630 -374.790955
1056.335449 133.848404 -445.833221
1277.804443 -675.042664 -333.326447
1091.816040 143.993378 -244.374527
1107.415405 76.884933 -312.969910
1104.674194 -218.113968 -295.008881
1098.730225 185.430084 -155.262772
1204.792358 -737.979248 -339.984955
1125.912109 -159.008957 -434.349152
993.180237 -319.981079 -189.653992
1382.090210 -538.340881 -465.126099
936.401733 -400.277008 -287.498657
1426.191528 -549.373840 -273.748138
1556.905518 -432.956970 -300.494232
1381.868530 -620.505737 -259.852753
1462.856445 -553.785339 -199.397095
1545.261597 -451.761780 -217.882782
1217.717773 -124.080505 -329.336090
1231.453247 -741.853027 -198.702774
1081.609375 175.674561 -233.825119
1417.606812 -608.136719 -55.932911
1177.357544 47.694660 -142.320023
1030.717407 231.326233 -303.194061
988.159424 -318.495056 -246.594864
1283.155762 -638.865662 -402.492767
1111.804565 111.388428 -251.046768
1276.130127 -622.710144 -513.574341
995.938232 -258.120392 -399.162140
1460.107300 -523.041504 -255.331161
1179.023438 22.921637 -193.717621
1529.373535 -491.717194 -224.422241
1197.247314 -761.426575 -220.037903
1583.711304 -403.560059 -320.194153
1051.579590 157.504929 -454.406433
1590.896118 -421.473816 -256.384613
1261.108398 -724.039734 -154.620911
1389.790771 -584.921265 -401.247192
1611.541504 -326.409546 -283.845642
1134.409180 47.471325 -332.728851
1330.864258 -667.218262 -158.763519
1067.887695 180.977005 -236.686584
1316.521362 -617.883972 -259.734131
1188.734863 18.086237 -201.012360
1411.635620 -457.286957 -262.242462
1139.348145 10.608285 -391.714417
1265.808594 -739.226013 -169.942795
1189.402832 -768.918945 -203.328232
1088.620239 154.655624 -203.779587
1131.399414 -202.657394 -177.905502
1543.990845 -487.082733 -50.419231
1264.583618 -578.163757 -537.709106
1059.336914 -252.733795 -163.535385
1101.979492 174.647186 -145.168945
1514.330322 -522.302185 9.859016
1191.403442 0.002021 -196.807358
1030.348877 -300.395447 -217.583908
1255.531982 -644.025879 -494.804443
1085.349121 55.341644 -457.533051
1438.124146 -527.642944 -312.265320
1135.959717 -204.436752 -131.712524
1504.387695 -466.027954 -285.832489
1756.000000 -292.688660 -293.742096
1056.631348 -298.307526 -80.846649
1107.940918 73.148003 -380.665436
1168.379272 -151.437195 -343.086670
1020.334473 -234.602249 -406.073975
1275.516602 -654.817749 -216.740143
1090.582275 -258.459351 -84.162857
1139.746826 -203.116043 -174.394226
974.002075 -317.212921 -269.081268
1437.132568 -567.231445 -138.241898
1006.006348 -272.624451 -382.614807
1329.282593 -645.954956 -395.112457
1164.881714 -154.411575 -281.106232
1061.010254 -334.375549 -57.174988
1312.651245 -580.550903 -483.926453
1266.778076 -627.957214 -308.884064
1343.678467 -669.048157 -171.608765
1282.478516 -623.805298 -321.962219
1060.148438 165.440399 -326.074432
1142.668213 -174.912506 -294.978699
1212.292114 -742.139038 -226.819214
1484.194214 -564.187622 -2.674664
1030.722412 242.335236 -288.823334
972.733948 -354.590302 -185.241226
1187.768433 -738.604980 -294.724609
1419.105103 -598.630310 -117.568146
1115.309082 131.702103 -181.271301
1101.064819 96.705490 -325.681183
1215.383911 -751.299133 -231.340988
1161.346924 -168.117493 -393.495697
1221.189575 -745.126221 -200.023605
1119.090698 29.040295 -416.491028
1090.083130 83.605881 -398.510986
1141.504761 76.070786 -260.213287
1243.813599 -681.500610 -432.233582
1033.967651 -316.638397 -105.596321
1541.271484 -452.591370 -297.966064
1259.007568 -703.447998 -196.485931
1304.977905 -649.099731 -259.423096
1207.631836 -5.136077 -281.193573
1055.226685 225.148224 -307.553833
1159.606567 28.282333 -322.475677
1254.711792 -572.758118 -592.852173
1334.392456 -625.144653 -331.202393
1575.229248 -444.086670 -213.386246
1161.597046 38.366089 -204.971832
1413.846069 -585.258850 -230.477676
1010.280945 -269.218964 -401.661041
1178.683228 26.712429 -202.705658
1167.489868 20.247894 -220.149384
1122.773315 127.579079 -179.940399
1086.363037 -22.699846 -13.837404
1134.923218 -5.307618 -436.137146
1111.784180 -233.399887 -129.029160
1298.504150 -551.590515 -543.349182
1184.412476 39.097469 -179.454926
1204.818359 -735.139832 -357.600769
1197.022217 -755.544983 -328.194183
1028.631958 -349.543030 -60.982132
1097.191284 209.462006 -130.892212
1269.692871 -686.756531 -386.662262
1435.239746 -500.084930 -302.231445
1151.307861 73.858871 -203.589645
1022.007568 -235.509216 -387.190552
1134.470703 87.790878 -177.952179
1645.785034 -277.406342 -353.727875
959.694824 -397.122162 -254.435974
1160.739014 -163.345428 -333.186188
1068.328735 94.626076 -417.540741
1115.955322 158.764771 -141.484070
1011.430969 201.507919 -407.457947
1424.106445 -581.703003 -178.230881
1080.250000 175.133316 -261.509064
1329.223022 -678.176147 -221.017105
1021.083374 232.772659 -348.142639
1008.868896 -279.694763 -310.880798
1554.443970 -455.241028 -209.008835
1189.408813 -131.595123 -337.279663
1111.135864 115.192131 -242.024384
1575.057007 -435.457153 -255.903580
1466.128906 -542.403320 -253.078659
1164.673462 -180.971451 -176.269913
1100.952881 -244.090057 -115.163490
1376.182007 -627.185364 -183.574997
1247.174316 -638.254456 -578.935730
1048.413574 201.713364 -265.109375
1000.725342 -268.026703 -413.764404
1106.577881 -202.999786 -215.760529
983.494690 -318.972504 -334.797638
1009.436401 -283.985016 -271.557007
1446.694946 -494.212952 -102.595100
1172.495605 50.034889 -188.484253
1162.371460 0.719193 -368.741119
1118.299072 67.651741 -380.445282
1027.346558 -314.036133 -135.287552
1282.944824 -641.330139 -463.625214
1074.619629 -224.399277 -337.900604
1099.258789 -217.805435 -377.378296
1084.870117 154.335861 -296.608551
1094.951416 -229.490250 -107.599274
1054.724731 -359.785156 -77.411499
1124.679199 -165.983383 -465.210114
1259.401855 -88.488441 -283.113342
1049.882202 -297.922974 -79.626678
1440.861694 -582.211792 -158.065536
1280.538818 -662.366455 -386.146973
1389.827759 -611.684937 -203.804199
1724.281372 -306.001953 -275.909698
1351.871216 -555.926880 -459.144135
1219.371216 -18.272640 -150.429062
1259.734131 -608.422180 -561.827454
1113.665771 -176.581970 -457.823029
1408.972290 -626.399170 -75.450951
1238.139038 -683.654358 -453.026337
1239.541626 -714.814514 -321.318512
1190.541260 -128.719299 -355.664032
1263.658081 -700.402039 -412.432037
997.258301 -313.877655 -344.602234
1523.276489 -512.863281 -3.842057
1431.779297 -567.458984 -200.629013
1280.353516 -551.916443 -488.543182
1281.656128 -99.007759 -255.170090
1320.562622 -656.576355 -190.617599
1042.593750 238.931549 -320.170258
1450.293701 -546.157349 -88.297119
1682.079468 -328.655548 -232.781509
1286.789063 -651.190735 -299.251373
1315.834717 -701.502686 -143.231155
978.141052 -290.300690 -388.808014
1435.374023 -578.796875 -174.289047
1372.764771 -572.468201 -448.235443
1115.961670 77.986336 -333.659760
1060.382202 234.224747 -204.600723
1166.879272 44.073811 -208.010284
1262.534668 -610.346436 -517.012939
1052.027710 -70.562271 13.768212
989.115051 -330.250946 -187.254517
1083.535400 -227.870712 -223.574326
1270.501221 -703.698242 -202.461258
1322.974487 -564.845886 -495.648834
1232.288330 -751.278259 -170.356995
1359.271484 -428.072296 -326.732330
1474.447632 -452.390961 -291.313965
1028.218750 -181.857376 22.510042
1364.625488 -653.063660 -76.780327
1444.698242 -498.278107 -527.638184
1460.503540 -505.532471 -124.542885
1384.842896 -620.286255 -177.619339
1452.417114 -564.559082 -141.982971
1246.444458 -102.136909 -247.417542
1167.156860 39.836102 -283.040314
1398.405273 -626.048340 -58.553379
1335.783691 -596.172058 -424.197296
1135.991333 71.866531 -299.945343
1098.625977 137.644028 -248.020203
995.419556 -355.521088 -165.887482
1400.684082 -583.815735 -362.856903
1100.014038 76.190773 -369.944275
1526.118652 -518.016235 -67.149658
1086.641724 163.033859 -194.796982
994.063049 -302.050598 -283.704163
1028.448853 199.474487 -348.802521
1382.660278 -613.653137 -117.518135
1370.113037 -652.726196 -96.833092
1304.591675 -700.581299 -208.604340
1036.717896 204.373978 -315.732056
1388.135864 -494.657715 -366.347290
1224.206177 -752.438110 -206.095322
1151.636841 -186.632660 -237.364944
1450.711060 -509.981323 -116.802254
1465.495850 -548.917297 -160.616180
1162.310181 -168.561874 -287.520966
951.895691 -332.895264 -277.376129
1453.828003 -511.754547 -97.058304
999.605469 -349.748413 -120.949478
1257.670410 -680.213745 -416.299530
1470.451782 -481.259460 -216.458939
1582.514771 -360.931824 -320.099731
1085.563721 153.760559 -212.267517
1212.035278 -705.459167 -439.642090
1191.927979 -764.463013 -303.115601
1208.887451 -734.597351 -345.935822
999.750732 -293.656128 -301.455841
1305.941772 -689.175720 -150.821915
1014.169434 -264.433533 -347.150909
1501.838257 -489.545593 -149.341064
1325.790039 -566.645386 -491.763977
1173.728882 -147.064713 -324.895721
1241.955078 -503.092865 -280.181427
1024.333862 -313.899170 -107.800659
876.930786 -111.646919 -470.864258
973.355896 -342.211395 -206.604111
1213.727539 -720.990112 -356.600037
1147.434570 -227.509445 -74.043213
987.130310 -349.626007 -161.071213
1262.085205 -663.686279 -361.033234
1384.049927 -543.379150 -422.348236
964.107117 -339.781433 -232.336700
1465.321655 -552.917542 -85.238617
1101.482788 99.693962 -354.135010
992.475037 -305.112823 -241.628494
993.107788 -365.124298 -113.246994
1331.937378 -550.603210 -604.349182
1189.682739 -17.624140 -342.131165
1305.763306 -689.762329 -141.145432
1125.616089 -174.426895 -412.761505
988.242310 -311.020294 -272.189117
1116.770630 -174.747772 -315.196594
1158.229736 70.926659 -184.585632
1237.476563 -706.533875 -243.750122
986.589111 -354.338531 -202.082504
1431.927124 -591.974121 -102.063080
1202.177490 5.841720 -254.057922
1213.364014 -517.555298 -256.021790
1110.952515 -229.277100 -159.840881
1081.796997 -248.472687 -125.684494
1278.233398 -662.694275 -395.164703
982.838684 -331.037781 -237.044403
1266.611328 -669.650513 -416.972656
1211.723877 -20.159185 -310.505005
1054.441406 168.440399 -321.991089
1136.511719 86.042747 -230.592575
1238.537354 -705.036377 -334.537231
1446.788696 -595.651733 -40.535503
993.195618 -339.965515 -172.090042
1032.976685 -347.533112 -79.096245
1449.038696 -569.220459 -143.188019
1008.387695 -393.071381 -123.287430
1314.422607 -527.525940 -326.649414
948.264648 -382.133636 -279.958588
1120.176392 96.478951 -256.938812
1429.075195 -560.678040 -198.527496
1010.230347 -285.089539 -372.868347
1382.160034 -617.947754 -194.529602
1418.554077 -509.489319 -125.237396
1364.136963 -663.356079 -127.275047
1251.219971 -649.215332 -534.424011
1066.653198 -218.385422 -394.875366
1283.682129 -610.581970 -515.490479
1539.891113 -497.511444 -71.470772
1073.288208 176.265015 -247.754700
1195.974487 16.152344 -165.576340
1064.220703 212.926849 -257.642059
1159.134399 -199.704300 -133.752762
1072.335693 189.399155 -207.456818
1288.993286 -673.415955 -237.205170
1144.601563 -194.789429 -93.526268
998.169067 -364.040985 -112.409546
1452.417725 -501.990997 -525.355103
1055.694458 -258.335327 -238.677841
1069.415405 176.348877 -279.551147
1100.816284 150.831818 -273.572845
1349.710571 -628.327515 -248.963852
1117.645264 75.627533 -329.493622
1218.513794 -715.237488 -397.431976
1061.924683 228.940918 -172.878616
1305.715576 -626.671631 -460.360535
1121.873901 99.048157 -313.201233
1040.511597 -366.597778 -92.423637
1235.423218 -721.328430 -293.930237
1158.575562 77.451233 -153.022507
1166.233276 54.224995 -208.221436
1602.438354 -412.092407 -245.287582
1037.074585 -228.845749 -376.598328
1412.554932 -610.709229 -181.788055
1082.335938 144.183990 -247.558212
1025.198975 -351.234009 -70.965202
1518.370117 -491.586395 -75.486214
1280.971558 -569.457092 -507.833466
1365.988770 -591.907104 -401.369415
1064.815674 -233.285690 -308.997253
1028.366333 231.655029 -321.414490
1139.430054 11.334440 -354.848785
1278.695190 -669.266052 -347.183624
1111.079468 138.464279 -204.979752
1148.885376 41.707458 -295.494415
1451.077759 -556.123535 -134.779587
1170.539673 59.792702 -146.615112
1597.699341 -323.112366 -315.096130
1098.990845 -218.285248 -215.218246
1217.210938 -682.500977 -248.761963
1424.355835 -571.292908 -209.695709
1119.595703 80.192299 -312.299408
1102.416016 154.092026 -171.778000
1359.312744 -546.904053 -449.030212
1168.688354 2.193290 -330.764069
1338.276123 -582.271423 -472.870941
1135.371338 -204.229843 -136.005402
1276.821655 -641.905029 -524.073059
1079.057861 131.184952 -323.800873
1182.242310 -4.441467 -351.074341
1161.343506 -192.141434 -272.219391
1131.433838 87.834534 -253.083801
1338.619751 -615.272339 -355.638428
1298.821533 -695.614868 -139.987137
1104.333252 166.032608 -150.891708
1080.247437 173.529861 -251.148972
1109.259521 -172.746460 -360.656830
1428.513794 -594.977966 -177.648209
1260.180420 -655.199585 -256.892487
1309.993896 -588.437256 -505.471344
1333.768433 -645.575806 -148.613434
1087.445068 155.697586 -245.983444
1231.885864 -715.619995 -339.922394
1343.888184 -460.717560 -288.520935
1386.371216 -606.616150 -281.780579
1469.231201 -524.844238 -276.183289
1333.132324 -571.444824 -606.224915
1199.575317 -120.989403 -269.420135
1096.732544 172.262039 -177.851257
1300.365601 -640.218567 -442.216583
1110.583496 98.739807 -322.444305
1418.936890 -495.453522 -61.915779
1167.176514 -152.830536 -201.670654
1264.289307 -684.978210 -324.445129
1132.276611 -162.057419 -411.531616
1146.437134 40.003220 -253.837219
1195.191040 -749.633667 -284.119659
1195.487915 -701.169006 -444.953247
989.018494 -368.234406 -116.531525
1040.752808 212.154617 -267.466431
1195.958008 -143.470169 -355.180206
846.103821 -189.549530 -463.060272
1086.526245 130.840912 -306.426483
1344.627197 -559.998291 -541.350891
1154.940918 -182.370087 -246.796097
1145.438110 19.786646 -359.221313
1299.042114 -697.243347 -132.018524
1166.493408 -142.107986 -463.349640
1264.537598 -638.616455 -304.584503
1081.357300 -224.687042 -398.520660
1045.051758 215.737061 -357.136749
1027.379028 -331.090942 -124.979073
1187.322876 -155.107239 -299.430969
1092.642456 34.561146 -459.845764
1170.970459 -160.078201 -294.405731
1080.360596 95.279350 -392.764221
1300.870117 -596.542480 -535.162537
1166.896118 -151.321030 -340.922607
994.738159 -380.704529 -154.154724
1715.346191 -271.443298 -355.346527
1340.343994 -435.186554 -365.273590
1028.366821 -255.000763 -269.032104
1362.871826 -573.764282 -422.771942
1362.770020 -622.520691 -274.061218
1126.066162 78.881721 -282.989136
991.922668 -306.776306 -261.067444
1470.304688 -541.802368 -256.726685
1438.498291 -573.804138 -129.747208
1214.670654 3.450016 -188.389633
1396.666138 -623.219116 -89.589317
1221.854736 -667.724792 -520.602478
1289.685303 -718.418335 -181.881989
1026.664063 -283.799591 -296.789276
1088.393555 142.361786 -352.840759
998.368591 -323.519409 -155.088470
1126.521118 -182.936172 -298.823761
959.317932 -294.051514 -437.078735
1062.233398 120.340050 -378.910980
1322.144287 -580.756226 -601.813477
1335.087280 -592.093567 -472.724335
1044.282715 -288.066650 -90.052292
1590.806396 -369.974670 -320.112335
1429.941040 -546.139954 -211.397476
1248.309570 -685.552673 -431.223450
1501.476074 -506.657745 -112.084419
1065.416138 132.737488 -355.129456
1268.677612 -604.429016 -531.577087
1589.011475 -410.431580 -293.659454
1050.351807 207.736450 -277.800201
980.673035 -314.359680 -279.371216
1398.337524 -481.884796 -394.262573
1467.510864 -516.393677 -256.000824
1159.335693 63.871304 -182.438309
1148.389038 133.914810 -121.174545
1526.691528 -479.235077 -172.069626
1460.052979 -521.244812 -224.710052
1153.510010 94.904572 -153.780548
1236.139282 -706.918823 -371.444580
1486.343506 -487.990479 -206.732986
1082.654663 187.939636 -181.547714
1408.365356 -470.490479 -256.673645
1146.817261 26.627592 -351.190216
1395.828857 -484.144440 -258.343292
1271.290771 -558.075867 -503.605133
1383.528809 -621.212585 -200.229248
1261.784180 -627.491333 -518.868958
1152.465088 86.402084 -123.864784
1324.581909 -661.097046 -122.071342
1196.770874 22.869673 -112.465309
1301.962891 -607.429016 -469.913300
1114.494263 -167.138519 -439.537231
1184.916748 -136.126831 -297.178162
1010.102234 -357.277252 -88.692940
982.380371 -322.652710 -232.595459
1261.594727 -679.874146 -371.892059
951.158752 -337.840942 -296.914154
1140.113281 -169.289810 -232.928391
1300.100586 -615.696594 -448.253784
1181.874390 -154.004471 -218.613297
1053.348755 229.949142 -197.513519
1082.285645 143.057343 -283.385254
1174.174805 -754.907104 -289.437531
1182.971191 -761.376892 -285.936432
1065.323486 202.121460 -217.328812
1104.070313 -232.624573 -173.950546
1211.584717 -98.929413 -319.979858
1437.312012 -517.469055 -227.997650
1308.673218 -655.097290 -222.018311
943.419373 -336.260681 -376.517029
1419.605469 -595.560120 -168.295792
1158.152954 29.943262 -293.545044
942.204468 -352.007172 -393.500732
1491.960205 -426.699310 -450.612457
1185.633545 -154.523422 -104.236382
1447.707275 -575.509644 -141.339188
1729.910522 -279.040833 -388.771454
1115.483643 109.368935 -216.709076
1278.608154 -620.958740 -497.720642
1259.693848 -654.450562 -420.044556
1314.896484 -694.014648 -174.523209
1241.314209 -572.691223 -536.426331
1184.877197 -753.541382 -229.199707
1073.886719 187.323990 -187.706299
1133.080078 75.277145 -288.531921
1194.694214 -124.802513 -365.867493
1425.881958 -573.192200 -128.822632
1301.174438 -694.366394 -210.507126
1476.359253 -532.992798 -182.898712
1240.245361 -589.794006 -286.355621
1447.768188 -574.591003 -64.190025
991.696838 -326.879089 -176.622040
1145.733643 -11.078262 -368.853363
1260.416626 -728.864319 -190.588715
1082.255859 180.471893 -211.594635
1468.369019 -576.229431 -14.174485
955.757690 -367.716156 -240.321335
1227.066772 -749.902039 -302.320251
935.951172 -377.338074 -348.053101
1252.325073 -689.296936 -221.746185
1210.119507 -113.941917 -248.608887
1327.123413 -677.302856 -110.890358
1027.805298 -283.208374 -329.670715
1254.753662 -698.824219 -424.834656
1447.223267 -472.206940 -196.322708
974.225098 -310.984711 -322.042938
1073.620605 -257.402405 -169.989899
1172.937988 -157.306625 -402.003387
1060.626099 167.082733 -324.323669
1417.420776 -460.389069 -274.539185
1166.257080 -123.452179 -359.779327
1320.166870 -670.349182 -89.824417
1084.097168 -232.566574 -215.067413
1221.361572 -757.631836 -176.241745
1224.943848 -689.059143 -270.574829
1091.997559 140.696548 -238.547470
1085.275635 89.681206 -399.219116
1079.534912 -273.267059 -77.620560
1139.974121 -151.533844 -345.070251
1346.350708 -670.927185 -159.921082
1458.615356 -527.669006 -303.523224
972.637085 -350.605652 -209.664780
1434.393433 -585.795715 -158.547867
1371.803345 -637.310303 -137.832993
1057.894165 185.261719 -320.661377
1006.969727 -367.215302 -134.567566
994.007507 -375.176208 -115.032440
1428.393677 -534.915405 -300.425018
1146.102905 105.892105 -126.073662
1627.685059 -384.851410 -241.631760
1116.212646 -251.979034 -94.490829
1104.470581 98.476204 -322.302124
1249.064575 -580.664124 -562.645630
1205.681030 -140.898361 -299.962372
1092.526611 135.246307 -317.388275
1157.259399 53.783928 -231.369751
1328.604614 -563.973877 -300.746490
1100.863525 42.725651 -461.518524
979.020752 -362.878174 -155.174057
1438.837280 -493.077362 -150.834442
989.161621 -284.510559 -349.000366
1410.584961 -514.412537 -298.633270
1382.254761 -524.574829 -491.382935
1074.125854 -263.873077 -250.315048
1519.511108 -464.297791 -273.630646
1393.119141 -634.938477 -143.275070
1098.149902 -214.593460 -243.078568
1127.816895 89.872925 -196.767380
1023.955261 244.257675 -281.512573
1311.584717 -600.014404 -531.981262
1055.177734 127.518974 -386.760193
1092.219604 -243.158081 -112.216217
1508.824951 -463.846802 -565.733154
1145.865845 73.317810 -250.547058
1271.678101 -685.532593 -328.600311
1131.866821 -201.203430 -157.836533
1146.475586 73.493576 -248.356888
976.147156 -368.612854 -143.485245
962.037354 -344.896179 -209.260544
1210.338745 -105.334778 -359.782501
1349.432739 -638.547607 -166.632538
1468.009888 -557.222107 -77.786293
1545.294067 -475.016998 -262.010468
1336.955933 -679.056091 -156.706696
1053.657349 240.485901 -203.155579
1254.969727 -687.159668 -451.114532
1157.238525 -207.441849 -89.825699
1498.452881 -445.198578 -284.425171
1229.096313 -738.375671 -240.934479
1086.597290 -192.726654 -445.879242
1308.593628 -561.079529 -566.105774
1081.609375 171.892395 -178.241699
930.867188 -353.933899 -381.924469
1314.383301 -640.444397 -369.120941
1156.703857 -153.981461 -473.880920
1420.510254 -566.727722 -207.824173
1070.270996 -296.121521 -61.920452
1538.297607 -493.241791 -83.137009
1260.044800 -598.394897 -245.956757
1306.253906 -617.228699 -405.907532
1193.519165 11.798041 -230.703796
1389.265625 -453.987488 -350.784119
1135.777100 101.141159 -192.018509
1098.700806 -193.649094 -53.748520
1107.753052 -230.827606 -303.690887
1346.997070 -493.805573 -375.195618
1092.768311 208.569092 -149.514694
1255.312134 -671.289063 -376.461975
1075.483643 117.380135 -335.788788
938.713867 -337.848663 -408.815002
1356.949707 -596.848877 -472.782959
1129.265015 -215.433823 -195.397995
1073.298096 -260.684387 -131.109177
1195.480591 -165.915527 -98.482224
1188.979736 13.195290 -188.031250
1082.352051 128.876343 -343.695404
1451.833130 -592.215210 -51.642200
1223.065674 -704.311218 -329.754700
1097.204224 102.368301 -327.270721
1667.497559 -349.821503 -266.640045
951.097229 -307.877045 -366.258667
1202.879150 -7.273484 -266.847900
1506.572021 -467.778534 -339.908234
1057.587158 -272.219238 -111.814598
1073.864380 -333.312866 -43.081520
1057.816406 122.223488 -462.877258
1402.233643 -625.510193 -102.897743
1442.157593 -516.418030 -129.152527
1069.776367 -236.621078 -386.182587
961.375061 -325.448517 -298.922852
947.895264 -395.344696 -249.627777
1291.959351 -696.874573 -191.400803
1214.454102 -144.069580 -224.674438
1001.700806 -369.221344 -137.506195
1427.648804 -481.820923 -189.816055
1333.223877 -629.810608 -357.173004
1075.738647 232.383759 -165.436584
1321.270264 -676.790405 -161.900513
1405.939819 -616.851257 -184.156113
997.023193 -336.512360 -134.196228
1685.049805 -311.921387 -275.614166
1202.249023 -128.449188 -306.834991
1351.277588 -622.092346 -396.423126
1174.209961 36.834835 -174.236786
1092.067871 -203.382996 -278.981323
1060.456177 164.473541 -337.753296
1752.042358 -284.317322 -372.750092
1510.894409 -458.476471 -250.258423
1204.487915 21.995947 -166.913467
1044.619751 137.029312 -411.128845
1048.166992 -306.749542 -98.301727
1113.078857 -182.896072 -302.608826
1316.948364 -616.466553 -461.150482
1190.550659 53.175076 -132.370926
1119.358276 12.351883 -454.229614
1154.034424 96.627121 -145.457794
1243.831665 -670.101379 -291.868347
934.791260 -377.772888 -364.225494
1439.133667 -513.193787 -81.723251
1157.630493 -192.095474 -87.662560
1024.637085 -373.677979 -101.485611
1427.547119 -501.407471 -432.259033
1151.558594 -167.590805 -186.900574
1248.547363 -84.112068 -245.985168
1134.874146 61.581699 -294.812653
1090.186890 135.049423 -237.974609
955.402100 -367.254395 -195.704926
1082.869019 163.209183 -318.231018
1227.115723 -670.396057 -221.637207
1174.711304 -202.887497 -41.437202
1407.808472 -478.245972 -214.427643
1345.806885 -634.335754 -246.152817
1110.477051 146.255722 -174.492813
1253.899414 -719.126587 -294.740814
1030.253052 218.721863 -297.717590
1579.983765 -388.570648 -306.988647
1122.949829 110.529839 -219.535675
1053.289307 178.317261 -340.072205
1310.494141 -660.735291 -197.516830
1399.533447 -618.437927 -176.390549
1368.446045 -646.307678 -153.758987
1241.851440 -682.346985 -261.796356
1144.125244 -140.465683 -377.811249
1081.723755 -223.841660 -187.478439
1253.864136 -707.153503 -200.201340
1171.799194 -157.919998 -240.758163
1152.841675 22.722687 -266.954163
1142.225952 91.059395 -171.872452
1062.003540 -333.739685 -63.162472
1185.228516 -129.040848 -370.333801
1071.282349 71.869469 -469.000702
1419.078247 -596.775452 -36.078667
1432.775513 -512.225525 -559.556396
1024.831665 191.688248 -398.675781
1540.079102 -464.244751 -150.625244
1127.413696 -246.048721 -53.860149
1719.200928 -304.563232 -319.943420
1430.081299 -498.786926 -116.524559
1099.517944 186.978104 -147.197205
1095.716553 -243.851608 -148.747009
931.118530 -378.617767 -394.829132
1264.451294 -716.817810 -177.734970
1091.898438 105.418777 -348.884827
1096.653320 -210.139374 -278.095062
1579.603027 -305.452484 -334.548096
1132.873535 16.645321 -31.341404
1087.116089 216.170563 -158.027496
1697.083130 -313.261963 -250.943436
1179.772949 -162.626648 -245.159653
1270.300171 -728.326599 -139.464600
1234.939453 -112.055428 -243.210251
1451.364746 -504.336182 -183.186081
1039.468506 -229.446289 -363.889130
1357.223511 -644.372620 -174.790604
1286.091797 -647.631226 -495.610748
1190.658813 -770.559265 -291.535522
1071.684326 172.683289 -245.014374
1197.873413 -735.186218 -266.403259
1345.983887 -634.093140 -236.232101
1232.836670 -701.310791 -304.204559
1135.499146 134.624237 -104.525482
1154.842529 -190.173492 -237.794800
1296.622803 -687.264038 -215.745682
981.144958 -365.285919 -168.747055
1077.869507 -268.991577 -93.530136
1028.953247 181.770172 -406.103363
1201.080811 -155.527435 -315.080963
1291.421143 -659.283142 -329.265503
1093.936768 109.823135 -331.669006
1528.868896 -518.846680 -67.341682
1262.905151 -680.127075 -396.193665
1024.877319 253.275070 -279.788818
1045.462158 161.309525 -360.963409
1228.153442 -719.726257 -306.765228
970.323547 -330.746857 -302.351837
1062.464722 132.239304 -416.043701
1173.684570 25.812391 -200.544525
1210.271729 -15.474012 -146.566864
938.039490 -264.772614 -455.853851
959.396790 -370.177704 -213.764236
1305.485596 -668.371704 -376.381409
1029.708740 -251.502762 -348.313385
1252.186646 -627.326660 -495.000763
1098.263672 101.888229 -320.901093
1222.562378 -687.220154 -260.787537
1090.084473 -245.337265 -118.267326
1193.352295 -758.783875 -281.234711
1070.482056 158.254547 -326.577301
1055.894409 130.157410 -399.680450
1178.088745 -174.322495 -212.557907
1195.638672 -122.996735 -389.420319
1149.944702 83.728043 -161.065674
1097.206055 -254.065857 -78.751038
1166.033569 45.727505 -221.082901
985.611023 -319.469696 -209.955627
1129.518677 -219.223175 -70.711601
1027.697510 -340.598785 -100.010628
1192.660889 -752.020691 -326.815308
1097.646973 -220.702072 -186.975677
1085.554688 201.888443 -176.762527
1060.410156 -256.390991 -184.971710
980.019409 -367.476440 -115.145958
1241.211548 -130.203568 -249.528412
1107.130493 144.777283 -206.230438
1365.261108 -668.801392 -78.382500
1121.493774 -198.700500 -157.063156
1003.636841 -300.650543 -212.789474
985.094604 -305.699921 -271.653687
1258.725220 -732.270264 -181.450455
1349.169189 -677.568054 -91.652802
1227.687012 -111.723289 -311.234772
1316.243774 -621.089844 -482.687836
1122.316040 115.489777 -270.441864
1226.378052 -492.942657 -248.480698
1091.830444 63.918808 -397.384186
935.187317 -347.108612 -312.258301
1039.037354 -273.875732 -226.825516
987.407959 -300.073090 -250.181763
1204.534668 -616.085449 -241.714783
1017.259766 -270.407440 -254.228287
1076.379272 152.218231 -301.217926
1139.547607 13.138961 -394.914734
1170.765747 -136.791092 -277.465271
1316.099243 -664.576050 -392.837189
1150.091431 -197.049271 -245.476227
1211.404175 -739.290466 -246.029892
1039.253784 -277.602814 -207.230438
1284.526123 -548.804260 -480.790863
1345.535522 -532.696472 -487.673340
1496.405762 -456.192169 -501.638123
1540.785156 -480.703857 -265.531158
1087.175659 171.402649 -207.311249
1499.494751 -534.725220 7.301459
1336.911987 -589.621826 -473.337402
1034.161011 225.728561 -262.595367
992.485779 -372.408569 -135.970444
1117.973633 102.494637 -287.904266
1248.529663 -749.573853 -179.912170
1038.917969 -257.390411 -194.901169
1437.496948 -549.852905 -162.102661
1373.728760 -574.655518 -402.522766
1023.430298 190.193207 -396.922974
1142.500610 27.192968 -354.258667
1377.248413 -503.839386 -366.436279
1557.382935 -461.335846 -202.173874
1380.070801 -545.493713 -413.464569
1405.286987 -476.471619 -417.174408
1306.152466 -631.532104 -334.656433
1159.989624 -125.137726 -378.012817
1196.962036 4.368619 -151.522903
1162.339111 -178.829575 -179.487137
1087.418213 156.259445 -317.850525
1101.142944 -208.358932 -185.428650
1037.785767 -292.995026 -165.360901
1395.802368 -552.234924 -269.888916
1217.638672 -150.392639 -136.472809
1023.427490 -258.465515 -271.812927
1354.925537 -643.027954 -191.880829
1013.328430 -269.224152 -347.442474
1386.272949 -634.503540 -54.120228
1099.459351 86.693398 -382.682007
1059.324341 -253.126755 -139.522171
1500.791992 -539.736023 -35.268353
1320.051270 -627.384277 -411.968231
1368.528687 -654.562317 -107.951088
1447.363770 -596.464172 -56.925770
1339.313599 -685.317139 -116.286766
1123.234009 113.283890 -151.585541
1063.433350 -289.961639 -98.241745
1265.136475 -704.845398 -296.794861
949.007507 -340.767731 -254.574844
975.406860 -296.389801 -360.108765
1189.008667 -173.388458 -242.653839
1092.379639 95.972946 -354.836060
967.520813 -376.601990 -246.741760
1220.160645 -727.197937 -339.417664
1137.579590 91.076225 -202.225830
1224.730713 -131.640289 -139.228836
972.865234 -299.670502 -381.323853
1339.585449 -657.081238 -216.318314
1194.154419 21.882919 -138.950745
1226.593872 0.095171 -182.931915
973.627930 -295.760223 -397.682495
1165.233643 63.980202 -139.134140
1222.263306 -19.267244 -272.398987
1247.781006 -702.661438 -406.525482
1051.585693 -275.067688 -262.676788
1198.126953 -5.137045 -269.145538
1051.780518 187.767426 -269.290710
1429.136108 -507.325958 -75.694839
985.948242 -392.327057 -137.704590
976.424561 -294.615479 -392.442383
1270.804810 -691.303467 -370.865509
934.774536 -370.164551 -323.580811
1247.532349 -704.951233 -292.576996
1078.991211 -225.085602 -324.458832
1042.893433 160.737976 -381.414734
1229.930664 -715.354797 -323.060822
1320.836914 -596.212585 -435.592102
1152.130615 -206.671844 -125.587021
1072.905640 -232.180893 -254.376709
975.249329 -328.915680 -385.729767
1141.063721 -216.479614 -61.115040
1280.498291 -668.934998 -205.204895
1137.622925 -221.745926 -134.723160
1112.826904 97.380653 -260.700165
1252.468506 -560.547913 -610.164063
1057.569458 188.434814 -257.180176
1282.237183 -711.756165 -174.993698
1172.334473 -138.864334 -456.974487
1479.086060 -556.479309 -48.042721
1226.971436 -744.434204 -205.085999
1525.072144 -530.388672 -49.930683
1158.220337 43.100925 -271.601685
1170.635254 55.983559 -154.303391
1331.278687 -527.400818 -431.584259
1104.575195 141.649719 -214.454254
1045.078735 -116.153725 -2.922862
1193.892334 -149.475052 -177.479218
1058.157227 -272.153137 -89.102234
1104.022705 -201.471817 -346.378876
1130.884399 98.733795 -214.471588
1225.924927 -759.729675 -233.031067
1112.520874 -229.613815 -102.283447
1118.587036 121.020355 -151.696564
1555.324219 -422.823975 -238.651413
1078.552979 108.943138 -363.678223
933.648193 -344.311401 -380.374603
1158.269409 81.528305 -125.413673
1402.998901 -629.186951 -124.965881
1166.008423 -11.067881 -307.181702
1241.282471 -729.879333 -353.812103
1376.592163 -579.149048 -402.400604
928.970520 -349.153442 -337.664490
1090.353027 169.041595 -201.199692
1295.494263 -612.555481 -523.798279
1115.435425 -208.614944 -208.936157
1237.590942 -706.288269 -244.436417
1133.709351 -165.421280 -290.597992
1216.429077 -129.205505 -244.033890
1199.173706 -748.276978 -306.457764
1182.591919 20.382744 -201.946716
1166.656616 7.009152 -300.148621
1527.493896 -456.429962 -202.872253
933.725220 -346.772430 -414.995270
1225.460571 -671.461243 -480.957214
1108.633667 -234.463989 -46.433548
1049.325317 232.207611 -253.875488
1172.571411 1.598902 -290.807373
958.750244 -292.647217 -370.670502
1304.095825 -654.379761 -269.829468
1129.875122 -187.609680 -306.955627
1038.674561 -318.805206 -65.849586
1306.415894 -605.214050 -457.651764
1049.879028 -312.023254 -71.058876
1268.183105 -657.219360 -482.268158
1348.375244 -554.082886 -465.509766
1210.914307 -114.829811 -424.355072
1227.323975 -674.600891 -473.734100
1234.308838 -710.828979 -262.640442
1204.011841 4.485348 -104.360580
1275.456665 -405.647858 -486.172882
1402.434814 -626.245422 -90.687820
1057.440918 203.972778 -220.201202
1392.312744 -530.071655 -342.603729
987.899353 -341.982727 -169.002335
1191.638428 15.379455 -265.595886
1274.451172 -626.425842 -598.848633
1147.542114 -204.239731 -76.969620
1038.105591 -352.873260 -92.817055
1371.025146 -650.551025 -161.871292
1439.740234 -564.527649 -153.531128
1244.200562 -662.716003 -510.650360
1568.294800 -446.052917 -288.082520
1577.939331 -421.660461 -228.543152
1189.308594 -147.909393 -371.295898
1504.947998 -498.767853 -267.730072
1076.122192 157.182419 -310.689026
1282.270874 -706.137268 -171.925491
1276.003662 -706.167664 -331.410431
1232.784058 -743.947998 -188.449646
1215.031372 -147.941254 -196.776352
1342.473999 -657.567871 -246.930115
1086.492920 208.155975 -144.443237
1095.720703 -243.897018 -273.307556
1332.475464 -684.239685 -170.239182
1392.013550 -464.731964 -381.595886
1241.895630 -719.406189 -165.539886
1125.910156 53.811405 -297.193878
1311.398438 -670.727234 -359.224701
1044.936157 -234.203201 -427.825073
1411.992798 -505.895081 -464.914917
1277.123413 -734.473999 -144.087997
1453.767090 -557.685669 -150.801743
1415.476440 -484.201721 -416.409790
1253.023193 -696.464111 -218.592529
968.002808 -367.912964 -176.787933
1171.229736 53.556427 -165.458984
1146.453003 72.479637 -215.497833
1317.695190 -604.532166 -538.949036
1253.319946 -670.152161 -489.603912
1293.692627 -667.492615 -331.529175
1455.675781 -565.474976 -31.155737
1491.655518 -476.306915 -565.349182
1099.609741 58.969166 -393.668335
1398.359131 -621.443420 -99.148254
1477.532471 -551.797729 -66.888153
1563.580688 -427.612274 -266.199585
1049.412720 -270.774963 -168.732391
1059.684937 -229.563675 -383.616577
1109.804321 -283.957336 -54.966106
1390.189697 -479.959442 -237.285187
1046.317383 -322.080261 -96.245354
1128.352905 97.034401 -260.736481
1083.138550 -227.779770 -368.992889
1148.586426 -219.592133 -151.168884
1417.815552 -578.313721 -218.624191
1077.410400 99.135658 -382.841919
1271.853638 -640.570618 -542.302307
1203.572388 -737.205383 -303.499420
1408.550293 -610.865845 -113.042877
1486.477905 -438.588715 -458.035065
1319.142212 -587.960754 -508.936615
990.963989 -310.434631 -264.441711
1216.203369 -758.868896 -185.560272
1134.548950 46.434933 -297.009827
1057.621460 95.195442 -447.594238
1123.072754 -192.531754 -208.269806
1044.852539 -246.278763 -223.326370
1175.904419 4.929677 -341.050720
1461.605225 -509.508453 -244.423935
1093.180298 155.854568 -186.497116
1252.875244 -675.217224 -253.280563
1202.107666 -759.998962 -250.055664
1385.910400 -605.843201 -238.173996
992.243225 -319.180603 -208.139481
1047.935791 257.705444 -218.260284
1104.411499 125.255791 -246.413544
1148.455688 -197.282898 -21.042290
1001.446594 -356.788574 -151.978516
1275.352539 -624.198120 -599.407166
1444.149292 -492.561615 -171.349243
1308.940552 -629.472229 -431.482635
1214.830200 -113.953278 -435.279480
1405.462891 -625.376404 -117.948723
1503.703979 -520.989929 -115.160378
1137.709351 -198.479370 -168.100861
1506.784668 -533.956482 -60.347672
1424.891113 -540.754272 -47.932964
1324.255371 -643.559387 -399.215149
1148.303223 77.871689 -188.503265
1516.642578 -465.804535 -532.523438
1084.971436 186.185440 -187.745682
1594.142822 -394.123688 -277.679626
1109.097778 144.100128 -171.361572
1038.409546 -306.341766 -68.254318
969.928467 -312.556946 -312.574707
1126.804077 128.645081 -142.469681
1311.084839 -660.455078 -427.619751
1141.685913 71.492943 -268.745911
1333.016968 -576.139099 -460.677765
996.362732 -316.748413 -223.409470
1397.696655 -598.471497 -244.180939
1298.222046 -699.985413 -108.939415
1287.082397 -721.653076 -174.157700
944.270325 -398.699310 -350.040833
1521.554565 -463.827301 -556.529053
1321.281738 -483.785522 -358.081207
1106.833252 69.638229 -331.866241
1763.003174 -267.765991 -286.489807
1070.517212 166.472260 -264.967957
1162.789917 56.039894 -147.000397
1244.475708 -623.155579 -516.339844
1119.358765 17.218937 -430.346191
1681.802368 -318.760986 -275.769287
1074.212036 137.978851 -311.892090
1186.351440 -135.210358 -330.529297
1221.850952 -112.849770 -339.077026
1041.780151 -285.230011 -280.646027
1378.914551 -596.239990 -225.251633
1453.839722 -552.363037 -267.664124
1459.875000 -564.759338 -90.702675
1297.929199 -653.937256 -472.061554
1069.296021 -242.755951 -207.330612
999.927979 -327.200714 -146.973480
1162.884521 63.363091 -165.224411
1482.227783 -482.322296 -283.216553
921.261108 -348.083374 -357.533752
1771.312866 -282.728516 -283.452057
1065.856934 -275.780640 -95.143112
1010.655334 -351.418823 -82.181999
1137.841187 114.148926 -122.054237
961.509644 -362.546844 -233.216339
996.049622 -311.669891 -206.919159
1090.820313 -213.537033 -223.815155
1083.259399 195.013596 -181.681076
1551.406372 -462.818665 -114.231400
976.911804 -312.424438 -276.042755
1051.918945 -253.624832 -165.531891
991.939087 -344.811768 -144.731247
1395.332275 -614.964172 -268.141724
1116.951660 202.125488 -136.771912
997.519043 -274.292908 -395.267303
1141.638428 50.433708 -261.667572
1435.322632 -528.084351 -146.222153
1243.153198 -646.279114 -498.346313
1311.876221 -692.306580 -163.694931
1326.505737 -510.005646 -434.037781
1134.344360 68.468269 -309.997955
1083.979370 167.986847 -181.474197
1097.972534 144.545853 -249.765488
1441.219971 -421.955353 -434.987030
1045.014282 182.096786 -308.548187
966.635803 -355.647156 -208.504547
1333.917725 -617.299927 -417.568085
1434.664673 -501.483917 -98.748161
1214.436523 9.981365 -157.126404
1114.130493 102.752480 -279.500793
1467.848877 -508.487091 -84.883926
1108.281982 -238.398209 -196.193832
1372.237549 -629.029419 -255.916733
1609.414429 -402.703766 -228.360382
1261.567139 -606.024475 -552.803284
1406.909058 -549.232788 -300.326416
1201.746704 8.220868 -157.768188
1198.265137 -134.622116 -360.627472
978.713562 -307.331818 -223.963547
1223.458618 -698.901794 -454.217529
1132.181152 -3.550922 -451.895111
1115.517944 -251.624725 -106.146141
1051.898071 177.731491 -366.016235
1107.088257 34.362461 -434.871643
1023.990906 -338.813293 -108.818138
1195.563110 -5.337605 -297.277527
1203.117676 -739.673462 -308.986572
1165.168701 -7.405137 -330.084045
956.168884 -304.369812 -400.046692
1052.703979 -275.163086 -125.020363
1099.690674 141.503006 -231.157639
1197.258057 -13.858367 -266.273560
1105.216797 -221.348358 -266.102142
986.629456 -316.389801 -234.806351
1305.550049 -580.868469 -614.085510
981.579895 -330.679504 -198.183014
1439.138428 -568.914246 -55.770142
1420.479614 -605.178101 -39.912197
1106.313599 134.222977 -236.212631
1272.392456 -714.420471 -186.799118
1214.425537 -9.534398 -152.037766
956.198853 -369.725525 -235.251251
985.121033 -316.302979 -231.801163
1468.630127 -540.094910 -98.554161
1424.143555 -602.240906 -144.303757
1306.495605 -629.049805 -459.991974
1170.556641 23.889675 -218.263641
975.106750 -370.838379 -221.963272
1220.823120 -707.423584 -321.206116
975.233948 -363.731506 -164.707703
1258.401001 -689.395447 -237.011246
1341.949585 -669.350159 -197.472443
1251.798828 -645.790039 -226.652451
1339.835327 -641.155029 -166.947891
1256.664795 -670.751526 -458.110321
977.643616 -266.786835 -442.389801
1254.274292 -560.953857 -576.199951
1142.825562 -6.350705 -383.389801
973.129761 -337.420685 -179.158066
1511.869385 -536.561340 3.635660
1171.202515 33.461296 -262.968750
1456.956543 -494.977600 -538.044250
1033.753662 -274.078491 -319.955170
1094.694702 -238.465485 -229.550598
1069.300903 170.280945 -262.088257
1191.382202 -132.473724 -330.801575
1438.264648 -547.444702 -210.969101
1352.857666 -511.978760 -391.675568
1021.324097 -308.142181 -107.937874
1182.695557 32.769424 -198.592163
1069.813965 215.778671 -174.819946
1125.411011 93.075256 -237.853455
1586.362427 -413.389771 -294.796906
1290.783936 -618.705261 -465.957458
1223.609253 -675.263489 -471.823669
1238.014648 -710.870972 -225.844040
1169.296631 39.154541 -156.394257
929.008545 -378.924255 -350.354858
1071.350586 136.393860 -371.001373
1411.730591 -508.481537 -302.141479
1166.853516 57.137524 -163.710312
1171.732666 -142.042130 -374.087372
1060.107300 -300.658997 -78.831680
1284.814819 -645.434021 -470.987457
1069.741333 221.951645 -163.026703
1525.551758 -465.236847 -248.383881
1020.456604 -358.018188 -99.723534
1085.972534 123.145531 -323.416534
1047.789429 206.463516 -292.629578
939.050415 -339.466370 -369.769409
1082.835327 177.755051 -216.569443
1062.446899 100.523926 -405.613220
1088.083740 83.471985 -389.747620
1075.155151 -284.542511 -94.424950
1334.242798 -683.675293 -136.648132
1039.711792 176.926682 -413.351654
1350.574829 -642.847961 -224.080917
1094.004883 -235.439377 -198.495529
1134.363770 113.313614 -135.544128
873.292664 -96.121971 -462.204529
1173.990601 -161.927277 -221.435287
1542.462158 -422.750702 -335.942078
1239.076172 -114.972786 -218.835846
1338.520264 -616.896484 -292.962189
1443.356079 -561.927490 -90.902481
1378.095825 -644.171875 -104.600319
1006.589722 212.979691 -413.604156
1002.662476 -327.356018 -154.670685
961.625305 -302.137115 -310.052917
1171.540039 63.581493 -139.975784
1503.206055 -548.510498 1.702126
1363.061768 -653.381226 -192.000229
1130.495850 69.918137 -301.652618
1251.246094 -726.015808 -338.498962
1056.042236 173.167847 -345.147278
1298.093262 -559.803467 -556.648621
1014.713867 -270.615692 -326.709961
1018.389893 -287.034729 -320.447601
1230.953491 -736.743164 -191.361710
1220.773926 -709.918823 -319.678650
1354.633057 -561.507813 -607.372803
1068.432251 164.048813 -285.029297
1116.975098 104.307472 -251.754715
1161.998413 -28.358076 -320.043549
1297.859131 -649.540161 -240.923767
1141.544312 -178.556885 -62.232761
1507.017334 -535.507446 -19.402426
1016.126221 -307.710052 -274.617371
1018.569275 232.282898 -357.725220
1743.249146 -290.575226 -262.036133
1074.391113 178.084763 -207.164169
947.706177 -390.853638 -284.710876
948.012756 -360.125122 -309.372406
1373.117188 -634.108948 -205.012970
1071.889404 160.668060 -279.139435
1031.435181 -237.299866 -356.804138
1443.654785 -587.057556 -112.550362
1027.296753 -230.330597 -446.057373
1269.594482 -710.586853 -204.398514
1154.091187 24.999838 -337.548950
1204.138672 -136.564285 -262.913818
1278.442139 -630.543335 -517.416321
1403.814087 -516.053406 -180.740326
1357.490601 -598.809387 -447.604248
1406.130005 -582.753662 -272.625458
1002.645447 -366.663391 -91.777893
1145.860596 26.900532 -354.607788
1122.435303 131.718002 -118.947327
1152.855469 43.065308 -270.907410
1143.932983 -165.806381 -459.337860
1080.841797 -262.235870 -67.301071
1156.590942 -199.770554 -103.911469
1227.959961 -746.297302 -206.089081
1093.405884 -224.652802 -316.756927
1212.030029 -709.000366 -236.038589
1254.692993 -705.751099 -201.525711
1346.548218 -659.096497 -225.174225
1210.994507 -715.355408 -236.722443
1531.490356 -496.059021 -204.741791
1413.760742 -586.324585 -112.019417
1084.378906 153.644974 -267.081940
973.288391 -359.084351 -193.706360
1001.431458 -398.759216 -123.441383
1081.819458 141.297913 -328.890289
1016.635010 -286.727692 -170.166351
1378.958862 -548.188416 -596.510925
1226.136475 -743.465820 -245.613052
1140.465454 116.386261 -151.297043
