ply
format ascii 1.0
element vertex 1364
property float x
property float y
property float z
end_header
-1115.740723 564.716309 -801.332825
-1036.923340 990.922729 -723.367310
-909.098633 626.931641 113.137199
-1111.235840 836.583923 -658.565979
-813.546326 539.017761 -403.080536
-1269.901978 1071.716064 -523.503418
-815.583252 514.336182 -466.673187
-770.008179 760.432312 -395.332855
-950.798035 606.059265 65.591988
-918.971497 560.445923 -333.436096
-1328.162964 490.494110 -634.111694
-1110.742065 868.977173 -673.768555
-945.754639 524.380981 -308.602936
-984.839172 702.201355 -837.065186
-1221.735229 470.847595 -695.724182
-775.333557 557.983337 -466.408569
-791.567993 516.981567 -457.401001
-1223.819336 651.378357 -609.660217
-978.689819 637.040894 15.639243
-865.225464 454.214661 -428.892181
-837.873291 751.500244 47.075722
-994.835266 844.817810 -794.599365
-910.329163 687.867188 67.799248
-1219.769165 595.115601 -669.182007
-801.658264 696.014465 -354.090118
-1089.870850 846.438599 -707.954468
-1104.847778 900.438660 -663.357544
-860.239136 422.891785 -410.452423
-1000.317322 848.274719 -801.801941
-988.731689 893.367188 -781.679810
-830.192444 511.190399 -430.663544
-895.211182 531.787598 -359.696838
-922.353821 610.890381 117.229637
-787.147156 578.096008 -415.402283
-1150.669556 567.400085 -745.139954
-1018.487915 638.362671 -55.327652
-1166.473877 684.386658 -571.951294
-975.585388 713.711548 -85.922981
-1020.989746 941.049866 -710.637146
-812.321960 847.936829 -94.512047
-999.644409 889.631409 -774.945129
-1072.912109 633.074036 -780.374268
-1054.457275 692.837158 -224.364197
-1152.433105 581.112793 -724.101685
-825.109436 510.369598 -476.023499
-878.149231 696.425598 76.608620
-900.147400 729.582336 -317.796631
-844.924072 604.764282 -365.381775
-1289.254395 519.440125 -640.839233
-788.066895 838.408142 -40.468678
-929.270691 642.316162 41.779686
-889.506165 727.909119 1.406898
-995.906128 647.932800 -227.804993
-802.081726 775.365051 36.366188
-785.019104 568.902039 -421.973694
-816.589722 502.240906 -435.211243
-774.730774 601.228455 -440.597656
-830.236023 839.210205 -84.973640
-821.920044 782.312683 34.660324
-1344.368530 1101.338257 -480.371155
-945.806213 608.548950 -274.864716
-740.431091 629.591370 -445.048096
-1201.354858 660.616028 -686.827942
-1296.158691 473.575775 -659.884155
-1043.562134 800.292236 -770.493896
-1130.192627 719.658997 -706.871887
-1035.272217 624.877197 -77.516647
-876.127258 687.529968 -318.684113
-756.346313 773.049316 -392.129883
-856.701172 519.108521 -373.204926
-1125.239014 617.934143 -768.395020
-1069.769897 710.458923 -770.161682
-1029.109619 588.679077 -843.561584
-945.829590 661.161987 17.808838
-791.680725 763.230225 -359.256104
-898.800110 534.615662 -342.895020
-789.029480 663.127014 -393.104889
-901.682617 820.155518 -283.141632
-1052.888184 622.665161 -190.565323
-919.901489 787.182007 -258.206787
-1342.058960 1070.241943 -440.817444
-1249.969971 1067.346313 -535.595581
-886.800110 780.480774 -282.501190
-1154.913574 798.406616 -619.278748
-872.273865 819.261353 -303.528778
-975.251282 596.989929 86.897484
-901.308411 761.435608 -54.015308
-1180.838867 849.311951 -589.750732
-882.746338 517.283142 -359.203003
-1214.527222 1009.578552 -574.346863
-748.247009 637.252930 -430.222321
-1129.674561 521.817749 -754.821350
-1222.526123 958.693970 -589.136047
-830.319397 808.216675 -313.891357
-1033.139526 599.245911 -15.880473
-810.527588 793.926270 8.993083
-1267.885620 549.663879 -592.221619
-951.385986 634.518433 51.494251
-876.682373 781.118103 -291.493164
-872.219299 705.522217 157.773544
-1044.302002 631.421143 -221.155365
-1031.521851 518.739197 -829.157349
-786.988220 581.824951 -415.081055
-862.747131 793.663513 -66.908379
-943.907043 598.059448 -292.616486
-927.153442 822.284363 -244.378647
-984.041321 970.325623 -754.205933
-985.437378 696.565186 -76.038048
-1253.453491 587.734497 -683.318359
-1262.384277 493.371368 -639.935730
-1157.769043 704.565613 -658.929504
-928.078125 699.545349 -295.581848
-902.011047 576.784424 -331.616364
-787.532166 586.627014 -411.585266
-1037.267090 567.217529 -230.849747
-855.230896 517.782227 -377.015594
-988.323608 720.835205 -839.894043
-1157.696655 918.373047 -626.714355
-801.911621 810.967651 -338.104980
-786.735962 836.310303 -32.957375
-854.028625 685.096191 109.828217
-893.803223 497.895111 -353.634430
-623.091003 792.898193 -198.794464
-1268.834106 1093.765869 -520.576172
-814.656311 519.288391 -403.291382
-861.669922 776.983154 -36.766739
-975.997009 554.422791 -282.693176
-1087.949829 768.867615 -754.445740
-900.418030 503.641235 -345.490356
-741.068298 582.618591 -477.700806
-998.601746 585.897095 25.224524
-1086.491333 712.867493 -744.898926
-903.838196 631.783569 131.000977
-948.021912 421.097839 -325.198669
-832.798950 721.378418 80.054451
-1009.898193 1012.466797 -720.708374
-885.185364 635.814087 -336.372314
-852.926514 760.688416 -0.840490
-1137.168213 797.044922 -658.420471
-875.862000 526.654175 -363.321838
-936.022949 763.254395 -114.789589
-891.529846 773.767273 -58.492668
-781.727966 810.504089 -369.768127
-1252.411133 554.141174 -659.463196
-979.853516 632.400818 11.268177
-971.017212 740.457886 -234.861450
-891.516418 517.342590 -347.799011
-976.106812 605.459229 26.516737
-825.222656 803.955444 -36.734024
-1009.738342 905.113037 -694.753418
-762.284912 566.202820 -477.587952
-789.074036 752.843933 114.094185
-1001.262146 738.828979 -824.329529
-909.809753 529.442932 -355.649200
-1006.562927 799.776367 -815.045288
-941.748535 463.371002 -305.344513
-1090.000854 612.594666 -763.934814
-946.599670 668.198914 48.007782
-851.480164 732.342041 -323.377625
-1019.432312 732.802124 -803.316711
-1256.116211 660.695984 -643.392822
-953.883179 446.103149 -329.086365
-823.201660 559.958313 -404.260712
-992.817261 594.639893 41.820709
-869.129822 714.194275 52.137909
-834.852112 573.932129 -376.384644
-752.325195 688.332947 -408.913025
-1051.702515 544.265747 -807.529480
-1046.416382 772.852295 -793.158386
-1154.794678 566.469299 -743.223145
-958.639526 510.158234 -304.358368
-777.312683 779.478943 123.252510
-882.562073 771.393677 -64.009377
-811.892029 538.678833 -397.429657
-1058.330811 707.804688 -785.553406
-916.944153 749.726868 -65.156456
-1008.476135 659.492371 -827.012146
-742.215027 669.618591 -454.492950
-1007.784424 986.781921 -745.662720
-848.884583 510.090607 -389.391235
-885.276367 747.448975 -49.872578
-1332.231689 764.538879 -535.896423
-1166.054688 620.927368 -725.551025
-1051.923218 595.582397 -789.760864
-977.481506 808.824829 -798.980225
-919.064514 557.094177 -316.322113
-995.343689 580.985962 -854.354736
-873.345886 795.938843 -74.535881
-1019.168335 997.934082 -721.280945
-855.682190 754.515869 8.200783
-984.512878 642.569763 -10.902964
-1203.992188 861.123352 -613.143372
-974.473450 762.804260 -215.834137
-890.297485 457.407104 -394.764862
-836.845337 753.324463 35.776314
-906.456970 422.699127 -370.336823
-1069.008789 609.678711 -225.526093
-801.308838 819.175049 -20.895063
-1030.691772 529.297607 -256.636261
-991.333618 813.663330 -787.899902
-1009.012939 700.263977 -200.484482
-1142.996460 845.259399 -665.957214
-908.007507 563.189026 -353.708740
-1006.606018 689.289063 -92.712814
-736.225525 671.310547 -442.997620
-906.046265 516.585754 -367.501190
-1350.594727 642.988708 -576.476379
-1013.209351 773.295837 -815.163330
-1148.217041 563.636658 -778.418152
-1018.842346 933.218445 -728.915649
-965.398499 662.609192 -11.893764
-796.497009 551.845154 -447.721436
-1134.849243 794.831848 -628.869324
-1046.373901 896.966675 -705.268250
-863.770142 782.712891 -76.863281
-1093.674927 733.473999 -747.236145
-1019.305908 626.866577 -792.437378
-998.984009 906.776917 -762.033691
-680.979919 825.393921 -212.399887
-922.684631 693.121033 22.529594
-1149.141235 520.256409 -762.384460
-1231.623047 586.929199 -605.972107
-1132.705078 519.785889 -777.922424
-1173.439087 604.236572 -700.451050
-891.641907 449.026703 -400.703400
-902.907654 446.824219 -366.289368
-811.514038 796.176208 2.791048
-1222.643311 493.409515 -714.543762
-1080.890747 590.615356 -767.685242
-1231.011963 642.843262 -661.598572
-980.321655 614.315063 -861.775391
-911.375305 804.027954 -270.791046
-920.927429 645.099548 88.372665
-1161.694580 492.089874 -753.857056
-995.579956 886.687256 -789.839172
-850.272583 680.768372 121.748146
-1128.348633 786.410461 -668.798584
-883.220703 418.876221 -427.190155
-992.440796 710.899475 -817.924988
-1066.351318 848.852478 -627.044189
-1255.016479 1024.887695 -527.997009
-968.178894 677.710266 -867.057312
-1004.455688 908.565369 -704.991394
-966.636230 662.289856 -6.035713
-1152.987061 536.585083 -757.011353
-917.783875 623.731201 131.616089
-912.471802 611.024658 137.286224
-840.731689 498.849548 -409.131500
-958.329407 717.073425 -281.996918
-1106.982422 639.633362 -753.889282
-981.819641 606.531982 -859.388184
-1114.327148 857.303406 -635.549622
-985.328796 584.141968 -264.642395
-821.540161 868.032715 -126.879715
-839.921326 717.940491 66.573586
-1134.716187 620.942932 -751.087769
-1073.066162 555.258850 -788.369446
-817.668823 711.637634 119.950981
-1153.142944 808.483032 -687.285645
-1071.149658 874.471680 -733.451660
-1129.120117 613.606079 -769.225037
-1013.063599 868.422607 -789.251282
-991.751831 787.450073 -239.787109
-990.717041 731.570496 -208.233398
-857.257263 477.947571 -389.183044
-864.906433 737.752380 -306.080566
-857.593933 412.268982 -441.717377
-884.773254 770.299072 -80.328125
-1017.909363 616.387207 -48.154736
-936.554199 701.107666 -16.076992
-1066.617676 702.601196 -761.441284
-923.170593 769.726990 -94.482468
-961.765869 731.758545 -266.155640
-923.408936 661.110840 -279.306213
-906.327881 622.468750 -319.141235
-1170.273315 603.039734 -725.877258
-1262.487305 501.243408 -658.882385
-1052.668213 581.538269 -840.386169
-1030.862183 596.141479 -837.425903
-1347.275757 736.008789 -498.762207
-934.525940 610.104431 -294.155243
-905.169189 449.634979 -358.076874
-1258.681152 609.148499 -641.833557
-1034.276855 695.968018 -221.483124
-1233.253662 508.373779 -682.271973
-1273.138550 569.095703 -624.467224
-818.404724 839.088928 -85.818108
-1132.715332 607.929993 -750.044434
-825.011597 710.582092 125.389442
-977.160217 715.619751 -93.483810
-1147.205200 769.661865 -705.177551
-933.674316 727.465271 -278.318848
-952.991150 691.853760 -22.164110
-1051.067993 587.882568 -806.791504
-1177.580933 591.668030 -739.054321
-1111.219116 878.463135 -700.334839
-890.031494 480.917206 -382.118011
-1179.153198 626.793457 -711.585632
-1021.859680 643.944458 -78.442665
-1030.700317 882.838501 -751.215637
-1229.247437 644.233704 -683.661011
-1034.831543 846.384216 -762.452942
-949.669800 684.016602 -19.671034
-814.784790 756.828613 71.531204
-1060.516968 944.747314 -653.003113
-845.776550 434.951904 -446.970612
-983.568237 854.981689 -815.661377
-1269.059937 1086.495117 -516.202332
-903.541260 761.079285 -72.881798
-973.753540 564.217773 -282.727295
-772.995728 557.140869 -475.501770
-1187.984741 849.105957 -625.798218
-969.663818 906.671265 -695.095886
-770.333313 673.949646 -413.788330
-886.202881 808.784241 -136.703156
-1288.582520 610.397278 -601.712524
-1081.688599 862.157166 -672.267517
-895.849121 649.890747 113.398544
-1248.742432 955.886292 -546.929199
-934.962158 702.472046 -27.568466
-915.721436 533.143982 -326.624268
-848.199097 707.074036 -325.144928
-1039.109009 910.391174 -728.013977
-990.248718 588.186218 37.550877
-1226.701660 626.634277 -688.951477
-956.328247 777.355469 -126.787216
-978.542725 798.448425 -824.559021
-764.210571 746.881226 -404.853912
-823.968811 610.419006 -394.714661
-818.406555 749.977905 -353.305969
-735.879456 667.722473 -453.288513
-1336.806274 1098.873291 -468.060913
-649.259827 743.031128 -286.541565
-821.444092 508.036194 -411.992462
-948.725586 525.271912 -309.379456
-942.740540 467.082611 -310.665375
-1353.713135 1087.539307 -440.134308
-1012.476196 880.811157 -771.362061
-1116.085938 708.615479 -722.432495
-854.210815 805.103760 -99.758018
-808.140442 871.832947 -97.627258
-1098.511963 668.823547 -735.488708
-776.501953 808.461426 45.264851
-892.969421 754.156128 -46.462551
-876.917175 826.417603 -273.726135
-1218.348022 684.699280 -669.437805
-951.849609 469.013763 -310.073517
-1068.435425 692.791565 -643.405823
-991.877258 655.339783 -72.211388
-1090.021851 510.717987 -804.623413
-798.962830 703.934387 -367.073181
-1018.877563 616.273315 -237.119217
-886.457886 782.121460 -305.528412
-953.515198 499.823517 -327.219299
-817.460571 861.817688 -150.551575
-1343.572998 552.141052 -599.085876
-604.716919 770.164429 -295.962280
-1108.580566 591.660400 -750.741211
-823.380859 802.863220 -26.257103
-1043.958008 806.563965 -783.465271
-926.862488 757.703186 -114.266991
-795.217529 626.748779 -379.830231
-791.889404 766.358459 114.536880
-862.090332 796.936279 -64.730988
-969.438843 601.827759 56.553055
-979.356750 749.410583 -247.438797
-985.289307 741.632385 -119.836594
-870.536682 479.634766 -391.849640
-780.670837 640.700378 -405.389954
-809.049805 715.004333 -357.064911
-1012.355896 588.021179 -825.074585
-1234.879517 933.831116 -596.505615
-1026.591675 631.694946 -785.911255
-867.353027 836.684265 -140.093292
-866.060425 706.587341 69.258598
-772.916931 838.051086 23.644159
-854.329468 779.245239 -37.983097
-1036.137939 600.233459 -845.394592
-1152.958496 771.283020 -697.994019
-792.734009 710.685791 -376.955170
-1086.039795 623.509949 -746.745667
-763.157959 703.600708 -382.101135
-809.525818 695.793518 -347.986267
-883.294128 766.361572 -305.611603
-1050.341187 629.035461 -222.234024
-853.190369 731.289856 66.424644
-918.196289 568.108521 -345.904327
-840.265991 698.527344 -337.518097
-862.926270 755.042114 -14.748122
-1082.368408 993.549561 -672.513672
-929.660522 628.989624 -278.584930
-797.317810 533.352173 -421.443634
-837.414551 888.148621 -163.240768
-908.442444 830.808105 -266.056702
-895.137939 409.490173 -391.481201
-989.108521 1023.185669 -730.829651
-1098.326172 514.936096 -783.714783
-1315.165771 1092.226440 -505.855164
-820.581909 545.509338 -392.942474
-1123.615356 746.563049 -708.216858
-976.261658 800.728577 -830.470886
-898.848145 734.076538 -20.585230
-925.541443 666.489807 40.034397
-1024.157227 592.350403 -844.074341
-1157.578857 781.471924 -688.677551
-982.527710 687.828796 -113.482292
-1075.212036 558.381653 -826.400757
-889.933167 709.534119 37.053261
-882.250671 737.836731 -31.594866
-929.991150 398.551270 -358.190674
-994.618469 663.933105 -260.408691
-861.309631 821.197327 -95.885536
-1080.852051 820.263916 -752.394226
-917.555664 634.743164 83.938759
-1113.574463 786.979919 -636.971130
-953.784973 825.198181 -237.409851
-776.206238 595.437500 -405.878143
-808.941284 683.823608 -368.236206
-820.995972 491.972168 -442.202759
-836.728027 539.433350 -383.083923
-1057.438232 915.823669 -692.834045
-1236.725220 641.058350 -653.733826
-1013.661926 685.858704 -805.051208
-949.717957 643.065796 50.144817
-983.722351 843.868774 -816.516174
-846.721680 687.313110 135.941177
-829.760559 768.756409 20.875645
-892.209534 613.478943 -351.569061
-887.610046 782.014160 -64.086220
-980.768127 762.491943 -804.796204
-838.028259 706.326233 116.773041
-928.403015 722.741577 -78.720215
-939.871765 591.801758 -318.476685
-781.183167 693.213074 -384.309387
-1295.270142 461.381714 -596.816895
-761.451904 531.420959 -456.742126
-1238.787842 579.631836 -589.453003
-945.173401 739.174683 -100.651733
-853.087036 888.244934 -170.323608
-1043.959717 716.484131 -224.686844
-1078.216797 552.184875 -819.431763
-1123.547607 745.570740 -704.732971
-1025.967529 558.067322 -842.694824
-1243.939819 1019.244080 -529.591614
-847.890442 728.718384 -346.038666
-891.400757 787.805969 -297.319824
-877.681519 669.478271 101.151863
-860.230225 807.652649 -76.978828
-1245.483521 673.163086 -638.141418
-943.205078 571.404663 -298.245422
-1200.817871 599.325867 -603.080627
-902.632874 644.373535 115.920303
-794.197449 650.226074 -383.318054
-1161.907104 732.418335 -669.918945
-1048.026123 601.589417 -243.124817
-1099.423950 504.535492 -787.300049
-1166.874512 604.569946 -724.516907
-1054.366333 506.765686 -815.573914
-998.766846 790.520813 -788.796814
-810.785217 726.517883 -346.373047
-1214.948120 942.401001 -584.286438
-995.534180 596.682800 -855.078430
-805.473328 507.310547 -423.150146
-997.061218 569.460693 -276.143219
-955.495422 717.084045 -106.297157
-887.109131 759.896790 -40.072304
-882.687744 447.006134 -411.395050
-991.880310 540.740662 -277.871307
-922.580750 751.169983 -105.545616
-1200.170044 936.071655 -551.361145
-1101.794434 727.315979 -571.849365
-771.555969 781.031982 98.003418
-928.947998 760.547302 -136.393250
-1005.408691 980.463806 -716.379639
-784.301514 529.646179 -480.805573
-867.919312 472.102814 -376.368713
-1003.317627 629.479797 -796.244629
-881.318176 730.146973 -0.247724
-823.965027 827.511353 -51.562744
-911.822510 744.233215 -82.898071
-765.664856 832.138184 38.406288
-985.400696 734.023376 -108.661774
-986.892944 500.889648 -265.447235
-737.884399 684.670959 -428.455353
-1262.124023 469.030792 -682.699890
-927.041626 557.343689 -296.253906
-712.308716 694.915039 -448.721985
-1065.014404 639.045105 -233.351929
-1015.484924 848.312988 -776.533813
-1067.316650 566.937744 -803.148804
-1088.850342 615.558533 -201.373932
-816.269409 478.745575 -448.763458
-1367.949219 583.832153 -589.069214
-741.953003 671.989319 -433.548645
-1053.874390 555.627136 -826.214539
-893.842163 750.083130 -40.424290
-781.117126 832.970581 -16.860125
-1041.706909 1020.208191 -704.879578
-826.007874 755.379700 33.006824
-891.990601 481.927948 -374.998016
-979.532959 675.222778 -103.708900
-933.730591 741.061401 -273.867035
-992.681091 655.387573 -59.893967
-877.341553 522.716919 -375.479919
-1131.922974 792.119019 -695.267578
-826.742371 851.960693 -109.307442
-977.373962 938.619568 -768.641541
-756.085449 835.404724 50.900993
-1046.385254 833.438416 -740.487427
-865.884949 637.384033 -324.067200
-1012.753418 905.371765 -738.822571
-779.498779 606.895203 -432.920197
-1021.204346 742.847900 -814.880432
-852.223389 806.617554 -94.581306
-772.321106 833.941467 53.288338
-1020.355164 764.415405 -780.163025
-979.111938 713.326904 -852.420044
-1098.433960 767.601257 -601.726929
-771.111816 510.767303 -455.539917
-1025.668823 913.595703 -753.720154
-814.640808 733.786438 101.902847
-978.199219 621.226318 -264.640106
-786.296143 808.212891 -4.761607
-774.650024 805.832642 45.975384
-1148.928589 790.975342 -663.157715
-1000.648193 704.909973 -210.339523
-1381.340088 642.749634 -557.987793
-991.463989 821.004150 -786.144958
-1102.892822 676.664429 -734.994873
-1369.069580 612.345093 -574.439697
-873.263916 793.002014 -81.452782
-981.024414 924.690308 -764.106628
-992.087891 836.133240 -812.712585
-1171.308472 580.875610 -743.392456
-1035.801880 982.965149 -725.099670
-1066.850098 619.904968 -753.427856
-862.870300 785.065186 -42.258858
-917.932556 672.921753 59.890926
-740.467041 719.213013 -456.700745
-1075.716553 846.154541 -718.654358
-767.714050 672.688171 -400.939209
-1032.100708 541.352295 -246.084305
-897.247437 472.229401 -361.298645
-1099.116821 606.769104 -769.267517
-1246.445557 685.826294 -598.186462
-1235.294800 703.558960 -621.789429
-906.013550 752.845947 -64.007095
-1260.915894 523.058472 -674.400818
-788.969849 549.751038 -439.003571
-1031.337646 657.945801 -624.202942
-902.495544 630.683472 150.686356
-1025.631226 922.482666 -721.106445
-730.607239 638.489929 -452.356476
-924.860474 398.469208 -374.034302
-887.120056 445.473602 -404.831512
-802.725586 686.776978 -373.633423
-955.620789 800.627869 -221.476334
-720.066589 691.788025 -464.188599
-896.085449 481.892303 -361.989258
-1157.496582 645.714111 -739.506042
-1182.436890 519.013062 -734.360413
-930.768555 645.399841 56.960571
-1028.815674 906.081055 -753.656921
-1217.170166 587.236511 -685.048096
-780.182922 576.213318 -436.946014
-820.545471 547.109070 -395.870605
-946.883179 544.934814 -320.068359
-999.761780 771.095642 -827.560791
-994.227539 581.462158 -852.574097
-1230.179443 646.280640 -658.027527
-961.779907 520.849670 -295.894775
-1165.696533 468.846924 -742.841919
-1210.787109 497.165924 -602.633179
-807.763062 828.366211 -335.704285
-990.566223 608.633057 -827.843567
-801.076477 570.046997 -390.566650
-741.726929 663.872192 -428.594543
-1016.038269 631.744934 -644.738647
-837.294250 715.889465 80.791733
-884.699829 792.397705 -112.795555
-1266.484985 748.440430 -502.311859
-941.284119 435.400543 -345.428741
-1139.965576 621.712280 -747.622375
-733.801941 616.255432 -494.576660
-953.344421 604.159546 75.679008
-1023.425598 534.760071 -847.129456
-1080.324219 717.974976 -782.207153
-995.659058 752.579468 -817.524353
-1195.886841 495.037415 -732.621948
-1034.212769 861.252869 -758.083862
-1021.706848 587.220032 -18.675505
-825.651123 751.966675 73.142899
-881.623291 450.043365 -398.538116
-970.693665 803.734924 -229.190399
-984.004028 880.572937 -788.930664
-1284.607422 653.206787 -595.213379
-762.699646 825.363525 7.064301
-1209.542969 852.538452 -610.744446
-1167.499512 537.178223 -725.173279
-1347.411987 708.219360 -546.226440
-765.941284 542.827454 -483.727020
-1230.910645 628.747314 -625.245422
-1211.154907 649.303528 -566.666382
-1068.085327 999.826904 -687.140930
-952.480652 491.332886 -305.885437
-948.137329 783.025330 -238.090881
-955.594482 633.332764 -856.993469
-1148.350708 767.570007 -672.834473
-928.735352 713.435730 -290.003448
-973.591370 605.292542 -854.876282
-1284.628906 601.210754 -613.602356
-1062.747925 764.831116 -773.711182
-802.764038 609.331238 -374.614532
-890.894226 835.967224 -139.704681
-779.545776 718.887146 -379.814362
-987.500244 611.776611 -846.568909
-1060.257202 649.754211 -777.092712
-1024.254028 547.543457 -246.890366
-844.839355 746.494080 29.342583
-1283.126587 722.324707 -570.708130
-1234.168945 633.768494 -681.399292
-995.510986 740.789795 -819.654236
-1043.067017 897.920654 -667.642395
-863.023010 719.457458 -345.567749
-1086.206909 697.727417 -748.695007
-847.627258 451.778625 -404.288208
-943.302490 498.555237 -319.430969
-1034.456909 582.776794 -825.365906
-835.911682 699.273743 136.333633
-1010.788818 670.653687 -795.818115
-838.655823 526.073669 -402.666168
-812.649048 499.135315 -427.770142
-930.976196 366.019348 -128.845657
-1248.351440 440.322784 -681.981384
-944.036865 594.234558 104.738663
-1168.541382 818.105408 -662.689514
-1037.463867 547.859985 -262.282562
-1101.314697 511.117218 -795.105835
-748.121887 561.694580 -478.555878
-1001.275574 791.953796 -783.207764
-999.092712 825.271912 -804.986023
-927.511963 792.483276 -141.510742
-1004.908997 670.288757 -826.952881
-1005.854431 892.581177 -768.444214
-1099.723633 848.956726 -697.464844
-1262.083862 477.434052 -673.387207
-799.165771 748.463501 95.510551
-710.923035 710.114258 -450.350067
-965.205078 581.735291 -862.423218
-900.931030 691.282166 -299.401733
-1125.447510 599.667053 -757.728088
-1024.883911 544.735535 -259.129028
-1040.128174 555.782043 -816.414490
-1062.094116 878.712708 -688.695374
-693.569275 831.484558 -205.217133
-1273.033203 918.064148 -526.949158
-1050.499390 806.069153 -763.370300
-1128.263306 621.960938 -745.696594
-925.419983 616.729553 105.476189
-936.735474 440.692810 -330.454498
-973.476563 607.929077 -301.019775
-1246.735474 498.811890 -711.649658
-953.607422 419.297394 -327.008240
-836.401733 756.454651 -345.593933
-1133.837158 828.049561 -692.842224
-786.000793 802.014465 16.428534
-981.029907 658.898804 -855.216309
-921.411377 722.323730 -278.197784
-1171.556641 672.992859 -704.002258
-773.588623 788.454956 77.904724
-883.085693 451.388397 -380.837708
-870.100037 810.845703 -294.807861
-943.107971 758.816833 -111.520477
-1201.716187 947.486267 -619.414307
-993.333862 627.275269 -834.744568
-1129.812012 774.222595 -695.657593
-994.794312 696.951660 -835.186218
-757.120056 710.629211 -386.470093
-853.154114 489.041199 -388.470459
-1060.260498 882.833557 -642.058655
-1015.591431 790.127136 -802.052185
-802.315735 699.249756 -365.558838
-964.539795 516.458740 -315.709961
-1246.217529 501.972229 -652.811829
-844.959839 834.119690 -112.348549
-874.785828 833.083435 -122.596085
-914.223328 706.947998 8.938816
-1001.980347 513.139832 -277.521606
-990.915588 839.129700 -814.720886
-946.999756 771.399353 -112.190002
-1008.892700 641.874084 -86.935913
-987.980774 918.742188 -732.690308
-1147.835815 588.741577 -745.411133
-1013.013794 964.404846 -730.854553
-851.483093 571.320618 -346.296967
-1127.628174 847.499634 -683.694031
-834.807739 747.532288 42.831135
-721.641418 685.432678 -449.968933
-1017.703735 619.258972 -815.366943
-995.428345 828.799805 -804.524475
-832.241943 749.807312 50.242115
-816.124512 765.021118 43.543766
-1387.448730 1054.333252 -462.810455
-986.255859 771.061096 -206.116302
-968.789001 726.285278 -124.936607
-759.673035 625.038696 -422.211761
-996.114014 744.785522 -217.281799
-1044.072021 785.490662 -774.809021
-803.018555 768.427979 70.863113
-1009.910339 615.716003 -839.408325
-933.323120 711.113464 -62.118080
-994.739380 615.547363 -16.640182
-841.445129 777.952942 -8.898841
-1003.517334 589.458740 7.756765
-1268.681396 551.965576 -652.313171
-925.003235 577.830627 -305.436523
-966.056335 666.712219 -858.736450
-1091.775635 987.670776 -669.270325
-1084.725586 492.831390 -796.118896
-949.393921 690.738220 -43.721165
-907.716003 651.614380 110.720390
-749.717773 720.184021 -416.451233
-1054.127686 621.245728 -205.116150
-894.809265 434.256592 -384.584808
-762.914429 560.454468 -455.160309
-992.440247 764.876404 -834.085022
-913.665649 629.027771 120.824196
-987.727966 649.213257 -281.747284
-1087.798096 729.571411 -757.349121
-934.397644 644.708191 -304.264740
-1032.492310 664.700439 -790.657959
-1048.466675 859.435669 -753.117126
-918.693787 521.466187 -350.662750
-931.374695 762.132080 -261.049805
-1123.205200 801.564453 -698.230103
-871.531616 752.566406 -304.512299
-1030.449463 890.401611 -676.427856
-1231.731323 869.191101 -574.731201
-996.281128 656.063354 -38.833881
-1125.186279 828.439636 -699.203430
-978.898865 917.824768 -780.660095
-1116.332520 733.485657 -748.352600
-865.317200 671.034973 113.888107
-1037.773193 836.820923 -765.266479
-1092.697510 901.067810 -704.177063
-1209.998901 501.171326 -718.371948
-915.978699 515.272705 -335.515289
-1163.463501 723.901245 -608.716370
-1083.338501 552.323364 -805.687683
-856.027405 840.180176 -130.722702
-986.880432 572.508545 -269.162323
-1084.905640 558.863770 -793.694458
-1075.320557 876.298767 -725.271118
-867.181519 727.258545 49.627930
-904.688293 665.705872 167.360199
-900.889038 668.213257 68.114235
-769.419067 724.925415 -399.629303
-784.065308 707.570923 -385.048737
-844.331726 598.544739 -367.293152
-891.247742 787.356140 -94.077248
-894.689575 584.236816 -343.629517
-1136.402588 554.650879 -744.649109
-1234.108521 571.351196 -684.936890
-850.895508 543.892456 -357.226440
-863.392029 761.669250 -14.264372
-810.775269 774.308716 88.643501
-957.603638 605.849182 63.115131
-1042.920044 763.501282 -794.679626
-1194.231079 597.172791 -692.067078
-928.896790 402.041870 -365.810028
-1053.533447 521.755188 -812.440186
-881.131653 673.811340 88.867935
-800.787415 635.082153 -386.211853
-992.130249 1003.213440 -763.641296
-985.983826 583.954834 -270.532379
-858.293701 482.554474 -414.958008
-1330.148315 1099.098267 -448.702667
-1021.190308 594.006104 -834.593933
-971.245728 612.210815 -253.729248
-1117.636475 858.951294 -681.088074
-685.669312 767.894897 -381.570282
-1121.816528 693.056091 -572.395569
-971.047363 372.474976 -181.616638
-907.263794 697.609314 29.614853
-987.366882 635.910767 -35.605919
-1001.399353 656.124329 -823.227844
-1250.053345 516.324280 -657.761902
-836.291748 671.332336 -356.866241
-980.926208 707.904663 -841.950928
-927.341675 511.119446 -310.654053
-960.862244 502.620728 -305.114990
-740.140381 586.217285 -497.174103
-1081.134888 860.770813 -636.075500
-977.259155 845.164551 -789.978394
-818.664734 597.595276 -379.267517
-715.399414 699.086609 -463.862793
-842.130432 842.225769 -116.108765
-905.224060 771.665588 -115.034843
-1094.776855 684.987305 -745.427124
-1237.548706 929.509460 -588.890259
-1175.193115 726.126221 -639.491455
-943.068665 615.718140 75.452225
-874.106079 761.762573 -56.823917
-891.319641 712.405762 40.258953
-933.738647 625.883667 -292.689087
-954.497314 659.446472 -856.224792
-994.446838 640.722412 -853.785156
-793.764221 775.259094 51.676559
-889.976868 659.130920 -298.827942
-774.725952 642.549622 -410.431305
-1165.855469 909.683777 -625.260376
-1057.844971 890.116394 -717.533264
-820.589722 770.925232 17.269711
-1083.449585 655.867554 -733.164795
-782.991272 801.965515 23.206791
-817.517883 857.473145 -89.506714
-969.458618 449.638031 -318.258545
-1058.860107 631.642761 -712.203979
-1021.651672 919.590027 -752.628540
-967.292419 758.763428 -850.000793
-941.334778 722.343384 -88.942192
-1039.724243 762.406250 -792.971741
-914.095520 734.851257 -295.329590
-1206.638916 834.979431 -580.942505
-806.901428 557.246094 -387.361450
-813.637756 570.456238 -396.507690
-859.440857 715.638428 62.210236
-888.531494 701.483154 -325.943787
-734.761536 690.432373 -473.641632
-1016.056396 659.392395 -820.634766
-950.409790 785.279236 -249.331955
-757.194885 731.735840 -399.318237
-751.088074 631.491943 -446.334442
-1000.029724 700.802124 -244.457565
-1059.525269 528.428711 -822.364502
-1011.400085 645.888977 -62.527431
-814.397888 737.878601 -349.700745
-915.521606 475.684998 -348.733063
-905.803101 619.509399 -326.362885
-1010.370239 658.679443 -68.658272
-972.799561 524.561096 -307.579376
-833.405579 694.877869 158.474869
-811.920898 686.994812 -357.759308
-1018.403564 588.787231 -858.961304
-760.713623 811.662231 -352.947388
-1080.090088 739.197998 -776.436462
-917.629150 420.082397 -365.326416
-1226.019287 652.073364 -640.982727
-1087.429077 573.414429 -789.166016
-797.198486 651.471252 -372.942627
-1038.303711 687.869873 -205.968597
-1042.435425 566.007019 -840.908569
-1136.432129 618.391846 -741.129150
-844.663757 504.760712 -382.213623
-1231.439453 684.799072 -651.951965
-733.142822 754.466736 -359.290253
-1230.417480 560.294617 -670.182129
-855.456787 498.683624 -384.437714
-1255.661377 547.161926 -651.934143
-871.699890 609.812256 -325.876953
-799.041138 568.249695 -405.410767
-981.190674 580.714355 -870.604980
-1345.694946 630.975769 -577.606262
-909.635620 661.525879 91.777924
-987.466431 745.219727 -837.299561
-1033.830444 644.773499 -821.236511
-912.731628 656.177307 55.264076
-803.388123 773.731689 34.969360
-1063.176147 923.175232 -717.621887
-824.839355 778.629578 -13.741608
-1126.947632 642.476196 -748.979980
-844.684021 675.929077 -349.597260
-1158.415283 890.762817 -649.163574
-1018.628906 594.242737 -263.243683
-1055.516968 591.294617 -830.321350
-866.269653 453.117096 -437.410614
-1054.449463 1010.986694 -701.172668
-1264.961670 486.162628 -621.867737
-1278.093750 1084.294067 -516.303833
-1228.385498 634.998901 -671.199280
-1005.205444 577.162109 54.572239
-1320.689819 489.609406 -625.806030
-826.057861 728.607971 133.143997
-750.865784 631.333740 -430.959991
-959.950623 696.115601 -32.098343
-823.304993 728.609375 110.286255
-1237.798828 763.094421 -525.827271
-829.244934 876.134888 -127.235214
-734.600830 682.476624 -449.507751
-1040.795044 656.751770 -791.176819
-1028.257202 588.699768 -828.394287
-799.036682 771.742188 90.853249
-1164.964600 520.924438 -751.264465
-849.449219 844.542542 -133.654373
-877.634155 817.946106 -132.564865
-780.961365 615.427673 -421.997803
-1025.446899 657.172791 -240.019348
-1100.579102 717.850952 -748.456604
-896.347168 469.356689 -366.120422
-740.713440 691.484619 -462.388062
-795.103577 719.981201 -391.762299
-782.195740 825.732849 4.553173
-919.009216 766.502686 -129.993134
-919.886353 764.425659 -88.422791
-1206.858398 637.067444 -676.178528
-777.415649 791.975708 108.935326
-935.045227 767.653137 -128.957458
-1101.126953 679.016235 -635.720154
-817.940430 679.647217 -362.599030
-1208.586914 507.488098 -703.488159
-1237.414185 1001.500671 -547.871460
-1095.326660 874.383911 -718.944397
-951.648376 376.019684 -285.208344
-948.959534 464.123322 -325.021179
-729.690674 735.216980 -412.681702
-781.041809 823.536743 -24.236200
-904.411743 730.262146 -45.254513
-1005.131104 623.217651 -837.219482
-975.960388 951.214844 -772.213989
-908.196655 646.459473 81.088295
-878.400146 636.941650 -328.112274
-1206.899048 690.351563 -661.628845
-985.647949 915.446228 -725.302063
-796.185608 754.480286 83.456879
-828.040833 867.880310 -137.543228
-892.789063 651.548706 94.710884
-872.370361 496.176971 -375.920288
-901.161682 516.446533 -365.880157
-1039.428223 677.263550 -188.990021
-1208.019653 657.580444 -564.986206
-979.536682 881.998596 -801.659973
-1055.392334 729.201965 -792.494263
-772.235229 715.766052 -382.631409
-933.052124 700.400208 -17.169724
-867.376709 506.757141 -395.275665
-808.868652 480.360352 -465.164307
-911.106384 653.820068 106.056862
-777.735535 807.571472 -317.874359
-974.027954 719.085571 -124.348648
-988.790894 627.379700 -14.164923
-947.514954 541.852600 -305.986633
-1068.234497 846.048035 -733.975525
-1275.274292 507.352051 -673.797546
-1031.650391 612.963623 -798.601379
-901.768860 639.966431 144.796097
-1030.218506 523.188293 -841.681641
-1033.980591 759.741638 -768.636658
-966.125000 682.652710 -837.012329
-810.894043 824.439819 -28.318155
-1022.027161 827.623901 -792.729980
-1150.306274 773.923828 -678.687500
-994.660034 595.907532 50.572155
-1107.794678 538.350159 -789.545349
-1087.245972 674.494080 -713.660034
-1044.138428 1018.732727 -704.625000
-990.542725 969.537842 -763.899536
-1005.204041 773.430908 -820.571716
-1288.616821 472.763489 -651.952820
-974.030273 465.414581 -311.058044
-933.855713 786.441101 -124.363297
-1204.101074 639.169617 -707.134216
-905.582336 476.513916 -350.790192
-1038.878296 668.780518 -206.148666
-959.202942 733.205017 -237.658173
-841.583679 752.164063 -326.843872
-940.643982 716.595154 -249.633377
-917.739441 504.284302 -349.555084
-936.889343 666.585632 -285.416992
-785.845581 802.428772 32.182060
-1018.029846 653.973022 -244.738525
-963.371643 587.071411 -278.263428
-988.698853 625.232971 -583.454712
-952.606873 706.977539 -260.060425
-942.952209 768.654907 -104.859459
-652.398010 767.103943 -274.607269
-962.131042 754.127808 -838.480652
-816.540100 730.209351 -350.064240
-1010.702271 582.508484 60.302147
-765.786682 748.963257 -405.578552
-977.822083 621.291321 -270.433655
-1138.008545 520.262146 -749.181152
-1008.579102 807.624939 -806.905212
-878.748962 417.806854 -403.491425
-1034.319458 602.339905 -799.022705
-778.316772 817.746277 39.536194
-996.470642 995.430725 -735.543579
-822.478943 713.612671 130.434113
-1046.351074 567.528564 -822.456665
-1052.895752 681.448792 -618.128540
-791.120544 677.725342 -371.099365
-995.493286 653.276794 -48.157116
-806.522827 737.119141 -360.269348
-1103.600342 814.835449 -713.402832
-860.852722 655.523499 -334.644135
-981.450745 770.075378 -243.120483
-796.961182 745.038635 108.916397
-1106.063599 752.873230 -756.892761
-820.653015 730.072510 -338.404907
-954.642822 632.876221 44.129883
-1254.846924 460.483765 -674.418762
-821.736633 512.711304 -408.091309
-840.925110 483.791901 -406.113495
-930.712097 758.087402 -101.424789
-741.217041 641.291809 -449.905487
-1038.404297 937.273560 -694.937134
-995.516663 866.792603 -797.424377
-791.762207 479.091461 -453.528778
-1203.377197 621.713257 -696.030334
-1219.065918 610.172302 -687.333801
-1081.999878 865.377502 -639.723267
-779.085327 549.469971 -452.258759
-819.455872 830.152649 -50.785011
-816.776062 786.092407 -325.144684
-819.495605 734.467407 85.400993
-1096.003418 711.958435 -548.626099
-1232.471558 544.961365 -666.061707
-928.229187 454.590576 -364.640839
-837.879089 466.217987 -405.464996
-1043.470093 575.010986 -804.832031
-768.050232 569.603027 -465.354218
-1223.480835 660.333984 -644.330811
-890.208313 565.918213 -360.135284
-964.554688 653.599915 -8.309878
-1121.379150 626.056396 -768.798096
-935.844788 669.856506 -2.951905
-913.406860 653.646118 72.135872
-801.278015 501.144348 -478.514069
-1141.628662 858.685791 -635.237732
-1092.844971 909.957764 -649.204041
-1065.365479 719.838684 -776.654846
-1092.050171 843.107300 -696.575867
-972.364990 752.490234 -110.875763
-1036.514648 650.874634 -88.164948
-1255.553711 480.908264 -691.600647
-1221.361938 498.685791 -622.296631
-1093.709961 682.234009 -713.672302
-786.012939 796.074402 -354.448944
-775.149841 557.676208 -424.251740
-1054.785767 620.402649 -745.507385
-980.283386 677.257019 -62.061047
-962.007813 599.695984 67.938248
-1022.951538 737.510803 -821.329773
-894.101440 671.501709 -308.644348
-1076.543335 574.792725 -206.675339
-941.396606 619.620850 53.930237
-1022.631104 666.304688 -813.386658
-1236.936401 824.707397 -563.606506
-837.836853 845.722168 -92.170021
-1108.049316 780.379028 -692.872925
-925.565796 352.360046 -154.798172
-959.840698 743.322937 -252.784653
-968.113342 660.082520 -12.064036
-1230.633545 989.217773 -572.144043
-703.750366 826.725281 -176.087463
-842.219421 765.600647 37.096306
-778.132568 764.825684 104.799889
-824.499146 799.842163 -30.567875
-1002.953308 881.447510 -775.289795
-1217.926025 674.143188 -686.268982
-1132.921387 925.429932 -616.609436
-930.033081 758.957336 -86.165596
-996.895996 596.694946 28.249435
-741.816650 714.773315 -411.505920
-897.433655 734.891479 -48.207825
-1104.148438 616.850708 -725.882080
-969.390564 514.114197 -298.217010
-1208.892944 965.722595 -566.137756
-1238.579712 518.546692 -693.689087
-1204.075684 556.515259 -712.075195
-791.488647 808.620178 12.396461
-937.798279 387.533691 -371.557251
-979.721802 726.205872 -253.517960
-1055.085327 871.454529 -737.172058
-903.018982 763.337341 -51.815521
-1081.677368 724.124573 -763.209351
-1225.468384 590.130005 -688.654663
-814.772339 484.151886 -431.603516
-1277.303711 589.116028 -637.960632
-843.027527 618.720154 -371.790436
-1104.616333 559.005066 -782.290527
-986.590027 594.355713 -858.249939
-1018.053162 694.739746 -814.084656
-1027.289673 950.849426 -698.907288
-1196.573975 614.200500 -703.911072
-774.083191 811.733582 39.675053
-798.330383 523.765625 -421.571991
-787.247803 808.946411 5.490695
-1039.390747 1027.229614 -697.044434
-969.373779 560.843811 -266.629089
-1067.286499 571.999939 -810.515747
-916.014038 790.297546 -266.702118
-970.119751 679.790039 -860.312317
-1125.170898 521.655151 -792.541565
-738.555420 646.570984 -455.188873
-872.448364 623.823608 -341.692749
-1067.103516 701.274109 -625.850525
-1169.798584 851.715942 -634.655029
-865.226257 437.228455 -397.509491
-1164.803711 522.011841 -749.799927
-860.864685 673.839905 -315.121796
-900.169312 691.755371 -308.581573
-1051.598755 731.924377 -784.440186
-786.683777 789.956238 39.664104
-838.897644 801.877197 -69.807884
-824.268311 722.868164 -358.989441
-1001.500671 958.471802 -741.471619
-919.583862 763.355652 -83.062386
-1029.606323 588.111511 -12.903807
-810.992615 655.269104 -368.266632
-1238.842529 481.602631 -656.635254
-913.235718 625.888428 89.715858
-906.117065 620.249023 157.132401
-1061.751709 619.414734 -810.389221
-1332.703613 696.133362 -585.435303
-878.210144 739.245178 8.172770
-1079.819458 600.543640 -784.583435
-849.234497 760.197205 -331.726105
-1028.904785 620.469727 -250.313797
-1212.173096 957.809814 -471.153442
-1312.875854 622.444336 -576.256287
-1096.343506 615.558838 -734.476318
-980.674805 637.881042 2.635382
-969.652527 692.156372 -49.906025
-896.997375 640.552429 149.298996
-738.374695 712.005798 -457.983276
-1009.343689 685.571716 -829.859497
-734.378357 608.292847 -488.719208
-907.667053 686.323853 75.435822
-832.030945 755.186768 -330.762451
-979.893921 597.841858 38.657719
-874.775452 444.936279 -428.558167
-1019.902771 637.933167 -46.938114
-780.241150 839.324219 -25.230694
-1205.345215 982.720276 -581.498779
-1237.686523 1040.001099 -538.070923
-1116.008789 574.488403 -769.035706
-1340.534546 666.336914 -583.830627
-1098.161865 750.264099 -695.759216
-987.690186 888.450256 -783.888245
-1121.438599 819.333618 -718.682739
-767.039063 826.351746 43.908783
-847.021240 473.717682 -409.302673
-1002.933960 587.253296 -274.799530
-987.362305 645.853333 -256.486725
-983.101257 657.343689 -20.943186
-817.937256 841.048340 -87.516930
-770.266602 785.739807 74.084480
-1009.377686 1028.553345 -717.859558
-1020.239624 789.008789 -806.416016
-979.558411 608.542664 49.498722
-1010.916992 506.715454 -274.935394
-1165.737793 883.023682 -599.436462
-1307.045898 743.742554 -521.764587
-815.806091 595.474304 -387.786377
-712.137268 655.924072 -483.485626
-1348.821655 604.728943 -583.128845
-1075.853882 778.176086 -768.531555
-945.651123 714.205383 -279.564819
-1098.710083 546.259521 -817.010132
-887.359985 785.608826 -289.605774
-1123.596924 781.476624 -731.219971
-1040.238159 579.659241 -819.721741
-1172.158081 556.847473 -761.888306
-1276.577881 524.880920 -634.078308
-820.214600 820.536804 -52.633965
-1140.460327 894.608765 -606.263062
-1038.776245 539.941467 -263.577484
-992.857788 581.515930 61.808643
-855.105835 773.384277 -30.644140
-763.725403 575.141663 -438.589447
-981.564331 944.175354 -759.273865
-1001.580200 912.127686 -762.072571
-830.739441 580.027222 -366.041656
-869.651611 548.328552 -353.205383
-1266.686157 584.102722 -619.144958
-909.291199 406.652954 -389.089966
-990.437073 664.055725 -839.933350
-815.447815 825.791016 -52.073864
-775.565002 785.324219 -369.803772
-945.548401 751.468445 -837.594055
-793.713562 826.925232 -328.405762
-1201.037964 664.159119 -583.469177
-1070.858887 952.099854 -686.017273
-835.058289 593.924316 -369.178619
-909.344116 622.813843 -294.079865
-810.783508 759.584534 58.568424
-981.113953 605.995789 -861.649414
-1244.691528 547.760498 -656.098511
-932.144775 645.457153 67.469330
-879.275208 470.897247 -379.212067
-943.595886 640.468201 -311.532257
-630.046692 814.822815 -195.873428
-1176.366333 581.709717 -724.878113
-928.151855 745.003723 -66.740723
-969.947449 586.164978 -279.354187
-921.086365 632.695313 123.795998
-783.043213 808.348450 -3.334357
-1019.834900 582.403625 -836.572266
-769.094727 838.780334 -27.615957
-978.270935 712.835205 -837.605286
-957.719360 907.077820 -785.434998
-1203.223022 889.870239 -589.147522
-1214.504639 614.674744 -692.582214
-970.236633 762.835205 -239.521988
-976.917236 598.493408 41.183491
-801.072937 765.430420 52.780399
-1126.924194 645.252319 -746.022949
-804.509583 806.479431 125.191475
-771.260315 546.367737 -458.566315
-935.952332 774.581177 -104.400826
-879.965759 740.224731 -299.799713
-981.048279 622.352661 7.430809
-1073.226685 743.183960 -779.030334
-954.049438 797.250671 -236.337814
-826.903748 531.522156 -386.854614
-1062.829224 896.283936 -662.381287
-1056.381836 1016.462952 -685.424072
-889.217407 799.889832 -116.118172
-1026.607910 624.965698 -773.345947
-1074.967773 550.023254 -808.130737
-1241.239746 939.576538 -578.779846
-1330.826172 1062.538574 -459.159729
-922.883789 492.359833 -361.806000
-961.685730 507.671631 -299.480072
-1244.935791 1035.335938 -531.475586
-858.975403 467.367859 -408.547119
-1035.828003 796.821350 -793.542664
-793.054626 588.816345 -410.441620
-1113.709717 837.927063 -702.338074
-1027.892944 776.488403 -797.572388
-1094.986694 858.717163 -714.704529
-832.850159 781.107910 -29.920795
-784.978271 758.711304 115.066246
-989.825745 921.958740 -752.442871
-1249.527100 553.666382 -645.530212
-784.747986 778.513062 -360.067749
-957.508484 786.947266 -234.213486
-1062.699707 583.184082 -821.152039
-896.853088 795.604187 -279.481476
-1074.122314 859.227783 -716.085999
-871.469360 811.084778 -133.220840
-1013.655823 907.560303 -743.129944
-973.157532 703.454041 -80.582787
-849.078186 700.392273 -353.136688
-889.888062 651.299805 132.132248
-784.604736 746.039429 -389.268036
-967.758667 523.580078 -290.979340
-970.582764 745.410828 -118.110634
-1267.776245 947.765930 -531.477417
-937.196289 661.929138 7.125315
-880.698303 773.384888 -291.044983
-1222.014526 462.673035 -697.507324
-996.327087 659.811584 -673.761108
-840.107666 511.361267 -383.379791
-820.370178 497.830139 -434.230347
-867.870667 668.500793 125.119926
-1121.923584 591.140625 -783.710510
-860.796570 755.310669 -325.104919
-1017.319702 597.307373 -16.396652
-950.970459 653.531494 17.729832
-1274.159912 588.417542 -647.062744
-917.554077 670.732300 118.458099
-807.659668 767.822876 49.880543
-1117.693359 862.308838 -604.112793
-1216.099854 889.863647 -593.098206
-843.078491 701.333801 100.287094
-785.779053 789.277710 -353.004578
-1149.257690 573.084045 -746.114014
-1064.397339 739.306152 -756.378052
-1082.737793 985.166016 -674.277100
-839.455139 778.491943 -27.072937
-944.429688 797.257935 -136.431870
-830.888550 489.664551 -408.205963
-839.529846 463.340454 -441.225891
-1053.243896 558.389771 -804.794739
-915.475647 790.640015 -260.298096
-1025.854492 1005.019165 -713.933350
-1082.777954 873.612244 -670.105774
-1119.172485 826.969604 -715.865540
-865.771729 740.629822 47.551090
-797.734985 769.748718 63.493408
-783.759521 845.148560 -27.818010
-1011.010315 685.195862 -823.881653
-1006.431824 579.319275 -274.510468
-1249.192993 506.488281 -644.336609
-839.044312 713.429382 94.102837
-918.935730 750.544739 -96.989349
-1066.807861 992.603333 -684.916321
-838.915222 800.643250 -38.494446
-894.095032 776.320435 -105.609650
-930.805420 701.438293 -276.092224
-993.894958 899.555054 -793.521301
-1039.279419 524.831665 -243.890198
-957.578247 634.021912 -260.385284
-1048.907104 672.613525 -761.427917
-1049.605103 621.268311 -691.764160
-920.106628 674.801758 -290.138977
-915.537109 527.819763 -357.762939
-763.052429 634.344788 -424.107422
-950.975037 705.422729 -257.736450
-755.308411 720.797302 -385.906158
-1065.284912 746.315674 -769.569153
-844.516846 701.277832 -362.772247
-953.910583 634.810425 57.281765
-942.765503 768.575928 -268.491425
-1287.664673 596.213989 -587.515869
-1202.286621 915.657227 -581.073547
-930.347473 656.326721 55.053261
-1116.338745 539.660217 -783.062927
-606.825378 779.759399 -279.437683
-909.019836 458.100281 -339.762482
-952.057373 586.899658 106.722969
-863.034180 848.601135 -161.749115
-803.700562 499.411621 -466.119781
-1028.510498 529.442932 -844.969788
-771.986206 755.255127 -388.402771
-1343.160522 1057.314087 -465.727600
-779.555664 629.369446 -393.499695
-1148.511597 898.861084 -620.450500
-859.994263 485.596191 -368.789429
-903.504639 703.382629 -6.979517
-761.309753 772.880493 -378.921051
-826.998718 764.451355 15.193211
-1061.563965 662.837524 -526.160217
-968.787903 421.603149 -311.646515
-1229.268555 603.886536 -655.053467
-881.457520 661.926086 102.326828
-1126.203613 691.612000 -705.163879
-1071.272461 777.433655 -758.168335
-970.553101 624.142029 -853.272949
-1364.003296 554.853516 -591.854370
-883.556213 672.070923 92.270363
-970.536804 731.562927 -223.585938
-828.267090 517.489929 -428.506042
-1002.760620 928.731506 -733.897034
-838.581299 802.945374 -51.261341
-761.408813 744.001404 -402.217438
-1101.181396 827.406494 -730.990295
-1026.068237 593.610291 -809.256287
-928.352112 749.048767 -104.444115
-770.998291 650.529785 -407.951782
-800.142517 847.266968 -43.724983
-798.867432 733.124207 -375.937988
-980.932800 681.288208 -249.447067
-1043.780029 898.048767 -742.935486
-874.023682 832.773804 -157.455688
-1207.470215 637.522217 -586.253357
-1035.046753 657.896973 -91.681030
-810.348083 635.918274 -365.893707
-1036.871948 619.761475 -790.911133
-957.362671 764.395203 -111.824966
-894.139343 789.451111 -273.215546
-1132.964966 583.590027 -785.227722
-644.790466 746.508301 -278.933838
-1023.729919 866.883240 -747.725647
-1158.799072 608.208801 -731.424500
-738.664490 759.399414 -364.935181
-1082.088135 733.060608 -758.869934
-1184.501831 540.761780 -728.088623
-1097.132202 592.973206 -775.211182
-771.860168 565.717773 -438.813019
-1062.533569 527.239929 -808.210449
-1199.576416 657.434814 -572.728394
-912.840576 720.272766 -300.159637
