ply
format ascii 1.0
element vertex 1397
property float x
property float y
property float z
end_header
53.351425 663.988525 -1486.304443
140.908707 469.269531 -999.028625
251.493851 434.459015 -950.143799
-109.587196 487.783020 -1473.264526
2.940330 787.885925 -895.575867
351.015594 344.440063 -1403.291016
-29.293930 456.456848 -1462.980103
299.738220 240.817871 -1405.143555
139.633835 837.075195 -716.433044
192.042053 846.856262 -686.775940
139.027298 832.808167 -739.021606
336.927917 564.848206 -958.176453
336.979584 757.832886 -1471.878662
246.766296 345.091278 -993.122498
32.557377 325.093140 -1015.498047
419.939362 577.116821 -1427.634155
330.579224 921.597595 -1489.554810
270.772705 588.360291 -966.154541
193.101242 538.088196 -1377.312134
360.100525 869.470337 -1496.659302
212.995499 703.477661 -1451.760498
89.277519 793.886902 -836.796997
132.285324 429.521545 -1446.411377
29.030655 406.689667 -990.788086
271.588776 502.680420 -1458.472290
254.747726 473.000458 -1462.258545
-64.244446 791.524536 -828.619751
203.650009 393.904388 -1430.078735
128.711105 373.741882 -962.074280
31.532488 815.948547 -797.519714
-14.308049 671.529053 -1046.973022
365.764862 813.538269 -1501.107422
334.371216 239.729904 -1405.452637
107.371559 511.283173 -1443.487671
237.144836 798.120056 -836.215515
337.344055 607.253906 -953.388489
290.514099 296.792084 -1401.503784
0.711243 457.151062 -1466.678711
479.104034 567.939148 -1426.790771
179.888855 380.663879 -1298.698730
272.845337 381.175781 -1450.055054
503.247375 483.723999 -1414.552124
50.728943 299.747833 -1450.605835
293.677612 455.013489 -1427.758179
101.712517 814.574707 -808.106689
106.641479 303.393158 -1438.677246
201.440125 812.950012 -818.121582
204.366135 821.981689 -731.148376
252.037949 421.753967 -1450.382446
-57.685215 783.261292 -907.047241
512.302673 476.742249 -1415.066162
269.226257 396.053467 -967.182678
-4.380976 782.209412 -890.109558
240.617691 362.997864 -963.003113
94.502762 283.090057 -1440.718750
280.576202 431.209259 -1448.480835
193.987137 569.431946 -974.817871
213.925995 794.088623 -884.894836
75.458611 516.449158 -1401.956421
279.074799 804.055847 -772.301819
268.332672 482.930847 -954.197021
194.376740 324.771484 -1420.462158
-38.435062 395.287170 -989.202820
378.845367 293.156677 -1410.657104
221.027557 781.501648 -915.236877
294.743530 561.177002 -984.049866
390.512268 570.464905 -1415.244873
198.736099 497.878174 -1413.828491
397.229980 485.557709 -1412.989990
180.703094 504.480621 -979.901672
99.690918 864.555725 -653.120605
84.754410 305.532501 -986.302185
-36.485710 370.198456 -1006.637451
266.238617 534.340820 -1402.971436
226.764740 200.619339 -1408.752930
151.942902 834.507019 -743.023865
151.100937 588.653503 -1012.037415
422.656372 566.227478 -1432.083496
-12.862889 362.259064 -1006.165039
301.500916 600.475464 -967.749268
349.362732 747.432495 -1437.251343
241.499802 787.478638 -858.228210
-41.875015 841.620544 -723.503967
-7.893667 629.976257 -1039.245972
191.801651 834.536743 -704.181641
156.581161 462.132019 -976.648682
-3.398825 460.878143 -986.165955
276.591553 630.085083 -996.078064
161.544510 707.121399 -1026.520142
358.458282 480.847198 -1422.457153
106.002769 819.136536 -789.074158
17.976349 835.339722 -733.684143
229.421707 198.677490 -1425.031738
496.295105 468.377411 -1404.545776
-11.932170 392.400146 -993.568298
352.805542 559.431335 -807.451721
386.263123 342.919495 -1419.096069
149.222351 795.448730 -883.629822
176.874161 313.334869 -1426.386353
125.962372 433.474823 -985.583374
-56.314285 424.625519 -1482.452393
235.570389 582.957825 -1368.097778
349.705780 465.957825 -1434.856323
45.804520 825.295166 -781.211975
199.975830 799.602905 -832.199524
238.375229 796.366760 -843.740906
165.058105 816.683838 -768.368530
168.679779 492.246185 -981.941772
55.351776 846.325684 -707.875732
45.139706 466.822906 -1014.382202
229.318909 246.473007 -1413.411255
107.993881 495.346466 -989.332825
422.073700 362.362030 -1417.632690
48.039009 799.432495 -891.843079
46.938187 395.931854 -982.755005
169.209091 473.141724 -986.407471
311.320190 449.589355 -954.707336
407.684235 410.175659 -1418.203613
-34.930313 431.424896 -1455.973511
122.309959 833.165649 -717.530029
294.828003 532.687439 -1448.535645
108.303078 291.252533 -1436.187744
-22.065838 836.980347 -766.303101
40.221436 879.647217 -665.638428
387.718750 523.704651 -1413.943604
12.056953 812.760132 -819.342163
284.053345 238.879089 -1409.922485
135.627609 314.889526 -972.438354
340.296753 357.196777 -1404.606567
202.529068 802.369202 -833.717712
-62.649879 781.982300 -881.228149
132.503799 827.652649 -754.119995
141.783417 455.771698 -1447.450928
261.510101 546.494751 -1385.239380
345.765930 708.418762 -1472.010498
129.154526 403.996826 -1454.847412
195.473541 784.937927 -933.703247
38.542789 813.546875 -808.189209
107.083527 815.910217 -784.225891
-73.113869 407.051636 -1454.979126
-57.066643 807.190430 -807.226013
545.245361 506.224213 -1400.695068
153.116455 479.327728 -975.284790
-22.144108 581.057739 -1502.468994
-5.198614 841.673462 -798.583679
278.136780 383.725800 -978.521057
48.375137 805.727051 -843.009277
330.483856 287.575562 -1415.321411
305.605347 389.026978 -970.490845
190.195984 779.479187 -904.295105
251.737976 294.330658 -1418.441162
220.612900 419.439453 -980.300110
-30.346157 567.282166 -1004.700073
80.158722 831.347961 -770.568909
241.516235 177.794006 -1386.353760
23.666325 781.031982 -917.163818
208.596039 192.229309 -1403.392090
125.548599 821.185364 -786.487427
174.790619 707.928650 -1005.602417
-54.897411 472.621582 -1456.474609
172.180847 775.990540 -883.982544
171.467438 228.832993 -1404.151245
69.980042 377.043579 -974.078857
1.386325 789.535522 -893.967834
119.287926 352.632416 -1459.448486
448.807434 439.623657 -1404.601318
269.013489 634.310791 -991.014343
81.289192 527.592773 -1464.329224
329.297882 530.746643 -1443.338501
170.534988 518.150330 -999.387512
125.770256 804.329468 -837.370911
190.531555 788.579712 -912.026184
221.236221 900.167053 -1495.033569
178.157379 370.720367 -975.519897
197.489655 353.951263 -969.038086
301.102051 433.202972 -955.835266
450.117920 612.896484 -1421.306152
202.879242 866.692627 -692.723694
17.864836 857.968567 -715.020142
53.934448 850.992371 -692.416016
128.751556 506.807770 -988.247559
224.015427 848.502136 -720.412964
516.740479 536.690247 -1419.887695
255.419357 465.342194 -1457.188843
260.680939 783.393433 -1420.032715
9.842419 489.477814 -1449.096558
33.670918 869.221802 -702.546875
-8.121099 390.806702 -1005.837402
18.745161 824.791809 -783.246338
272.800476 609.919983 -1489.164429
335.575928 497.834534 -1442.316040
16.543261 406.971832 -992.917664
-14.480894 501.808105 -1466.101440
365.666718 296.634430 -1410.090210
74.264030 810.032288 -818.067261
45.745377 394.603119 -1459.499634
246.955429 271.566284 -1407.556274
119.938881 452.611542 -976.495605
197.077332 675.026062 -1014.910583
243.312927 448.004730 -1441.807617
201.519547 505.289703 -1331.503662
15.000464 486.891571 -1469.735718
265.651611 690.287842 -1435.390991
78.421440 515.244690 -1389.263062
111.591095 294.079987 -1451.283813
24.710796 439.794891 -1003.078674
408.506439 507.431274 -1413.693115
484.577789 482.806213 -1414.396240
276.445221 590.015930 -983.289307
14.748290 599.953003 -1007.293823
187.945862 291.460541 -1398.646851
215.129257 765.375549 -1417.023926
115.394226 491.866669 -1471.616699
147.371536 820.620911 -787.339966
246.656799 288.767120 -1408.665405
330.904999 371.807037 -1435.271729
13.248181 760.567444 -937.490173
-33.395760 420.812103 -998.666992
5.774080 857.232361 -699.719116
272.954254 707.239136 -999.293701
-39.349731 540.379333 -1488.073242
-18.194014 806.726746 -812.217712
107.459816 830.664429 -762.205322
354.333740 559.805847 -816.550415
92.876152 363.378601 -1454.276978
175.005371 484.417084 -1461.324097
13.592400 422.751343 -1455.483276
140.095917 766.524292 -909.784790
178.825745 314.602966 -987.540405
41.195122 857.910828 -689.239624
112.315872 497.990540 -1482.274292
149.769104 818.838867 -788.766663
215.375061 793.702393 -871.077209
264.496246 244.144714 -1396.867188
188.412750 414.533752 -980.275574
331.251892 560.061218 -795.585327
135.982834 794.908997 -837.279541
255.045517 518.900330 -1410.193970
247.627670 637.054565 -1467.387573
313.434479 411.970367 -974.890991
-2.522256 812.970093 -808.852783
79.899582 706.795288 -1047.499756
197.081329 792.421509 -823.791931
-60.932316 531.077454 -1507.351074
284.127563 790.249023 -829.865723
301.606598 254.728241 -1414.333008
-3.348885 377.972504 -995.100647
133.368774 402.975220 -958.192566
229.119263 366.086334 -968.293457
156.301498 266.330994 -1437.386353
49.547577 798.903381 -859.451965
234.205521 786.260315 -862.693726
115.879509 795.056458 -855.146912
56.174934 419.594757 -967.998413
329.843292 935.407166 -1507.659058
103.181732 812.345520 -825.009827
80.111305 793.506592 -858.801514
174.171844 816.569153 -757.803162
301.672668 401.546692 -979.759827
18.878836 348.614014 -1020.285522
26.375191 518.967957 -1005.785339
125.813141 474.640991 -983.124756
475.872955 554.853149 -1433.284912
129.803589 378.885193 -961.148926
110.837799 356.103699 -1447.866211
62.179993 371.844452 -1461.439331
35.121410 339.532745 -1019.166382
356.326538 562.901367 -1423.971558
80.970833 845.311340 -705.789612
297.693451 717.117493 -1485.727295
305.850464 402.360046 -974.284485
465.416931 446.564911 -1414.511353
273.578522 411.673370 -972.645569
195.746155 345.370270 -996.323242
172.061417 498.266418 -983.299866
365.712708 864.737366 -1491.649292
71.878799 472.641510 -1396.192993
-28.988386 657.368347 -1054.565796
283.839569 546.004272 -1380.238525
41.585110 649.477722 -1012.267517
341.318512 333.396057 -1399.877930
222.729004 816.842590 -781.021973
-47.171490 656.241455 -1057.169678
144.300644 437.262329 -1463.475830
113.280876 667.253601 -1034.321411
130.961136 306.229431 -1422.560669
238.313492 493.712341 -983.070557
323.874847 573.953491 -975.464111
96.100479 763.853149 -927.151245
230.851913 712.109924 -1458.483887
10.646729 357.321564 -1445.057007
-1.150058 814.137268 -824.121643
274.421143 493.562408 -975.688660
28.584827 477.888153 -1011.591980
422.405518 439.399719 -1408.841431
33.199188 675.366638 -1053.059570
323.555481 540.125427 -1361.769653
161.751480 623.031006 -1396.191528
286.628510 679.382141 -1464.192261
172.010376 788.989563 -837.201660
213.488861 363.721863 -1314.988037
18.810013 417.980530 -1426.635864
283.407837 388.012268 -978.352356
141.949295 862.801147 -687.662048
89.424973 794.046448 -885.973572
157.154831 799.055054 -886.846802
229.614441 815.186035 -767.431519
254.802536 334.582886 -1407.045288
502.533752 578.956177 -1419.450928
-21.696692 812.943420 -785.113586
256.916351 818.390320 -796.733704
264.439819 568.926270 -1464.316040
461.686035 524.235962 -1394.597046
165.872040 756.742981 -1017.036377
236.402359 411.424255 -1402.254761
289.899628 521.645081 -952.692383
306.653290 316.291504 -1427.125854
76.673431 490.864563 -1410.635498
156.957947 629.500610 -1011.535095
91.441391 789.208923 -852.550903
79.501556 336.082428 -1467.268921
-67.041489 819.628357 -778.369446
413.808411 585.058899 -1429.845581
441.537079 358.497681 -1410.294067
17.493010 803.884277 -857.926514
227.930634 423.020691 -960.675659
233.076035 793.587280 -811.087036
243.410217 820.709045 -761.398193
104.293304 394.752106 -976.099304
373.366180 491.587036 -848.618774
185.731644 493.705078 -996.683655
193.343979 448.998840 -979.027832
122.664948 831.770691 -765.256348
84.878906 803.244568 -844.893372
-17.481386 461.944336 -1450.168701
-1.645424 451.467590 -998.819519
130.024170 506.028992 -1467.461304
351.219421 538.360718 -1417.147217
199.881470 259.921936 -1413.733765
151.064514 764.308655 -917.739014
242.390717 795.841614 -820.858948
377.393890 639.175049 -1429.291382
43.602303 381.486328 -1475.560425
192.154129 803.464233 -816.893921
192.126587 690.363525 -1005.344666
-50.569717 409.711029 -1424.004883
187.311127 486.202362 -978.677490
63.272949 799.793030 -877.378296
147.161118 791.331482 -903.441589
-20.171665 623.881714 -1014.751343
235.612564 584.430603 -990.099548
38.942890 790.522461 -859.861938
263.911835 552.281494 -989.259033
503.012115 450.866913 -1399.489258
-11.196340 823.542786 -756.727844
-2.676379 341.132782 -1453.933472
178.517517 816.305969 -793.461792
178.221664 834.452148 -719.123047
342.320068 312.828857 -1418.755981
16.644516 695.909729 -1068.795288
361.557770 404.126770 -1432.976196
-29.254784 824.752014 -750.473450
38.673885 821.380432 -765.097595
101.478432 476.052399 -1002.750183
160.747177 789.522522 -913.522156
326.813965 288.681305 -1412.600830
23.857389 421.808258 -1477.831299
247.684357 482.148926 -1437.005859
79.969513 602.577820 -1022.994324
246.470474 773.250854 -926.123962
167.393188 883.933472 -683.080505
125.914886 338.545837 -1443.658936
192.916260 814.749634 -770.609680
283.893890 359.102325 -973.260864
169.332291 679.563538 -1014.669434
213.411865 380.253601 -956.979126
191.983444 806.232727 -819.660095
212.730698 253.918076 -1413.650024
274.018036 498.105225 -966.107849
294.051025 934.815552 -1496.213623
280.306580 664.808960 -1492.555542
61.270992 793.917969 -839.461182
516.837463 497.530426 -1413.287598
357.935425 321.995880 -1411.316772
118.376930 623.873779 -1466.072876
65.800758 532.208374 -1025.145386
386.186401 519.545898 -792.061584
247.071899 265.634369 -1403.263794
77.038979 508.140717 -991.487061
-22.795115 367.532196 -1001.024292
418.662048 458.365723 -1426.775024
334.360931 636.404785 -948.824890
294.487823 436.864044 -948.799194
18.524336 823.437866 -767.540588
-102.848511 436.577850 -1480.200195
85.468361 681.258911 -1040.764160
239.047150 534.561584 -1412.796021
194.881973 211.568130 -1411.144897
486.315308 462.512695 -1422.835938
49.337936 832.165588 -734.874329
191.326797 331.504059 -1432.017822
158.978104 660.665710 -1018.829468
396.620636 451.492981 -1426.805786
244.547256 397.211853 -963.056824
262.108185 789.630615 -892.113525
-4.469460 402.306976 -1465.271729
197.472809 513.684021 -1370.133057
213.035324 818.141663 -779.415466
452.232758 478.916595 -1379.032593
277.506683 243.348312 -1410.953125
107.793121 339.064087 -991.117859
353.460205 392.651947 -1438.336426
516.904968 477.815399 -1423.921143
39.388561 836.815063 -750.801514
94.170647 380.301544 -1458.687012
301.035767 518.772278 -950.112488
128.970535 800.475281 -848.342285
366.576843 760.860229 -1452.699463
111.152710 242.855469 -1417.274414
458.123077 504.217010 -1399.235718
-66.694641 414.883942 -1428.737915
-26.678499 587.471069 -1008.592896
157.081161 802.472046 -828.734558
74.846748 372.648621 -1455.731567
323.541046 377.652344 -1427.383301
203.213684 546.121277 -973.283569
150.898544 787.963074 -885.294678
294.344452 434.834808 -963.871094
243.385010 612.347534 -1478.656738
102.656754 451.986359 -1449.416626
133.799118 830.245117 -771.443848
342.794678 553.853455 -1445.046875
66.882957 475.426178 -1432.581421
193.956467 234.233505 -1415.298462
72.387642 831.511475 -748.131714
186.077515 824.619019 -765.312012
-0.632691 664.023315 -1057.644287
228.794235 392.443848 -963.290527
166.781799 204.016373 -1414.152222
378.891693 599.940735 -1427.200928
96.106728 456.639648 -1465.334351
91.243896 354.049316 -979.998901
16.367554 812.174805 -855.131653
406.666168 314.257477 -1411.408936
-74.732132 801.457092 -824.649780
439.469574 540.901306 -1374.835205
235.421234 553.098816 -1411.893433
-57.333172 773.241516 -904.599915
321.489227 419.058380 -971.083984
450.373566 522.113403 -1368.834839
95.936195 313.494141 -1441.454834
326.749878 810.133057 -1459.308472
212.067780 353.183289 -962.283875
317.302643 701.159729 -1474.833618
-10.724249 351.968689 -1018.215210
313.177429 629.108826 -1423.128418
272.550110 549.462402 -1441.964722
255.973328 228.121323 -1393.897949
323.771515 272.906738 -1410.678589
25.189693 790.365234 -894.856750
238.331100 263.441498 -1379.200073
78.410141 406.239807 -975.826660
354.681671 555.991760 -843.912537
168.715164 424.457825 -955.448425
57.138519 363.523773 -1004.292664
186.830292 811.989685 -766.393250
228.981415 512.634216 -968.357788
68.179352 447.138489 -984.467590
-41.336330 462.151367 -1003.228210
258.123138 405.379852 -1429.685791
157.517853 803.566467 -851.521790
59.372108 543.520813 -1000.747070
245.388550 437.698669 -953.207703
201.138199 768.694214 -914.219971
260.889160 427.434906 -976.536987
283.786255 527.427063 -1419.862793
57.742516 820.724487 -763.070374
44.681225 825.006714 -761.905029
330.831604 636.892212 -929.902161
267.572693 773.431091 -901.835449
212.236618 788.936707 -865.357056
231.664093 701.224304 -1007.335449
114.430244 871.711304 -676.025330
492.506714 490.220978 -1395.665039
508.548737 470.816284 -1407.143677
118.971764 505.717834 -1465.741577
369.620972 462.908813 -1431.421753
160.564072 468.921844 -1459.001099
-31.353306 426.166443 -1472.116333
168.524399 788.418701 -857.495483
65.130409 396.776764 -1476.287964
183.905975 805.926880 -811.489441
162.732849 727.354309 -1030.389404
119.471375 794.805359 -865.072266
-50.537609 486.086121 -995.303589
476.618988 573.837708 -1419.470215
197.297775 821.026123 -752.326904
214.074188 324.287140 -980.475220
349.833252 683.196045 -1490.550537
301.641510 497.329041 -964.671082
277.482269 508.614899 -1457.528931
161.250717 854.528931 -697.661621
264.721893 356.651367 -1445.131836
178.455414 302.289551 -1425.334351
80.183624 379.336151 -964.839722
207.718140 363.919250 -972.989441
-9.426242 645.659180 -1546.053833
291.608673 419.516754 -1438.340942
42.444725 437.487457 -1463.239136
432.875031 565.274719 -1427.256226
166.793961 347.905609 -1452.805786
258.533234 536.438354 -1430.503418
-8.646089 531.145935 -1006.255920
322.131042 389.964722 -1436.352295
76.722504 810.711670 -839.936584
336.458740 481.306488 -1423.300781
229.722321 700.169739 -1463.187256
3.165466 862.732483 -713.753235
378.628387 516.589905 -1396.102539
57.981602 344.541168 -1470.924805
128.619339 785.658997 -934.824097
246.805054 604.069519 -1406.122437
193.622314 199.827927 -1409.916626
359.992950 606.184509 -780.753662
35.931576 536.790588 -1008.009766
278.668640 813.006775 -761.319397
222.662430 448.044373 -978.491211
213.272278 553.701355 -982.064941
345.528137 841.771912 -1477.167603
491.455688 562.262512 -1425.529541
-49.064007 809.287231 -781.372437
230.556137 786.967468 -912.662842
46.864193 801.857910 -852.971130
96.119606 811.750183 -819.941711
138.445404 769.764282 -900.948425
236.028122 789.420227 -888.759094
478.864166 485.511322 -1408.412964
-55.912331 770.497070 -931.271729
89.948776 839.044006 -722.398132
-3.776004 795.805359 -874.958984
43.702358 383.629395 -1447.949707
61.455620 363.150421 -998.395386
152.050171 795.812988 -891.530090
427.419250 520.490479 -1382.847046
96.003601 506.380676 -994.052917
220.393311 853.675232 -709.165100
75.559715 411.056519 -964.737976
101.667412 801.694336 -869.237488
190.630386 865.029175 -678.204285
174.832611 850.717651 -679.264343
268.015808 448.088867 -1444.958374
162.235031 655.582397 -1010.539917
165.527542 689.529541 -1029.110840
300.845734 399.527679 -1449.950317
107.807961 381.222931 -962.425476
196.579834 415.365509 -952.788818
262.466675 722.697571 -1456.125977
174.533569 829.743591 -722.511780
48.872124 364.680054 -1473.339355
203.189774 350.439117 -974.487061
89.525795 826.099182 -760.155945
59.910088 877.561523 -675.426208
110.357368 332.963470 -995.005554
59.606621 484.274200 -1462.229736
120.273445 435.283966 -973.886658
42.758663 399.447998 -1005.169983
218.058640 539.713440 -978.132446
440.098389 361.557465 -1417.512573
137.370895 827.555542 -770.728943
368.875122 838.388916 -1503.717896
-66.766273 387.915863 -1485.446289
358.091064 339.960632 -1420.269897
27.153891 863.315735 -681.375793
161.212723 470.543030 -961.057495
305.883331 426.355988 -1445.569824
103.615570 788.154480 -889.163513
166.877747 380.246582 -1446.961548
96.978378 734.997437 -1034.871582
140.949219 793.335266 -880.334167
305.458832 416.585815 -1443.770020
68.228111 799.686340 -822.548401
164.499863 705.841614 -1018.937988
-16.330835 858.642090 -694.298279
271.266235 475.986023 -1426.549561
83.339989 464.855865 -984.229370
-79.312286 349.909851 -1455.413330
355.875549 278.047882 -1416.632080
186.289276 852.462769 -692.523010
-19.187870 862.920654 -677.064148
278.698853 781.517151 -858.072632
-12.409733 333.117981 -1443.019043
322.798431 451.863434 -969.630371
-7.979599 370.367310 -1451.763672
228.178741 410.184479 -1353.719604
-64.161621 615.935425 -1045.396973
-63.651382 812.424805 -800.611084
349.817108 526.336914 -972.866394
369.042053 536.032227 -1401.295654
3.515968 304.942932 -1439.439087
4.806216 433.160980 -992.829712
283.553955 629.216064 -1428.213745
312.947784 406.797150 -967.633118
352.631104 273.773041 -1419.651611
173.362534 679.592102 -1026.397339
437.871826 523.161377 -1396.540405
267.871613 300.882080 -1421.879517
103.475548 385.431000 -974.560608
133.008530 317.146271 -1439.011597
-48.750896 468.494720 -1430.778198
141.185791 424.257690 -974.201721
294.979034 371.018402 -1427.184204
450.630768 369.198914 -1419.503540
-15.686013 867.520081 -690.188904
77.117043 791.576111 -898.935547
-23.111874 409.176208 -1390.519653
-46.587791 371.984833 -1447.873291
308.731842 719.431335 -1477.290527
194.664215 796.660950 -843.299438
286.565552 370.694672 -971.770142
329.571381 551.513000 -1409.847656
131.452164 369.948273 -1473.496094
-13.417443 826.921936 -764.913086
274.611298 435.241028 -1450.039429
95.013100 537.524963 -1456.347900
300.769043 430.992981 -962.122803
435.752716 558.839050 -1436.605469
-28.671400 552.783020 -1016.327576
155.790115 571.412598 -993.791077
222.834564 771.984863 -904.860596
198.043167 723.044189 -1040.366943
358.612274 696.478027 -1466.861572
226.601822 346.537476 -1419.197876
200.835464 823.732910 -757.345642
229.535202 566.189209 -1004.284851
233.729218 808.457825 -788.054810
128.876801 345.399902 -1442.809814
355.907013 351.670807 -1424.625977
194.036774 332.706848 -985.314148
200.997620 255.301407 -1433.746826
239.631500 352.710968 -994.857727
210.127396 397.143768 -971.110596
28.667570 631.064026 -1490.451660
-46.956505 829.952759 -763.491394
-46.596325 418.572510 -1414.386108
-64.541893 771.166565 -947.109070
210.935455 319.005310 -1419.245361
170.765350 453.845886 -987.882507
406.292694 515.635986 -1399.448853
160.643433 812.085876 -835.330444
50.273518 846.992249 -701.907043
229.028366 422.851013 -952.425842
247.596512 230.245636 -1403.852051
520.469116 497.018768 -1410.668213
88.780434 602.626038 -1021.312988
19.678425 803.689758 -862.233948
237.201950 677.954163 -1016.501831
87.148582 786.899048 -866.925110
125.570236 875.263916 -664.770569
87.433899 812.249268 -781.883972
-24.840855 790.570068 -865.642395
393.942017 620.994324 -1427.094971
16.312012 821.427490 -805.377808
31.872869 688.021057 -1046.059204
183.724380 334.810791 -980.207581
-86.559380 793.507874 -863.941101
25.588924 416.096130 -975.806152
310.694183 236.491074 -1401.456543
198.072845 820.045532 -742.074768
240.172440 813.059692 -814.723633
195.794357 582.532593 -996.966980
-58.282940 828.193970 -760.412964
194.641571 417.842804 -972.722168
102.101768 722.761902 -1059.146240
21.420155 467.572784 -1456.056885
165.925522 487.301392 -974.394592
23.337170 849.523987 -726.895935
414.494843 380.064056 -1397.598267
128.765198 818.916687 -792.586060
270.342194 691.360413 -1450.716309
157.784103 240.670929 -1410.837036
194.328842 590.611389 -1002.186768
17.014099 836.606812 -765.845093
328.688477 467.434662 -1429.856079
284.299225 526.281921 -980.623596
387.473999 306.947845 -1388.515747
198.640137 828.646301 -752.131531
132.526703 881.412109 -679.374023
323.720062 411.934723 -961.663879
202.857101 284.889374 -1418.132690
340.689301 705.044128 -1452.139404
206.359512 783.894897 -892.607422
318.690186 679.065674 -1480.936646
9.965343 354.190399 -1460.425171
207.344421 216.820679 -1407.819946
210.505219 818.407654 -757.398865
43.974152 350.888428 -993.930725
319.598450 515.126892 -962.719971
141.053925 337.403320 -1429.675781
77.716393 424.068237 -1001.989075
-0.770207 422.654663 -1373.267334
86.322624 314.242096 -1447.600952
-23.396049 801.170532 -828.308533
178.539932 222.193268 -1433.928101
-66.124763 797.226196 -844.839172
151.791748 609.326172 -1397.955322
232.977371 708.502441 -1004.114258
161.812042 384.908264 -957.699341
278.481506 396.772736 -975.687927
310.678589 857.278137 -1482.271606
101.700470 638.895935 -1479.027222
163.387329 785.219421 -935.477051
222.786316 336.394592 -984.038635
240.878784 500.050659 -966.248962
92.869438 832.646729 -733.648010
-4.486818 669.361023 -1049.260376
125.521156 790.969604 -877.967590
343.083191 339.333344 -1417.297485
52.311333 793.727783 -841.025696
289.078796 466.795288 -1450.143921
152.356857 772.525879 -927.481628
290.031616 473.225311 -1446.206787
48.602428 696.929199 -1040.147705
306.347778 257.962860 -1407.825073
9.739281 789.649963 -859.085083
61.346115 803.273682 -830.061768
46.088795 863.902039 -673.778076
290.616760 516.181274 -983.900879
357.634491 514.080872 -1434.529663
130.466049 550.916687 -1441.381958
255.978088 681.821960 -1475.666260
169.091064 348.427765 -1435.564209
187.716309 839.989319 -707.411499
-104.088783 480.993744 -1478.162842
307.284912 650.652771 -1491.721069
64.869400 317.737915 -985.307068
367.027679 496.111145 -1419.217041
-127.887398 431.942261 -1445.580322
413.457672 323.268463 -1410.702637
-7.885976 869.190979 -685.964966
66.905014 418.813019 -969.116089
221.512573 444.913452 -1329.730347
158.630905 261.935364 -1428.573975
157.887604 567.099792 -1000.699158
373.561432 543.277039 -1377.979248
-24.142090 353.623993 -1459.920898
44.167267 821.084290 -810.229309
239.695068 412.052277 -1441.856934
233.476089 494.978760 -980.946777
193.344788 435.784637 -965.470581
80.207817 508.057343 -1445.781372
235.574509 449.681854 -981.310364
222.010590 795.617004 -810.301270
143.213425 860.640442 -711.277283
269.217377 228.100021 -1400.359741
412.985931 461.240082 -1435.910034
150.840103 309.837433 -1435.209106
104.421783 461.923401 -978.582092
411.934296 564.179077 -1410.590332
158.632385 776.376038 -962.676575
171.293091 809.380310 -801.010254
300.105316 710.473083 -1440.381226
74.501663 543.734314 -1026.096924
223.999771 249.068970 -1408.584473
124.930809 665.156982 -1032.396240
164.000748 818.575439 -796.886230
92.850937 429.319489 -976.737183
-47.386173 814.298401 -812.250671
170.524948 716.550171 -1035.782959
161.593216 508.864227 -1311.249390
12.361274 447.014740 -1444.968628
26.802015 447.598267 -978.898132
103.292511 827.709900 -767.272827
172.009872 484.824982 -977.875061
324.011444 403.421326 -1431.929077
256.009064 422.755829 -1430.142456
7.964625 586.141418 -1497.983643
27.232805 710.421814 -1504.485474
169.638718 229.962051 -1415.100830
469.272522 488.627136 -1415.194214
139.509323 392.274597 -1455.725342
27.698795 864.632385 -684.197205
98.661629 800.802429 -898.995056
34.155640 351.397064 -986.981262
66.049240 450.368866 -1463.320435
221.271591 812.412231 -798.546753
179.820206 521.544373 -967.673523
251.257950 230.310806 -1412.175415
47.129150 807.541504 -827.148621
230.967590 803.207092 -819.177307
242.169693 838.084900 -729.026123
-35.601894 807.486267 -834.909363
121.748238 850.974426 -689.771912
43.798759 818.955811 -811.478027
69.753548 648.031921 -1486.757935
217.637527 289.095032 -1394.771484
190.473297 228.197021 -1412.762329
247.538101 435.049194 -1457.375488
123.188652 531.975525 -1419.587280
63.307014 832.111450 -758.223206
297.708221 348.926300 -1412.563477
78.168961 249.047760 -1432.507568
57.047955 324.867432 -1452.536133
233.272644 186.954865 -1402.675903
-36.518921 806.854187 -796.840698
345.714203 348.571472 -1419.719604
45.911839 794.311401 -849.503540
12.177330 478.758423 -1448.670776
61.368324 465.646027 -1006.954590
126.461021 703.858521 -1038.343872
8.237190 855.672852 -694.670593
9.585030 506.266571 -1017.999084
138.329056 741.666199 -1035.905273
283.910553 456.019501 -1446.150879
37.760067 637.675842 -1023.922668
381.248016 329.056915 -1396.104004
275.649384 544.453918 -961.449219
94.159058 465.672943 -1443.974365
405.686493 465.310059 -1426.031372
211.040390 358.530273 -978.129272
112.201881 467.068359 -983.760986
155.943390 441.078644 -1230.924316
523.313049 504.563019 -1413.975098
30.407043 341.535339 -1004.378113
-28.751961 548.422974 -1482.417847
124.070808 805.331726 -868.177917
278.206146 480.078674 -952.837219
-33.588123 772.868164 -932.531860
310.145416 302.908966 -1426.929565
42.061020 302.246216 -1445.569824
174.550049 580.967896 -990.822449
-1.506764 438.856506 -1475.843750
332.778900 622.272278 -1426.631470
197.346817 281.050018 -1433.582031
257.013672 568.540527 -1000.514465
170.011047 363.692230 -975.192688
346.549072 493.470367 -1436.346191
482.588959 585.210632 -1431.267456
468.001831 450.005066 -1398.500122
206.537262 374.978027 -964.298645
217.691666 250.020386 -1395.375854
-65.543213 784.109192 -874.613525
398.720001 482.620056 -1435.616211
71.403290 378.122894 -980.153564
227.300598 345.888184 -992.273193
515.599060 481.000122 -1398.870239
8.881691 353.497772 -1008.106018
279.892487 407.082428 -964.886414
58.689411 480.555969 -1475.440186
46.195332 458.565308 -993.331116
233.584473 352.135193 -1394.070313
70.972023 649.881958 -1502.439331
180.814453 362.876129 -1304.687012
81.735809 635.389832 -1421.032227
200.503479 840.744080 -712.586182
245.561935 771.458252 -895.695129
431.719940 445.067383 -1406.838867
-62.569180 517.217224 -1020.678223
158.760330 794.403931 -870.744934
184.688202 774.806458 -951.364990
107.051765 338.520325 -1431.784790
510.487274 529.723389 -1425.195801
20.186104 832.711365 -741.701538
12.891844 529.367493 -1010.148315
113.897552 560.198120 -1016.217224
18.737858 489.516327 -1444.502930
277.758606 409.173065 -956.991821
243.553131 410.047638 -968.604492
236.118393 345.268555 -1417.800049
214.829483 542.273987 -990.370361
4.052674 307.611115 -1451.738037
47.593094 419.046356 -1002.564880
182.324753 610.221008 -1002.666748
341.122498 459.381226 -958.249878
308.145660 458.327698 -953.807739
291.063171 659.930786 -1465.232910
173.538910 868.525146 -682.299194
-4.514481 364.914307 -1465.926147
340.954681 464.586853 -927.916077
130.413986 357.949005 -995.143433
418.450287 616.482056 -1430.310181
350.841400 378.831726 -1423.154297
60.356125 475.521393 -1388.368896
318.224976 289.403351 -1411.682617
-32.744205 797.578979 -844.173767
179.767426 601.347839 -994.652771
294.115295 408.879181 -1438.301392
-45.049019 821.467773 -762.987915
161.094604 458.995544 -1455.015259
370.115540 291.636597 -1411.873047
419.874359 505.264587 -1371.664795
42.621265 703.805542 -1063.197998
185.303101 230.854996 -1416.242432
118.123566 824.958984 -767.598877
257.726898 230.880524 -1408.266357
137.103851 796.377197 -829.251709
59.606712 274.749481 -1444.135864
118.446289 440.862457 -976.428040
409.219269 339.185059 -1415.307495
164.239273 227.385773 -1417.079468
139.037628 813.005066 -810.351379
209.356689 359.133911 -970.014160
301.948120 430.417114 -1440.132080
142.663467 557.715881 -1402.632202
327.920685 637.017639 -1431.245850
163.295700 803.887634 -794.323120
-19.392466 786.730286 -864.889160
330.566132 379.242462 -1437.828857
123.809479 471.227020 -979.125122
155.040024 520.841187 -1006.915955
327.476776 576.038818 -1389.077271
240.221375 823.163086 -736.656982
7.152662 416.367584 -1467.677979
489.843323 450.657501 -1409.305054
329.802765 460.921692 -976.336060
49.493519 400.536926 -1462.919434
193.718445 832.333984 -724.245361
107.876785 849.355835 -688.550903
209.775253 453.102448 -1415.670532
331.297577 410.078125 -1445.042358
118.867531 392.762268 -1473.761108
344.138184 507.901337 -1386.232056
468.108582 561.445251 -1380.249023
527.581360 502.141571 -1404.602295
89.825066 776.941101 -891.902344
109.386299 637.833496 -1020.524109
185.960495 454.802094 -956.359985
139.446304 806.260315 -836.292480
276.806549 539.795898 -972.268433
-21.534454 354.883362 -1469.651978
162.155685 285.744934 -1453.176025
158.694702 453.601898 -958.972473
365.110107 818.371582 -1483.474609
110.206543 873.296875 -702.194031
438.529999 380.654449 -1423.550903
250.556778 389.184479 -961.722595
304.178070 425.602051 -957.763672
139.530884 338.287720 -986.356323
116.124222 313.256348 -1458.632446
131.295242 509.407135 -982.420654
208.916626 403.763489 -962.404846
400.185577 507.826172 -1435.034790
-62.033588 561.737610 -1506.743408
54.390209 864.299438 -685.408813
12.052612 677.592712 -1034.002930
290.917480 392.009949 -959.364624
149.525177 790.765869 -911.960876
225.095337 824.672607 -753.396057
149.020599 724.028809 -1027.681885
216.400665 423.987518 -962.602051
-39.000477 471.511169 -1463.659180
179.269775 862.283325 -689.491638
220.922989 358.976044 -977.929138
96.661713 456.829865 -1447.756470
243.976379 380.041199 -955.994568
167.912033 574.190979 -990.896851
-10.872007 484.910522 -1408.573730
-0.669169 627.307922 -1507.301147
131.217392 301.514496 -971.709656
274.029938 541.995056 -992.264221
204.446442 379.707947 -1310.260254
482.949585 469.883820 -1402.334717
365.595673 878.885620 -1479.496094
398.891846 482.670227 -1419.639038
183.718597 819.036438 -782.710815
329.290161 866.333008 -1482.522339
229.785889 397.571655 -1435.495728
73.185074 449.961731 -1450.365967
215.513138 345.492004 -1417.512817
70.938118 316.035614 -1431.960205
209.718079 510.442291 -1414.050293
297.188995 816.947021 -1439.496460
266.756348 766.848572 -922.286865
377.164795 502.318481 -805.484131
191.392715 845.427063 -702.327698
137.022781 681.077820 -1004.233582
274.415283 232.678574 -1412.164185
338.963837 424.540131 -957.788147
198.048096 625.176025 -990.935547
67.343346 444.374878 -986.836182
139.727127 863.235718 -660.329956
356.868988 445.816101 -1433.770386
-33.708603 795.694092 -850.366699
154.546783 319.960876 -992.859924
301.735382 517.171936 -974.895020
121.550049 441.236298 -1476.666870
126.198372 799.478027 -823.136230
178.053802 856.588318 -704.998718
383.072113 542.665833 -1416.153198
61.062374 794.067566 -888.470703
92.114319 820.813660 -828.473267
164.670822 821.635132 -771.155518
312.954132 365.926147 -1413.268677
251.166885 261.665253 -1423.155762
45.469448 809.629333 -796.303223
139.550354 356.253265 -1460.102783
122.908089 793.983215 -888.615784
-33.094242 473.704315 -991.516968
444.071625 386.177032 -1397.180176
202.566559 824.875427 -758.074219
-63.616219 450.943939 -988.359009
275.249817 428.783936 -954.020752
6.874763 389.831818 -975.658936
209.626007 780.404236 -880.439880
86.971054 809.206116 -820.947021
-17.171299 535.573608 -1489.888428
436.950531 401.806122 -1398.268433
117.110649 781.521667 -901.898560
157.284515 834.340820 -719.677673
52.451607 847.957275 -713.792480
256.737122 448.047791 -963.262695
-115.099136 404.081421 -1462.155640
244.154129 844.775330 -722.456421
191.164734 332.297852 -1435.903198
74.436165 803.285461 -810.611267
55.175011 332.088898 -1453.662720
186.396530 853.492065 -672.424194
149.749191 378.341827 -1461.395508
283.296204 262.017456 -1417.330566
208.990372 853.479492 -681.178894
68.565582 365.458008 -995.067627
81.592957 285.892792 -1438.499512
510.492950 512.755249 -1417.806641
361.962860 592.733154 -787.789368
51.272053 414.786621 -968.228333
275.789673 479.118286 -1453.743896
318.625275 512.958191 -961.721008
131.069519 785.440491 -912.460876
498.781219 473.450043 -1407.496338
40.839916 309.102905 -1438.274048
135.025024 470.923553 -1466.610107
319.500336 279.833374 -1409.470703
37.736507 347.588440 -1013.395935
251.789871 203.435791 -1404.262939
37.014408 646.781616 -1043.940796
148.869370 789.963257 -852.644409
344.078644 556.284058 -1394.894043
-92.803513 400.412079 -1485.779297
19.085964 627.728333 -1505.037720
-8.202879 817.087891 -796.327148
418.684448 424.386230 -1418.711060
-6.004751 452.385773 -1430.679688
168.694122 487.654724 -988.966675
113.391838 825.704346 -786.997925
56.937485 461.795776 -1461.828125
227.291473 483.796570 -988.660400
186.154953 438.798279 -970.586853
233.088470 468.641113 -1432.938232
236.058746 826.565063 -761.159424
70.352760 571.068909 -1458.287354
306.410034 388.645264 -1000.584717
191.542084 404.813049 -955.006531
-4.434732 841.469177 -748.151917
-52.298557 834.666992 -782.077759
60.245316 274.085388 -1443.182861
219.938431 393.975128 -1273.943726
234.609589 807.094666 -809.834412
414.801331 496.973663 -1436.034790
27.488338 676.945862 -1510.218140
392.057648 509.258606 -1425.991455
353.723053 336.195648 -1422.995483
-23.202000 820.414490 -799.583069
104.073326 851.950012 -689.371643
253.327591 355.159882 -986.291870
144.430496 815.919617 -799.502502
413.687164 438.232788 -1434.050293
219.277710 402.474274 -958.571899
148.662720 840.931702 -718.469116
49.198784 302.632599 -1448.895264
350.507355 445.585846 -1418.669434
-32.274662 608.622131 -1506.363159
450.413544 522.519226 -1384.535156
179.662277 652.103882 -997.517395
456.042786 420.181488 -1413.296631
254.425079 794.625977 -866.579346
389.181915 493.147888 -1420.415771
259.750031 797.043274 -855.083679
-25.053333 681.583801 -1042.902344
110.893906 736.222473 -1061.354736
-54.194584 378.486267 -1464.334961
81.945221 377.622101 -1468.618774
110.051079 840.242004 -771.543396
159.142456 209.726181 -1417.447998
151.282471 416.390228 -1441.501709
279.781250 489.777710 -982.036865
-12.910765 467.202393 -1002.538757
31.151627 394.404266 -1465.391968
148.632935 699.146606 -1021.583252
228.924881 837.392761 -727.781372
274.492767 455.619354 -1462.989990
32.212269 597.439453 -1497.455933
275.772827 689.466919 -1010.894714
0.754931 651.150513 -1532.163940
79.078712 468.182373 -1004.728821
-52.406754 834.082031 -750.608765
-61.959324 858.661926 -739.285278
197.851395 777.025818 -910.035156
471.925568 468.355408 -1409.727905
170.341766 827.483032 -738.611328
-30.545313 443.154175 -1410.355469
355.796783 361.888184 -1427.412842
401.227692 498.086945 -1360.560059
151.918594 826.984436 -729.260071
99.130592 331.165710 -971.976868
9.145124 851.976013 -735.691406
-67.150902 837.358582 -737.428223
302.284698 519.095886 -1402.529419
80.091064 851.653259 -708.677124
191.878342 831.212219 -739.052185
303.468506 649.186279 -1433.845581
305.820923 447.932465 -956.360107
183.145203 728.247559 -1036.789429
205.386230 819.271301 -761.698608
450.241791 475.993713 -1407.953491
416.122070 416.631500 -1420.002075
197.472641 307.325104 -1423.022949
147.838104 816.463318 -772.621582
317.788696 567.175476 -957.346313
312.464508 443.249023 -1437.876221
202.124649 653.444824 -1008.476624
210.916946 639.451904 -986.379456
108.013039 877.877014 -678.279419
181.443832 293.349487 -1432.185303
411.393524 605.317444 -1421.423462
92.458725 556.263550 -1447.383423
404.957520 490.592194 -1427.705688
262.276581 468.284302 -967.033020
362.956390 644.892761 -1459.973389
151.449402 688.784607 -1025.552368
23.277176 796.514648 -868.731140
164.508087 228.670120 -1418.001587
65.305901 881.065002 -662.822327
370.076355 544.005127 -1410.781738
236.155426 781.219666 -868.020081
87.934296 369.430695 -970.009521
39.548752 385.527496 -1472.195190
20.822554 411.378754 -976.630554
409.006958 362.831879 -1395.370483
355.615936 628.631409 -1424.198120
104.973877 783.899414 -920.779236
429.117249 548.373169 -1407.139160
-24.397659 473.365662 -1408.329224
266.579559 274.398407 -1393.576904
-37.265194 547.175842 -1504.718750
173.237396 807.569580 -806.597351
104.198494 884.136841 -673.913391
52.732841 787.526611 -911.130249
175.374802 344.474365 -997.128662
25.709352 859.526672 -712.531128
57.256680 344.024933 -1454.931152
58.173752 558.691040 -1007.322571
32.397717 465.532196 -991.450378
204.964264 189.506699 -1409.932983
191.940781 380.648926 -965.633484
-37.715698 421.801605 -1456.801514
263.226990 595.213623 -1444.395264
86.934578 311.620453 -1442.152222
51.562290 458.488678 -1453.251587
156.143387 356.979736 -975.066162
283.185211 251.732529 -1412.662231
9.795382 826.855835 -770.713196
201.310410 351.739655 -993.807617
42.712978 648.530945 -1526.370850
82.528534 818.972900 -791.966064
204.392410 811.413818 -785.767151
162.925934 526.881653 -1002.363403
-78.144958 792.455200 -846.440125
363.167175 722.796448 -1460.403809
20.987217 348.379822 -1461.425781
-19.637836 806.588440 -833.229431
72.332108 347.538513 -1450.966309
-32.156265 377.984711 -995.216248
394.129791 543.021057 -1434.891846
119.590897 595.855591 -1433.869629
287.918854 395.233734 -1430.825195
149.773834 530.137756 -1395.111938
151.475204 795.441833 -850.685730
62.199081 325.423157 -982.992493
148.314148 827.137512 -737.183777
224.653168 827.306763 -748.476807
434.558655 551.729126 -1422.199829
235.182861 798.287292 -829.658447
81.133858 300.526764 -1441.130615
167.139755 783.695129 -963.262756
156.992569 279.753998 -1452.759277
361.078278 268.721008 -1411.447388
438.186218 494.385223 -1427.241455
229.887390 829.985962 -740.683777
259.101746 374.524292 -974.264771
300.310089 258.825623 -1417.721558
260.121643 525.762695 -1466.573853
105.988396 637.723572 -1017.112793
-7.535170 786.971497 -869.755798
83.100258 594.412048 -1035.591553
123.905396 394.640228 -1455.577637
214.423599 848.385803 -709.253235
190.090027 852.057617 -679.997131
277.568909 549.989563 -1406.541992
38.622223 820.634888 -788.353149
164.862122 372.812927 -986.702637
282.317139 199.900192 -1407.622437
177.809784 812.927429 -809.874695
203.493622 297.439972 -1422.720093
33.103722 582.385742 -1030.937012
198.035599 240.410309 -1415.246460
266.378387 490.039734 -962.978821
108.899719 511.190887 -1424.204102
213.026443 802.039856 -847.568359
3.532974 781.961304 -909.183044
38.486786 622.355835 -1494.125244
201.733231 377.636261 -1428.468872
373.863098 448.864075 -1440.052734
258.928772 791.206482 -878.484680
123.716484 828.564392 -763.708496
13.453797 731.644836 -1060.231812
226.034790 661.212463 -1467.698730
253.948837 832.888550 -737.850769
283.428650 411.094086 -956.348267
317.863892 515.501709 -1440.796875
55.320969 795.084229 -867.142029
130.155792 424.684021 -959.275513
196.959381 216.739746 -1398.608276
87.773575 783.647644 -929.603455
94.625908 880.085999 -668.228455
42.198307 844.134277 -711.894043
-16.026575 899.118652 -693.515320
176.247009 786.687988 -933.283936
345.969788 534.742737 -1433.789673
330.172943 923.669800 -1498.176880
334.126373 503.802826 -1438.624023
-79.543427 404.036530 -1476.822510
48.698971 765.411621 -925.191833
497.568420 486.756958 -1411.036255
242.503159 186.849487 -1404.000244
-41.450504 761.247925 -948.402405
168.924576 386.269379 -1440.912109
95.999962 444.556671 -1463.729248
93.212158 856.792603 -680.292236
387.130188 450.919739 -1438.866211
79.027191 379.264526 -976.404785
151.595581 620.860046 -1021.370728
87.450508 809.611267 -843.530884
-40.742096 845.448792 -720.644165
185.136627 195.082977 -1410.514404
105.156052 395.040497 -976.885742
119.797844 794.735718 -965.232239
9.059075 786.909424 -898.853088
336.298676 266.852325 -1404.870361
198.833496 217.304840 -1410.047119
165.191666 809.114868 -815.827576
146.994370 847.000793 -697.885803
67.821968 678.167175 -1013.011047
215.065033 402.453644 -963.068237
168.360291 801.712463 -854.397278
232.346008 619.359253 -1003.991211
373.147095 300.424683 -1409.635254
487.166992 465.831665 -1407.343262
36.103809 355.577881 -979.412720
256.310028 812.499512 -813.403992
227.233887 574.611206 -971.612305
53.679588 860.884827 -688.064331
20.601841 442.647003 -975.526855
-53.443306 567.240112 -1507.354858
148.228500 201.157074 -1416.001953
46.224022 332.339203 -1470.019531
176.686768 820.189148 -766.539612
203.011887 387.984375 -959.789673
199.879639 700.923035 -1429.420776
323.484009 595.861755 -965.851563
217.050888 667.761475 -993.688477
151.008148 607.224060 -1013.082520
81.040359 827.936340 -781.096619
77.394775 369.400726 -1455.689697
145.473541 759.232605 -938.213196
59.591084 795.914612 -884.931152
87.709015 865.650513 -672.390991
397.368652 387.706299 -1401.380615
221.904037 276.776367 -1403.420776
90.883049 274.559845 -1424.458984
198.200531 830.796448 -747.155029
-34.680206 432.499573 -1466.715698
235.800232 356.354950 -990.816223
212.259995 779.088196 -884.279846
284.675812 482.789917 -966.008362
122.724976 415.768341 -1445.648560
175.799713 240.309998 -1423.811646
97.963425 516.293152 -1443.616577
48.514553 250.964417 -1423.141602
257.465149 340.515442 -1414.712402
310.801392 517.020020 -1446.340942
25.580208 315.896301 -989.954956
439.817719 498.312500 -1382.841064
173.498672 579.408752 -991.169739
348.574524 416.947662 -1444.396851
481.893005 551.740479 -1382.677124
195.520462 802.742859 -856.059204
209.139496 450.940277 -1434.728638
155.307526 813.516052 -800.972900
256.257782 626.617798 -1497.402100
101.440483 401.804352 -1440.649536
197.780228 874.146118 -676.058411
-31.421125 592.014404 -1502.485474
168.908310 854.518188 -674.541687
73.208183 865.997742 -695.933228
34.834518 415.398224 -990.701477
202.835373 357.479950 -1363.611572
-15.329267 806.109680 -846.381958
140.676208 838.743469 -744.191162
299.316589 573.660645 -967.113831
236.777863 787.897827 -828.646179
141.625381 487.933746 -984.937256
179.790207 505.131531 -976.931335
177.343491 502.595764 -1354.945923
129.861557 721.018555 -1042.971313
261.359253 180.686615 -1395.099121
296.884979 543.554321 -1372.143677
265.900482 497.846375 -1454.902588
15.431354 623.586548 -1044.110718
-15.622797 391.809357 -991.525085
18.773073 796.006042 -886.649658
270.615479 704.972900 -1015.375977
22.178696 392.071411 -987.680847
86.821159 813.377930 -833.032104
323.701447 317.634705 -1432.507446
150.517303 270.971771 -1441.479248
268.710144 382.842560 -1436.858887
282.260651 814.244507 -1436.174805
67.490845 281.596710 -1452.449585
170.584595 817.852844 -772.710999
442.858978 431.311768 -1401.750366
58.148788 350.163788 -992.864502
507.306488 450.096008 -1408.953247
28.622171 503.289032 -1004.554626
222.924789 237.106583 -1407.550537
393.012787 478.713348 -1426.599243
242.961975 803.652100 -807.899597
266.519592 418.960876 -956.949829
86.162941 248.580475 -1433.650879
291.362396 596.565857 -971.537659
379.523743 307.710388 -1404.398071
366.132965 469.351013 -1442.714722
270.146881 405.237488 -954.292603
288.495514 613.522217 -982.644714
11.901380 675.180786 -1536.636475
-0.148044 861.116150 -702.951965
38.416092 300.519226 -1434.696289
59.608185 440.179169 -972.920227
241.151474 368.746490 -987.035828
34.707958 384.305298 -983.826233
-62.294582 789.698242 -837.610718
268.142456 523.981140 -1454.182861
200.549850 664.055359 -993.468018
274.152557 385.824829 -1445.350830
-8.569780 591.023315 -1008.026855
244.540756 507.875275 -969.162903
97.527557 792.262085 -908.197876
-20.805817 796.261841 -845.564270
-73.612679 816.549683 -804.038513
-8.610910 487.886261 -1004.527893
129.679199 695.199890 -1047.777588
41.295193 817.309021 -822.736511
186.469910 781.041077 -862.313782
-47.885872 398.530060 -1002.593811
314.649261 509.317963 -961.150635
260.797638 699.496643 -997.658752
85.291626 296.668976 -1459.306274
-17.316271 515.504211 -1464.184692
63.746086 507.593414 -992.716187
200.551132 798.588623 -872.433167
279.477356 622.000000 -1450.734741
257.100525 342.237396 -1416.481079
11.197620 457.655060 -1017.308044
-0.263135 577.238220 -1495.264404
35.692738 355.320923 -999.228333
109.569000 500.444000 -1414.076172
371.251465 591.109802 -1406.789307
188.096039 386.442322 -1430.250366
531.335327 480.852844 -1422.309204
248.722244 658.724121 -991.080322
174.092590 806.754944 -847.016968
279.537720 380.491241 -1445.663330
209.235199 342.204620 -1402.254272
-42.215374 812.453674 -822.910706
104.964851 670.645691 -1026.504272
211.581238 392.330170 -1420.858032
285.154510 299.368011 -1433.321899
78.375496 295.278900 -1455.110840
9.687229 815.298157 -820.925964
359.122955 493.154633 -1439.496582
122.255165 857.584473 -699.653381
92.161926 347.242889 -1463.468384
74.288803 389.723419 -977.735291
179.606567 374.301270 -967.174805
176.780991 208.719971 -1417.698486
114.902489 805.804810 -851.443848
234.748962 469.136261 -1446.057129
479.410034 439.832092 -1412.717896
445.718872 455.126465 -1411.989380
