ply
format ascii 1.0
element vertex 1365
property float x
property float y
property float z
end_header
-862.248901 778.393433 47.216576
-913.395508 729.037781 19.417358
-1140.173340 551.642029 -710.302979
-1152.777100 766.624329 -623.886902
-946.658691 698.331177 26.300207
-893.383423 769.166443 0.934490
-1013.579834 910.803467 -759.643188
-1220.863647 570.726501 -650.777710
-894.092346 844.573242 -235.289886
-968.018066 975.947449 -690.760681
-974.178589 943.775574 -782.807068
-991.645142 939.538086 -720.166199
-678.965393 890.531372 39.120850
-773.260864 788.791443 101.253006
-814.603516 578.093567 -346.768402
-1041.100098 750.300354 -775.690674
-1145.977539 765.348694 -605.802490
-1014.152893 1022.255981 -711.269165
-1129.228394 628.533081 -729.510925
-1245.703491 660.183594 -617.575867
-742.708191 632.873657 -419.967560
-898.537476 630.340698 -293.095062
-1041.817383 894.376648 -731.040344
-764.334534 625.952698 -381.617004
-811.722351 557.400391 -364.575287
-1182.231812 984.403992 -565.378845
-1013.861023 840.123596 -745.387695
-1071.607544 700.938599 -745.757629
-1117.250610 588.240601 -738.761169
-1027.746094 723.176086 -548.129944
-962.834045 780.163818 -820.956482
-800.356201 668.379456 -356.438873
-1323.797852 525.261841 -526.193176
-1163.063477 1004.247864 -620.433960
-1037.819702 909.187439 -726.893372
-1186.547607 1091.629517 -516.876648
-939.437561 714.786377 -1.610538
-799.275208 821.832825 15.803164
-1149.643799 1053.709717 -573.927429
-830.762756 536.723328 -400.137756
-886.759583 560.391846 -334.815582
-1224.870117 628.321167 -647.629639
-1001.896240 761.699402 -805.732117
-1184.029297 572.103638 -678.024963
-1167.015869 1023.926208 -591.429138
-985.936707 939.333313 -752.104370
-1176.560669 736.362061 -536.326233
-820.170471 841.914001 -293.340271
-803.734131 806.516968 -327.012451
-864.202454 641.927002 -317.753174
-780.575134 881.372925 -91.519867
-841.726563 595.883545 -362.074982
-1265.607056 573.647095 -582.834595
-828.286804 762.932129 101.014847
-1122.097656 900.866455 -661.770264
-1339.772583 564.289917 -469.569000
-799.039795 798.117859 -322.416046
-1144.349243 664.835266 -661.249817
-769.130493 559.336914 -442.787109
-751.654602 645.108582 -417.883362
-1078.592896 560.328308 -775.332092
-1080.844604 948.182068 -610.753418
-721.860413 815.835938 -405.406586
-1002.437439 893.545715 -742.791504
-838.614685 732.736511 92.540085
-762.520691 884.425171 -72.366562
-1138.468506 874.332153 -604.208191
-1071.802490 886.729370 -691.791870
-961.492310 757.323547 -196.144089
-994.962952 674.675842 -185.271652
-777.481750 617.703430 -409.947296
-1074.915161 851.818176 -726.896790
-1144.227051 701.922363 -678.931274
-1195.561279 1144.351074 -504.448578
-1017.381958 907.900513 -740.652283
-924.435486 731.740295 -253.786148
-961.589722 937.916382 -799.245300
-805.429077 650.087891 -353.912628
-955.136841 714.615417 5.555014
-848.268311 885.805359 -137.390198
-1099.921875 871.247009 -676.539612
-742.772400 904.823364 -78.486382
-1110.525513 873.606201 -563.095459
-1006.688599 572.874084 -216.662109
-1041.192871 571.781738 -785.512695
-899.521667 702.649231 -271.852386
-774.047302 582.606445 -396.863342
-1213.154785 562.690918 -659.354858
-782.297913 823.368164 24.120235
-969.849731 934.855713 -748.752197
-746.824829 598.205383 -451.720001
-1033.950928 696.731018 -718.671753
-993.735962 729.451416 -195.522842
-716.466614 766.575195 -386.153625
-826.205383 511.907196 -387.871948
-716.884460 629.207458 -465.325378
-951.074829 758.896790 -225.399414
-747.362366 854.545349 11.419337
-1134.798096 983.789063 -576.917114
-1074.993164 803.073425 -724.050720
-711.602173 866.193237 35.516060
-802.724548 549.604004 -370.662445
-1034.401367 616.318542 -740.382202
-741.068970 785.443970 150.983505
-1025.660767 810.968750 -764.664124
-740.161316 917.493408 -115.895752
-1153.531006 580.634644 -728.344788
-1143.498169 591.190979 -740.596741
-861.162842 585.718811 -344.437042
-770.164673 807.356384 71.976334
-1045.720093 770.513977 -770.747070
-729.666687 618.996094 -455.974945
-1050.528564 730.383301 -765.090881
-769.520508 632.403564 -388.290070
-921.903503 778.552490 -53.264877
-1128.780640 992.724548 -604.755249
-1325.982300 1083.158203 -394.711853
-743.415588 861.132202 -28.887054
-1118.544922 522.098572 -734.424927
-1216.879028 1001.071167 -480.252106
-864.476440 780.826477 -267.267822
-902.933228 838.030151 -226.176132
-1263.939087 595.911865 -599.487488
-834.468811 684.291138 -315.839020
-1142.090576 961.826782 -544.295349
-771.192322 779.817688 116.234695
-1114.843140 969.812012 -647.250305
-1083.671143 650.480774 -734.808777
-934.869080 702.644409 51.818668
-1107.853271 645.515381 -725.284485
-1130.182861 617.456848 -717.367554
-1030.509277 670.055176 -767.703247
-1250.908813 709.907715 -586.534424
-817.431396 767.966064 96.322884
-969.763550 770.970825 -206.201904
-862.332031 502.428833 -382.542206
-696.887024 732.129517 -417.899231
-1223.784912 663.262634 -622.945068
-785.732788 875.018494 -58.598511
-1039.813110 931.063477 -671.281311
-771.788391 854.766541 -48.068775
-1218.866699 635.085083 -541.649292
-794.320740 762.154541 120.389175
-1185.622925 773.785767 -575.869690
-728.805847 797.211060 -376.520203
-1094.072754 769.165100 -667.502869
-665.470093 924.007751 29.002375
-843.307678 744.602600 105.593544
-974.863708 1021.374207 -754.107422
-1112.382568 883.955994 -666.533997
-719.349731 839.094421 -365.568024
-847.970947 606.368958 -330.254547
-756.997009 904.283142 -109.984566
-1186.528931 970.033203 -594.497620
-1273.410522 544.070129 -572.083069
-749.647034 837.151367 12.896708
-1143.932373 770.001465 -628.384277
-762.440796 760.867004 -353.172699
-1188.356079 647.341919 -639.869385
-1163.603394 741.570435 -631.332886
-889.983521 837.917603 -99.535538
-770.949158 825.954163 51.288338
-941.463867 564.719910 -264.399353
-856.260254 814.575745 -72.888817
-979.141663 1042.857300 -726.044250
-1215.134033 1135.810181 -487.359589
-883.411499 469.251495 -339.259064
-905.786377 666.410950 -264.021759
-758.088745 597.908997 -404.768005
-902.400940 719.135071 46.113434
-714.587341 661.522644 -462.758514
-777.565063 871.751953 -65.274559
-868.788452 826.300232 -74.737213
-1281.234253 598.519653 -573.506409
-1200.665649 727.972351 -636.499451
-841.323547 545.138000 -355.423187
-976.824341 722.751282 -43.550228
-698.151733 933.653137 -47.587135
-978.054993 633.198853 -233.421280
-939.038391 772.420593 -232.067398
-1096.748291 867.265930 -578.794678
-769.197876 686.561157 -388.721802
-891.256226 783.915649 -38.023746
-1017.851685 726.556946 -800.988586
-1261.318848 637.081848 -563.404602
-1124.513672 746.140015 -671.824951
-844.754578 784.498657 -4.702772
-922.153564 693.972656 65.188637
-1210.794434 659.965881 -530.630188
-1024.506348 725.775757 -788.318237
-1101.287231 555.464966 -762.047913
-982.062683 967.404358 -752.479187
-1220.808716 655.261047 -608.328003
-794.174377 574.777771 -387.451324
-1308.022827 557.614075 -579.730957
-794.049072 608.950195 -370.679352
-1031.431152 623.823303 -823.569031
-779.604858 965.696228 -178.772186
-861.817200 475.015839 -405.876312
-753.903198 836.381409 7.679511
-1120.568115 807.262939 -678.751831
-722.855530 843.403076 40.599911
-808.243408 766.189575 78.202156
-896.939880 517.491821 -285.846191
-1114.644775 803.705566 -689.002197
-744.542419 864.045654 -6.805408
-953.208984 589.599121 -244.700302
-1012.523804 926.562500 -752.594299
-952.425415 943.234802 -703.482056
-1007.031738 675.639893 -671.466919
-875.990173 784.244385 -249.979797
-812.735901 595.918823 -340.407684
-963.534851 777.104187 -802.657288
-988.827026 859.656616 -761.535950
-1151.272217 569.336792 -724.581787
-1218.368286 582.403992 -653.116882
-916.069275 486.505615 -303.353241
-821.804565 701.368591 -306.740967
-823.310608 518.166321 -370.534210
-868.894165 695.219849 -277.353271
-727.322571 655.739929 -424.618988
-715.719788 834.111877 82.266800
-912.920471 789.054321 -68.553131
-858.101196 586.775330 -306.177887
-1110.288696 795.624817 -548.546204
-1011.580017 931.987305 -719.428101
-796.828186 747.841858 172.057999
-813.138184 767.636108 117.992073
-1068.711792 869.966003 -705.569031
-1008.716125 879.928284 -776.913208
-1034.158936 911.644043 -739.900818
-1038.729004 680.444336 -750.925110
-1300.661621 568.865540 -551.759216
-1225.236694 631.649231 -662.185913
-980.442078 914.090393 -775.992188
-1207.443604 993.528809 -454.557159
-1113.188232 556.322693 -726.426758
-720.581848 787.843994 -415.985443
-847.114441 708.514709 -301.462799
-976.629333 952.168762 -678.878418
-1189.470703 659.657898 -657.063904
-879.386780 749.596130 50.034550
-1003.535461 976.937561 -667.965088
-917.571533 567.771057 -256.435181
-1017.622375 658.607788 -692.834106
-704.912842 918.109863 -55.051556
-1104.782349 674.612122 -684.945923
-1321.365234 552.913269 -581.997681
-936.874268 487.022217 -281.869263
-830.112671 691.096924 -318.532288
-1280.637817 614.295715 -542.330811
-794.102417 767.309021 130.634155
-810.512939 865.395203 -272.767212
-849.376465 767.031555 34.906548
-839.447266 792.863586 -14.497933
-979.520569 815.667908 -801.599976
-1236.965576 596.588379 -632.220459
-868.941223 476.412842 -388.626801
-1205.888672 968.995483 -570.419617
-861.435974 819.967346 -266.021118
-907.367493 525.337952 -327.181000
-912.254822 731.495483 7.715290
-794.740234 541.318970 -409.120392
-993.457458 800.705994 -803.580078
-1038.418213 985.332336 -643.356995
-1021.017639 921.308838 -670.383301
-995.107422 968.266663 -707.338379
-1241.502319 662.490967 -608.976074
-782.994690 874.686401 -70.482361
-1064.419556 840.547424 -701.601746
-1034.057129 720.233765 -799.955566
-1066.174438 807.721680 -739.724304
-936.938904 734.742126 -228.469574
-788.451355 830.494629 18.895142
-1012.737061 773.148865 -803.784485
-1053.420166 916.712219 -695.255371
-1062.297119 971.057251 -628.384705
-907.404785 491.722443 -308.525513
-792.317932 572.600647 -402.488190
-713.202148 746.334961 -401.296387
-918.917419 838.104553 -218.736893
-1059.999146 909.823914 -639.588684
-860.646118 546.509033 -329.160309
-1307.502319 544.682129 -577.501282
-1010.860596 666.286316 -762.676453
-772.024658 675.117554 -361.295349
-1017.524963 651.738098 -759.458313
-935.139160 825.560730 -222.431702
-749.631042 917.046387 -100.520584
-718.283569 709.049011 -453.504425
-756.286438 754.656067 -363.951355
-998.777832 735.565186 -783.710022
-801.091614 842.508667 -25.696676
-887.715637 698.612793 104.269112
-719.188965 921.786499 -87.870010
-1150.050659 776.527100 -520.842834
-738.437134 844.468872 49.326752
-992.725037 833.335327 -768.139343
-894.177185 806.112244 -260.749786
-1016.113037 602.052612 -814.606567
-1261.040771 579.625366 -593.766174
-814.747864 704.486023 -324.645844
-771.212158 532.323853 -429.130859
-1215.033203 928.228271 -533.666504
-1006.354675 665.024963 -218.150482
-882.295349 715.000427 -269.305237
-990.745667 708.395386 -816.341858
-699.489990 744.816040 -472.482574
-1148.974976 1055.898438 -561.779419
-834.055908 595.128723 -324.535522
-773.584351 549.472595 -408.050903
-939.940247 579.693481 -236.460159
-852.868896 685.514282 -315.980011
-1066.169189 902.255676 -685.249207
-664.980164 881.877502 70.111542
-1195.261963 1158.812256 -523.413147
-1009.393311 990.599365 -717.803650
-1048.508423 619.206055 -777.441040
-1066.938110 810.897095 -748.366882
-786.076416 918.550598 -171.648163
-974.601746 739.441223 -210.724396
-963.919983 964.037720 -772.900391
-1116.261108 853.860901 -688.655212
-997.563721 655.736328 -830.584595
-954.241333 837.319214 -813.524902
-1059.443848 608.551758 -755.774780
-1086.096802 572.753662 -771.115234
-1154.621094 566.033447 -709.395020
-1081.540161 828.708679 -731.146179
-1003.176819 706.523560 -829.700806
-800.979370 635.503723 -343.112030
-1063.342529 645.303162 -764.276733
-952.684265 940.241150 -666.435181
-1035.057251 756.495850 -779.146606
-928.648743 839.692322 -213.772614
-899.002441 731.395630 23.986914
-881.329468 809.404419 -259.531036
-1146.282227 793.233276 -637.902283
-1319.474976 1078.895142 -433.986328
-689.262695 878.359009 60.023167
-690.795776 869.459717 38.456707
-978.227905 962.696594 -769.761414
-838.967102 600.875305 -351.350555
-1002.092285 739.403076 -178.122452
-749.460022 875.547913 -38.181202
-910.707092 565.534851 -312.878296
-1207.392090 1207.763916 -474.667694
-1038.636353 885.378418 -709.766846
-692.212280 773.802063 -420.531097
-787.189636 917.067627 -147.939957
-919.824036 752.486694 -9.916647
-1150.297852 590.403198 -720.791748
-715.333191 670.681152 -462.036102
-1104.276367 573.538696 -765.882019
-1018.286316 689.754395 -813.272949
-794.246155 851.124390 -49.060196
-1181.237427 1032.858276 -593.982544
-1064.075928 680.554382 -743.884583
-977.632690 940.166931 -755.572266
-901.451050 530.767700 -305.182465
-907.079590 807.322937 -70.943741
-733.459473 659.576477 -422.584137
-825.319092 729.538635 146.334991
-1033.312012 793.792542 -776.276428
-802.931396 800.252686 29.833265
-727.312988 650.414063 -465.336517
-1220.500732 753.973755 -578.186096
-793.966003 790.736633 49.966541
-698.692749 865.785217 20.172838
-1330.772827 574.709656 -548.797852
-894.622620 720.980957 70.109337
-1116.835693 665.320618 -708.745667
-1104.316772 576.855835 -744.776855
-1024.110229 681.864563 -787.936096
-888.699097 710.660278 100.614288
-847.414368 800.544739 -6.980246
-745.220337 819.293701 118.755989
-1148.998169 613.436462 -684.389160
-768.776794 577.244080 -412.014374
-1223.723267 753.925537 -593.633728
-788.807495 828.360168 17.885311
-711.066223 843.152527 -358.858917
-836.678467 803.919250 -30.255745
-796.679260 758.508179 123.714554
-1188.739624 1035.232422 -537.514771
-1027.831909 609.892334 -831.303040
-706.983154 671.946899 -479.608948
-781.195679 909.148499 -151.875534
-1125.069946 691.288879 -530.256165
-1015.984558 903.378296 -761.092957
-713.456482 875.429565 12.672123
-825.553040 675.627563 -313.274872
-812.092224 705.920776 -339.311310
-735.502075 647.125793 -452.095001
-950.353455 956.117615 -771.035522
-1203.895142 663.242737 -641.272461
-989.144287 845.130066 -801.363098
-1096.021362 801.739746 -705.822449
-715.861389 776.830566 -405.680817
-751.825073 737.651184 -372.088348
-990.670227 976.304138 -723.858398
-1029.890259 652.039856 -774.359558
-810.928467 510.718628 -421.409912
-1286.118896 640.456482 -528.157166
-1115.253052 578.851013 -766.844604
-814.699158 559.690186 -400.564148
-1130.083984 600.671814 -724.629211
-924.749878 722.671814 15.596331
-736.722961 638.454590 -415.300720
-1099.288940 851.147522 -686.700317
-963.500671 817.143127 -186.154922
-796.995850 810.150818 -311.317780
-1371.984375 766.251160 -453.667725
-1099.015137 583.509094 -747.451477
-760.081482 878.106995 -82.458244
-699.809937 875.285278 24.469011
-1169.926758 1093.034912 -519.739014
-974.598511 970.286377 -769.646118
-844.495544 686.405029 -295.265808
-1028.030396 613.363953 -826.557129
-1356.230957 678.038879 -512.998230
-694.395569 884.459900 54.142414
-868.914246 797.685791 -292.874634
-1264.589111 1172.940063 -461.412659
-1148.478516 864.866882 -635.999084
-816.385986 585.539185 -374.785248
-806.827209 697.225220 -340.475769
-757.786377 916.896545 -114.266785
-1185.626953 1007.784912 -580.045532
-938.979248 801.049683 -209.659027
-1207.584229 711.250671 -523.622192
-1295.492065 638.439575 -534.461975
-722.745605 814.143250 -380.371735
-1368.524414 722.072205 -503.822845
-985.952881 624.781738 -215.593018
-1207.626465 734.390808 -624.419922
-949.953308 794.658203 -180.008942
-1011.239929 784.526550 -796.009888
-910.044128 700.471252 62.748657
-1194.211426 670.522156 -655.481506
-829.314392 776.391785 105.846611
-963.520813 882.985596 -796.157104
-824.534912 650.216248 -340.479584
-869.369934 745.642517 60.551411
-1032.757690 632.214111 -790.911987
-683.884766 906.214600 -5.118933
-785.290222 780.258179 102.657906
-1068.621338 568.874207 -766.846069
-1100.330811 623.511658 -740.344727
-991.020569 730.089294 -821.796387
-812.923706 788.004395 33.101398
-888.097900 642.232666 -313.331635
-739.009888 896.759033 -70.801529
-750.279541 798.605469 160.968536
-742.604736 788.418396 -371.283051
-715.767639 683.101563 -445.414825
-817.797485 594.446777 -344.649597
-923.754150 753.176697 -27.488499
-1212.810913 1157.476196 -528.939636
-799.224121 787.068298 84.328545
-979.449158 777.903870 -182.558899
-917.559631 728.194458 0.721161
-908.860168 754.133545 0.142806
-1034.137817 721.016174 -776.175171
-728.798950 694.766296 -427.832916
-1284.505737 1162.210449 -463.640137
-723.200684 656.351563 -486.008575
-1008.155457 767.139099 -803.971802
-1055.695679 719.027100 -658.707764
-724.739136 729.681641 -410.454224
-860.917969 796.048157 -31.617373
-1218.400513 711.885864 -613.300293
-1188.804565 1043.569702 -521.062439
-942.678223 701.782532 -246.950409
-891.261963 743.529175 25.358917
-1029.052612 1022.420776 -690.899231
-719.634766 860.911499 89.384270
-1110.366333 747.007996 -529.270264
-903.826660 727.936401 23.377634
-785.539490 892.816406 -101.780785
-711.497253 917.358887 -80.615669
-956.009888 755.704285 -56.844200
-841.759644 755.078796 -295.541107
-768.504883 781.247620 120.008438
-1229.378906 651.000000 -623.408630
-795.615723 626.604675 -388.653564
-826.485596 596.353821 -351.526215
-848.823059 773.107117 51.737015
-883.941956 722.733154 53.923363
-1131.128784 1017.355225 -612.584167
-778.593506 851.563599 -12.714840
-1168.092529 790.066040 -545.131226
-787.051697 761.498474 118.611176
-1232.616089 594.796448 -633.170837
-865.303040 814.157471 -247.827286
-1096.150146 713.908875 -644.799316
-963.574768 756.848145 -215.126022
-832.912659 488.097382 -402.853302
-808.773621 910.046509 -137.863831
-1238.051636 546.855408 -620.184082
-1055.551392 938.584045 -708.048828
-734.197266 840.348206 27.353395
-968.923340 781.714355 -815.956909
-1206.035400 976.985046 -483.263031
-1200.550659 663.679932 -533.215088
-755.934692 854.872925 -360.307709
-914.691528 507.868286 -303.053497
-728.481323 902.258789 -65.933090
-986.069763 873.465881 -633.121582
-1028.276245 931.537476 -725.605469
-745.583191 810.504944 72.022133
-1134.278442 547.002075 -732.448486
-1131.578003 953.632568 -615.806335
-1265.161377 680.249268 -577.942993
-1096.807617 864.283142 -687.763306
-870.814758 776.206787 -296.679077
-757.149170 884.810303 -71.640770
-1024.738037 642.312500 -745.926208
-920.217834 584.498840 -273.009857
-971.274475 706.423584 -831.827820
-1316.646973 538.425171 -572.512390
-774.918640 803.116028 64.860619
-1237.657471 1221.889038 -470.680267
-817.386292 727.333374 -335.464478
-799.136047 674.128357 -336.573364
-848.505737 540.720093 -350.320038
-756.653748 879.233582 -77.800659
-853.106567 604.600037 -320.118988
-712.372620 833.196533 93.554977
-761.553772 872.745178 -43.246460
-819.626282 878.298584 -110.341339
-824.763000 723.085571 -332.740112
-1081.839844 872.396545 -681.235474
-1109.640869 817.659058 -668.470398
-1164.802856 1019.294739 -534.108643
-1014.971375 793.003540 -793.756348
-744.913391 894.202454 -70.534279
-552.772034 792.385864 -315.150574
-741.963135 826.638123 66.961357
-773.598022 868.004089 -52.314865
-1048.360840 616.372498 -770.242126
-824.558960 844.459839 -67.977394
-1032.166992 708.081909 -762.911804
-1048.788696 714.559387 -776.670288
-921.190247 726.694824 32.090904
-1081.663696 879.917786 -685.967346
-1084.998901 593.842590 -759.574829
-1008.693665 654.128052 -825.040527
-1027.796875 903.928528 -748.625854
-916.149292 814.142578 -77.472633
-854.976807 718.409607 121.470016
-770.190674 755.963440 -351.301544
-1101.436035 813.184875 -678.224548
-846.151306 508.771667 -375.017059
-992.047058 804.581177 -771.985352
-676.907288 906.348755 24.045948
-830.791809 879.916077 -132.805511
-896.124207 758.863586 -18.801567
-717.805054 847.115845 45.013309
-1047.134033 921.445557 -659.581665
-1033.331665 966.162659 -642.774048
-692.891541 902.161072 -16.724987
-751.426392 630.339600 -411.606903
-765.660889 783.762146 -367.750427
-1071.714722 844.132507 -596.297852
-1206.831787 541.650146 -663.798035
-838.183167 700.375977 -308.209351
-951.976379 793.871399 -206.017624
-1061.798218 650.527954 -768.224182
-1027.843628 720.534546 -805.738586
-986.778870 971.499207 -734.316956
-1049.002075 604.534485 -786.075317
-782.008728 647.326416 -371.776855
-1037.304688 651.911926 -804.306519
-1081.396484 686.749695 -749.197388
-919.680115 569.239136 -293.656708
-704.952576 698.370667 -426.379272
-1155.465698 858.097534 -640.391907
-1074.263184 921.326843 -689.412170
-724.604919 850.695190 47.925194
-1168.387695 1077.922485 -553.577942
-781.987427 725.660278 -352.379089
-796.165466 921.520935 -171.680969
-1175.295288 619.790039 -682.232300
-823.002502 663.430420 -330.776306
-1253.235840 676.607666 -537.318481
-1094.781616 858.643250 -686.170227
-875.544312 773.242432 5.206310
-1163.508179 620.144348 -668.517639
-1216.401489 1124.942993 -487.360992
-1183.214844 685.716675 -661.551025
-1100.730835 597.130493 -729.731995
-724.930664 876.594177 -13.316312
-893.020569 829.631653 -265.474915
-1105.506226 730.099487 -596.684509
-726.794800 826.179443 -364.738373
-1000.494141 658.003540 -825.315674
-771.916687 877.603943 -64.826317
-1087.961060 792.186523 -664.618469
-752.830811 787.861145 152.892456
-1316.631104 853.299622 -472.086395
-1186.258423 752.640442 -579.965210
-820.773010 765.981750 -318.816956
-785.816284 695.201721 -383.306244
-1059.953735 938.760864 -641.069336
-820.863892 752.501892 -321.395050
-732.889709 615.732910 -443.697937
-1100.231201 734.909058 -718.521484
-667.867188 908.120667 27.501717
-1040.884033 666.769531 -788.907227
-1137.320679 702.736450 -684.517029
-952.814575 717.281372 -3.877930
-836.866516 469.274658 -410.133026
-722.131165 630.709839 -474.815643
-714.624023 651.964661 -477.078766
-934.132141 736.340820 -7.444508
-706.304504 706.603577 -443.631256
-1121.344727 569.492737 -752.230896
-963.381897 788.411987 -818.662109
-1363.548706 855.215149 -482.503052
-771.295532 563.064026 -434.384277
-784.294556 648.846313 -379.697754
-703.592163 741.929688 -428.015411
-1202.369995 539.433838 -669.150635
-1124.068237 843.544495 -603.154663
-799.986938 764.699707 -338.059052
-1083.078125 851.844177 -680.576294
-1217.262085 755.841003 -564.827881
-924.199829 492.793365 -289.970673
-1007.847351 680.284790 -793.772095
-1335.275146 602.145630 -526.393311
-1057.409546 803.083740 -720.601685
-767.018066 599.785950 -412.122559
-726.112915 834.866882 72.596443
-711.799744 681.374207 -452.299316
-1124.621582 525.463196 -729.415771
-1004.035339 645.340942 -811.018860
-957.318542 978.347473 -746.416565
-782.898438 899.986389 -110.238266
-1056.562012 950.411133 -705.534851
-996.220764 953.945984 -661.458130
-714.579224 792.111084 -408.725739
-876.388489 872.810181 -257.676208
-708.060120 861.443848 54.261227
-787.304810 632.621765 -369.828339
-1167.286865 655.318848 -676.647705
-860.854797 572.802063 -326.613678
-941.496216 739.112671 -228.707214
-1200.401733 547.451172 -671.622009
-869.110535 716.142639 92.117203
-767.970581 597.607788 -407.813232
-1090.866089 682.852356 -722.169189
-1080.836792 718.640686 -736.125000
-824.494385 531.534607 -383.756348
-1056.348389 720.507629 -650.330383
-782.954285 781.304871 88.557816
-874.616699 766.375305 25.216511
-1149.035645 945.730347 -566.641052
-964.463989 1004.670532 -754.794128
-718.742004 846.237854 80.297165
-997.046448 768.818604 -803.671204
-790.518616 735.493652 -370.352600
-1123.353882 861.375305 -651.168701
-901.679321 793.656433 -247.036057
-1011.497131 715.194092 -783.734619
-846.058105 745.592590 -303.020325
-1131.620361 667.946960 -717.928772
-775.782288 732.950256 -345.566498
-745.112427 613.029846 -453.557770
-779.490112 665.235413 -384.475250
-906.174500 737.803162 5.531250
-827.178528 589.359070 -332.024200
-1270.989258 670.751770 -577.846375
-1048.859741 816.059753 -744.787720
-790.812744 802.795105 27.884186
-737.362122 617.611084 -435.840912
-851.869080 844.111267 -78.482658
-1255.688599 766.568298 -534.888672
-1058.621826 856.859314 -720.795776
-897.767151 703.675354 75.957146
-1163.499634 1040.669556 -588.264771
-1103.102539 859.478149 -629.487061
-1266.893555 1132.282837 -448.587616
-790.840759 844.969849 -26.503662
-965.213562 847.782104 -788.068237
-812.163696 733.134277 148.904922
-814.931946 857.680298 -99.568802
-915.835693 699.433289 61.951069
-708.475586 722.600281 -448.955048
-1064.952759 903.970642 -610.689575
-996.411804 779.637390 -794.612427
-1319.844727 650.953064 -507.896454
-759.031616 861.471130 -40.802753
-804.570801 779.439880 70.799522
-736.156067 795.839539 124.957169
-1155.277222 855.541626 -609.858826
-977.705139 787.958252 -821.633606
-1199.800537 634.821350 -654.470825
-1173.890015 749.897156 -665.245117
-695.938049 721.909485 -445.158325
-667.410889 893.493042 18.021162
-1098.905273 912.828247 -621.668945
-847.380920 758.075073 39.035782
-1029.903687 667.229492 -699.090027
-840.834229 508.274048 -389.291412
-946.846558 750.671631 -215.903152
-881.863831 814.569519 -70.211426
-1215.269287 1022.042542 -498.565582
-1123.108154 770.017639 -577.271057
-1375.220703 744.003479 -478.222290
-773.058899 770.433960 169.842163
-1142.845093 854.250549 -656.890747
-1117.929199 574.952820 -751.190430
-928.733459 754.074646 -85.428268
-1270.545654 558.648682 -553.078491
-776.567871 529.036255 -420.153992
-1068.780884 852.414673 -729.188293
-1154.958374 559.857544 -691.836548
-1032.227783 884.191772 -716.346558
-914.211121 454.377686 -331.357117
-781.492065 855.332642 -313.113831
-1169.294800 707.800415 -668.705505
-885.633545 715.856812 74.492798
-1029.626831 834.792236 -733.773621
-936.877625 721.034607 -209.634415
-1193.628662 999.245544 -574.060547
-764.146790 864.952515 -351.246643
-1196.577393 1065.924194 -569.098877
-1258.251709 582.124390 -618.337952
-936.955261 585.681213 -275.375610
-755.097229 810.666992 59.076893
-755.504395 816.416077 61.385178
-719.066650 688.582581 -431.747620
-827.363831 548.995911 -391.617188
-886.669128 773.457092 -20.503893
-901.493774 468.780090 -333.133636
-1100.358398 648.708862 -746.938599
-1036.601440 649.537292 -769.647278
-1289.985840 1192.869995 -450.237762
-842.979370 816.432434 -18.271595
-773.169861 837.954102 2.440709
-977.967529 585.636902 -197.265930
-935.024719 517.559814 -247.657074
-934.816711 797.452209 -215.028641
-1067.706787 752.271362 -759.431641
-756.895630 770.275146 -369.277710
-705.400818 788.022644 -396.814087
-881.131714 502.029205 -358.868988
-841.838684 868.614990 -126.417625
-1297.589111 1153.968140 -437.680573
-997.077820 637.338806 -220.651917
-1247.958252 644.357666 -579.405090
-690.814636 713.865723 -466.603851
-1026.263672 643.450745 -817.408508
-750.975037 814.629089 68.692520
-748.089294 631.689697 -402.869629
-1018.915833 675.423767 -690.918701
-766.419922 783.433716 -349.647705
-1040.873901 975.495239 -663.192932
-772.068970 579.774353 -426.235138
-812.543396 833.788574 -297.699310
-1127.560669 852.529297 -674.303772
-812.056213 888.286255 -129.440796
-1110.344971 939.953308 -633.363953
-782.946228 567.103638 -418.770172
-719.800842 870.907776 -8.204540
-1159.712646 539.931335 -709.020813
-713.621887 660.031067 -444.685760
-1011.521606 711.340515 -797.829346
-796.703979 830.331543 1.964617
-694.482056 834.663757 -415.619995
-918.820435 479.308960 -343.781006
-841.213867 813.195862 -36.738564
-1175.835083 570.118042 -691.800476
-1141.722412 800.646057 -657.453857
-760.440369 891.453064 -82.124657
-883.502380 692.255920 -284.510101
-806.505432 623.476563 -355.037445
-753.778259 619.498230 -412.303040
-864.120544 789.651489 0.754834
-702.130188 895.643188 -44.840218
-557.124390 786.838013 -306.802643
-1193.672241 970.488342 -577.092407
-1099.836182 614.734741 -759.664001
-816.961853 542.888611 -368.432648
-899.307190 566.746643 -271.999115
-1065.350586 818.705505 -727.387146
-961.580872 1003.692810 -703.459412
-1099.526489 588.027832 -777.474976
-973.197021 711.404114 -816.579102
-842.522766 748.208313 -294.218536
-1313.720947 639.303101 -522.049377
-728.031677 666.191711 -461.016571
-1106.086792 863.766724 -614.842346
-718.459229 868.659302 17.306744
-742.221558 605.172668 -445.551605
-721.404236 821.882019 135.043518
-694.026733 852.668579 92.637520
-1053.552612 895.099609 -694.398438
-681.491089 898.172180 -25.160498
-1236.631714 789.174255 -540.060242
-1178.378418 939.164612 -606.070435
-882.008545 677.181030 -279.100677
-820.459900 873.000305 -116.399635
-1085.122559 751.331421 -739.351929
-1006.944275 675.656616 -154.530960
-886.020996 780.345032 -54.257271
-802.238464 854.606995 -64.198738
-792.601257 823.909790 27.098299
-745.027893 850.880249 14.804278
-753.531250 817.724976 -371.978180
-1274.345947 595.121887 -534.322083
-1265.538452 631.009338 -584.500488
-1167.836426 763.746948 -621.358337
-1059.598511 969.312256 -628.893188
-1109.872070 595.164917 -741.389587
-913.383911 762.601196 -43.681114
-759.278687 892.706543 -83.828377
-1014.603394 897.035034 -727.502747
-797.845215 621.457947 -363.508270
-707.422424 659.393494 -494.999451
-991.718567 741.304932 -815.405457
-1048.968262 600.116821 -805.448547
-857.628662 707.114868 -276.748291
-817.900513 873.580139 -92.190788
-748.531189 889.335083 -71.338631
-787.830811 842.008240 -15.349033
-990.269165 674.909058 -810.652527
-1001.656189 1027.290771 -714.500916
-859.105469 484.391907 -383.820923
-997.283813 713.275513 -811.721191
-727.723877 796.165161 -402.400696
-815.193542 567.040405 -375.812317
-883.069214 596.383423 -294.863281
-771.411804 812.524292 82.960220
-975.956116 844.946106 -797.310791
-790.673767 566.961243 -450.693726
-734.659668 848.526367 17.058617
-738.447388 947.598938 -101.390060
-1183.699219 615.095398 -669.919128
-711.915100 891.314697 -33.582260
-772.875427 699.442078 -386.443481
-950.064636 705.958496 -227.793076
-717.006226 859.823975 41.902203
-878.107483 713.865845 -262.704437
-716.315491 645.922119 -461.549957
-970.379517 769.011902 -185.815094
-751.951782 854.206055 12.352793
-873.255066 771.970398 21.005785
-1042.430908 929.045898 -710.474609
-717.935059 852.191223 72.549805
-765.268982 867.660889 -47.093460
-1172.624023 626.707031 -695.977356
-1003.785339 940.350098 -691.310364
-1034.522217 645.153442 -774.697388
-789.931824 800.537354 66.366081
-1051.389282 824.830627 -756.738525
-670.648438 824.261169 -394.968842
-990.791992 731.296021 -189.451797
-1171.503174 1047.017212 -552.744385
-1270.839478 535.732239 -610.704529
-1064.484131 538.477356 -789.433838
-1093.324219 670.689758 -730.204285
-859.502808 737.264832 -277.425995
-893.131226 677.752747 -294.341431
-926.338318 502.920624 -288.575012
-925.210938 697.616455 -259.233917
-838.782288 735.078247 -325.046082
-840.867554 810.548157 -18.100557
-1134.005737 724.754272 -594.754089
-1194.339355 907.631470 -557.244080
-857.467224 656.959778 -307.823578
-1251.792236 622.402649 -594.762268
-781.981262 588.080872 -426.686249
-888.831055 582.084900 -301.624512
-1168.495850 686.555603 -674.617004
-1164.209961 628.518921 -684.398376
-1077.833740 554.420837 -774.637878
-1061.377808 666.786011 -742.982727
-994.037903 773.888855 -798.160767
-796.379639 534.344849 -440.687744
-835.863953 524.777100 -408.645691
-1047.896362 571.783569 -779.706299
-1074.321899 647.681213 -750.762512
-1069.763916 941.000549 -614.857544
-772.025085 854.788208 4.907271
-887.447388 734.840332 52.664833
-846.137390 766.036255 42.707951
-767.978394 834.986572 21.104040
-865.124023 635.251465 -299.655090
-822.211060 755.850342 113.226280
-979.508362 783.753784 -806.622253
-1137.011108 983.710571 -605.604309
-995.120300 673.979431 -830.432007
-868.163940 927.581177 -159.105377
-1211.360474 780.366272 -599.806946
-707.684082 850.047180 109.778336
-767.660828 578.858459 -422.298676
-996.890198 933.021667 -721.706421
-980.930847 589.830933 -195.992096
-868.074219 872.143372 -254.855835
-743.694824 713.983643 -376.864990
-990.898682 969.633179 -748.899414
-1155.884399 551.410034 -713.577820
-1180.217041 759.884399 -621.571045
-710.183044 861.245972 20.204756
-1036.137573 893.006470 -638.153259
-965.750488 796.749878 -799.841553
-1029.262939 902.906677 -744.085083
-708.061279 885.605774 -8.011533
-1264.435059 566.078186 -574.282532
-1145.271729 705.125366 -685.394958
-1159.639648 631.593262 -703.762146
-1012.738586 918.820190 -734.792542
-994.564026 688.086487 -821.541687
-1157.642334 785.224365 -568.107971
-971.811523 884.174744 -803.939758
-1227.370483 1124.653198 -496.546875
-904.296143 763.027710 -23.799866
-730.629089 750.854492 -378.525391
-896.410339 509.734039 -307.604919
-875.786926 688.705688 -278.739471
-747.199524 866.819458 -15.100256
-1009.593628 713.813110 -814.298279
-927.393616 564.415466 -298.672913
-784.233398 900.541870 -129.447983
-981.858276 843.533203 -807.435181
-1067.284180 732.636597 -713.613525
-1195.596802 1022.477112 -533.706848
-736.436951 812.335327 103.785454
-1169.664917 574.780579 -694.229370
-781.787048 904.136719 -163.846313
-965.619751 1034.101440 -751.269165
-861.478943 888.035461 -256.401917
-1133.268677 852.764893 -572.403381
-1173.049438 605.973877 -705.396423
-1260.455200 602.279358 -591.267578
-1260.596558 1141.865845 -445.017700
-754.187561 887.684692 -92.705856
-888.170776 730.676147 -263.512695
-792.711670 893.921936 -110.333214
-769.968018 796.140625 97.464897
-817.706970 832.585388 -31.292950
-1236.463623 572.099792 -634.232788
-1090.142090 873.832153 -610.392151
-1173.857300 804.213440 -505.763275
-729.131958 849.429565 112.401093
-1343.566406 746.568054 -501.622772
-825.479004 808.822876 -25.855459
-868.985962 849.247620 -112.476357
-757.773682 546.013306 -448.450073
-741.572937 608.243958 -433.251556
-752.701172 871.221497 -58.652351
-742.371277 827.209290 67.747292
-747.487610 645.750183 -397.352661
-1020.898376 935.750916 -703.391418
-930.199280 765.606384 -227.947540
-976.937866 600.912048 -232.872971
-902.275513 779.319214 -43.735252
-1197.549927 675.381226 -670.893250
-1095.528320 963.602539 -609.776001
-1031.470337 704.276794 -163.807495
-906.863525 509.295074 -309.698730
-701.110596 906.312317 -76.079750
-1062.356201 708.830872 -762.463684
-869.419861 799.494446 -46.939404
-728.316650 846.240295 24.091082
-1284.213867 637.869202 -547.268982
-953.905945 853.113953 -215.181183
-914.272644 757.709290 -233.362732
-1247.265137 679.395081 -585.277588
-840.301514 525.268738 -358.155182
-758.331299 705.600403 -378.137085
-714.232666 808.573853 -392.465027
-821.862732 854.418579 -284.263947
-1032.641235 705.322571 -792.821655
-802.777710 767.301147 101.830284
-823.657898 837.769287 -49.630730
-839.236084 597.484497 -350.348022
-1221.929199 553.382507 -654.154053
-957.107239 531.776672 -260.776733
-739.333130 628.475708 -425.296692
-746.471313 854.256042 -2.603850
-971.940002 723.510010 -27.845901
-799.375183 838.219421 -50.637951
-793.717529 611.679443 -371.173096
-856.293640 764.345459 51.691792
-1068.261353 624.362976 -744.292542
-690.324585 901.931458 -26.027756
-1141.876953 902.704651 -559.928101
-707.262939 848.698120 62.782581
-993.897827 948.528137 -722.424438
-954.544800 726.657593 -30.931564
-802.213074 561.654297 -452.776733
-870.787781 665.780273 -278.394135
-1234.551392 671.392334 -628.265320
-763.069031 899.061707 -83.020950
-770.633911 792.637146 82.803795
-1014.203735 755.654785 -789.310486
-1055.542603 925.837280 -686.373474
-859.582397 708.128906 -291.145081
-960.899475 693.958801 47.668716
-1034.653320 882.200928 -746.150452
-773.000366 698.916992 -369.783539
-761.581360 589.860718 -407.772156
-998.419983 940.219116 -705.956055
-976.531555 868.097961 -787.132751
-1135.551147 815.874817 -671.272034
-708.653015 665.837402 -447.832642
-1168.737427 1067.860840 -565.297302
-770.788147 797.445313 117.095558
-1244.138184 588.778870 -617.636597
-1084.495850 751.120178 -667.436768
-1113.220825 518.227966 -736.156006
-854.263000 732.059509 113.680534
-875.255249 757.435242 13.640151
-1130.394287 903.995911 -580.199341
-1039.022949 729.208862 -531.886536
-937.084473 713.807373 -211.005447
-899.991699 459.545715 -348.304199
-831.292542 869.365662 -118.656700
-1198.238281 1046.443726 -574.190552
-790.624756 761.471069 122.442780
-1173.475952 1016.625549 -583.523682
-761.000488 839.156738 14.869707
-792.233887 795.929016 91.293106
-1230.413208 768.464233 -533.206543
-1234.708984 724.194153 -590.622253
-1132.964233 869.396118 -604.207336
-865.843384 558.025024 -302.838654
-849.915894 821.179749 -24.742125
-1139.572998 589.579224 -713.531494
-1013.244751 682.495422 -148.142471
-791.799255 626.930298 -369.839996
-731.964844 619.570679 -477.949005
-930.566589 653.307129 -243.978043
-760.801880 819.731262 -364.792877
-976.262207 933.363953 -787.189453
-846.656372 502.890564 -396.512787
-1295.128906 825.699524 -510.365082
-1001.828735 762.930725 -808.626343
-683.939575 713.627258 -459.899689
-837.618835 825.773987 -29.366611
-915.771606 663.727478 -288.024445
-731.568604 791.803101 -382.504517
-990.775024 678.489685 -822.174622
-1028.399536 809.854919 -776.493896
-1191.802490 590.311462 -692.724731
-878.000061 819.697632 -248.390381
-1035.590820 916.325378 -638.835815
-832.648010 493.988373 -375.156281
-887.994141 629.635376 -285.038269
-782.223999 889.999146 -86.458275
-1068.899048 605.806702 -785.907288
-1026.383911 703.929565 -797.257568
-1043.292358 664.660583 -745.732056
-584.682922 832.916870 -259.532745
-870.750977 838.345642 -253.274170
-848.139648 488.031403 -386.227722
-1134.441650 783.357422 -616.394897
-1187.359985 676.386597 -674.036560
-1008.235413 911.169922 -743.576843
-1105.094849 757.793152 -525.274719
-1115.205933 805.875122 -595.149292
-1248.694946 640.075012 -598.167908
-891.552856 851.513611 -239.827164
-790.731201 560.907104 -434.543304
-1140.312134 1021.499207 -604.447815
-930.878662 731.437134 -232.496002
-803.316223 757.810852 107.685738
-1107.867188 732.127991 -693.553833
-1029.981567 697.832642 -780.378235
-962.879089 990.901672 -721.578369
-810.434998 580.036621 -366.261475
-770.136414 910.069580 -108.732048
-779.163208 834.755066 -345.294769
-778.770508 600.784302 -404.130249
-718.781189 644.479126 -437.726166
-883.904297 642.873596 -283.850220
-970.242920 839.797241 -802.781067
-852.447266 798.523254 -292.417206
-818.569946 836.652161 -308.967102
-996.656311 632.239746 -824.324036
-1000.015381 720.343445 -814.449829
-735.216309 629.690063 -416.669495
-767.577698 936.376343 -128.239868
-792.733826 862.590759 -60.586094
-684.722839 824.239502 -401.634705
-979.330444 772.070801 -176.169601
-1182.288452 623.361145 -672.646118
-798.834961 781.717773 139.668991
-1321.983887 549.253662 -566.409119
-713.826965 785.074280 -370.715332
-845.698853 531.489624 -365.488403
-1135.555298 903.740784 -601.959961
-1083.388184 947.076355 -622.805725
-923.640869 751.631653 -238.337952
-752.041504 604.226440 -455.773926
-912.570679 734.644897 26.769114
-1202.389160 992.767883 -463.297607
-880.164734 768.560730 43.675026
-716.793884 746.378296 -441.395996
-938.932434 750.978577 -223.458725
-996.454468 706.739502 -835.008667
-896.584290 665.159241 -257.267548
-899.311035 625.524048 -278.847443
-908.039307 582.748962 -265.230865
-1251.963867 576.996277 -570.992249
-841.800720 795.726563 16.541166
-867.292908 559.424194 -326.470886
-963.620728 732.986572 -818.874451
-1019.651794 730.048523 -523.457642
-1092.104248 752.544800 -536.798218
-927.065247 766.896973 -229.418701
-968.192688 732.436768 -817.750061
-1109.604126 563.480286 -746.193237
-1050.790039 847.570374 -742.595215
-813.101379 893.897522 -131.965973
-996.994751 719.591064 -559.522644
-1274.445313 596.209595 -567.970581
-965.813110 677.426147 -194.566528
-763.019409 913.498108 -127.727264
-815.678101 870.052246 -101.927101
-695.914856 859.801941 70.385323
-1051.889526 736.605042 -768.441711
-773.713379 826.585999 150.060852
-827.780640 744.224609 97.780365
-872.891541 698.359985 137.690369
-764.044800 908.086121 -117.291733
-887.108826 754.517334 25.451727
-1131.671387 554.956787 -727.922241
-888.423828 801.690613 -257.265106
-913.091797 777.465027 -80.348030
-1275.158447 579.261902 -546.819946
-791.797546 910.681458 -154.300049
-877.961792 513.736206 -352.281403
-1045.985107 618.279053 -784.937134
-1258.255371 775.212769 -528.929749
-828.666443 679.942993 -309.731598
-1133.059570 994.104553 -638.928833
-1007.033752 1008.187622 -709.659973
-702.707336 918.402222 -62.935318
-993.697937 727.378296 -790.133728
-886.314087 717.508240 69.149719
-1253.534180 1170.086548 -480.472260
-1318.646729 673.407959 -527.380554
-965.113098 941.174072 -793.721985
-878.511536 702.566895 116.865005
-911.424072 712.612488 41.711983
-1154.072876 545.895813 -712.561279
-969.547791 954.945190 -696.590576
-1247.459351 694.171509 -582.382751
-922.951843 757.996338 -55.488205
-1199.359497 545.622192 -677.121216
-724.429443 622.368530 -464.714355
-1230.904175 642.297241 -623.583252
-750.841064 766.426086 -384.942596
-1164.135376 642.037964 -683.043762
-872.846924 746.955078 53.238010
-1037.667480 799.581604 -766.458252
-970.796509 639.083679 -197.790695
-1017.929565 655.348633 -699.524902
-1178.294800 556.321960 -693.313416
-1081.700684 848.278381 -707.254639
-796.420349 535.158081 -438.103363
-794.892700 902.262878 -157.873016
-1317.561035 1136.941284 -423.871124
-1211.386597 777.669250 -545.315979
-772.149719 655.069946 -376.022522
-1020.267212 650.980103 -809.880371
-766.038696 660.094238 -381.135010
-758.328430 758.264587 -353.530670
-962.460205 758.489319 -827.919983
-906.600708 708.573303 63.607758
-1307.960083 623.562744 -528.112183
-817.962524 821.401611 -6.041738
-753.139954 863.626526 -9.660428
-1108.299194 631.223999 -722.928833
-797.501404 704.346619 -365.155487
-1340.161133 757.097473 -503.162476
-1158.314941 1055.911133 -560.975769
-1201.418457 566.433838 -663.291504
-863.418945 767.704346 28.693941
-962.491150 924.232910 -788.810303
-1212.937866 770.507019 -536.142761
-1066.055664 922.900391 -649.922852
-913.783752 740.109436 -10.358293
-672.038513 881.723877 38.208042
-797.540527 544.952148 -390.476563
-1014.540161 693.849365 -784.369751
-1281.211060 801.240662 -517.722168
-820.102844 865.556946 -75.223633
-1047.637329 911.328308 -686.296387
-747.472412 674.188049 -397.541840
-1079.654297 720.024292 -739.095276
-790.298950 891.921021 -119.285370
-940.036072 585.727600 -257.332947
-1084.166138 626.872437 -740.576538
-846.362427 640.497375 -299.842072
-781.145813 889.681213 -121.620193
-991.768250 669.704224 -822.562378
-861.440186 779.453735 -5.323161
-1049.942139 731.499817 -717.642639
-1184.517944 731.010315 -649.542297
-868.858643 741.611572 -264.784271
-689.357361 858.051453 98.320770
-1205.583374 635.985352 -665.801147
-968.060364 704.779297 -822.621826
-759.696716 663.769775 -392.099915
-1045.889282 634.930176 -789.289063
-811.891357 841.693176 -312.347107
-716.075928 928.032227 -94.563126
-930.462341 904.272888 -221.551407
-786.952393 794.977539 80.975510
-978.192322 933.620605 -778.151794
-713.096680 644.256042 -461.926849
-929.641357 579.732239 -267.305176
-853.476807 832.003235 -78.725868
-1354.443848 817.217590 -499.862030
-677.512939 882.159546 65.674828
-890.435974 714.494263 141.348434
-1028.954956 637.344482 -796.281189
-1155.586182 702.645874 -680.135986
-974.312500 1000.246399 -735.786255
-860.518005 770.991028 11.882414
-963.583496 759.703857 -825.581421
-822.821350 640.796997 -323.056671
-956.390259 583.408936 -239.340729
-749.339600 605.970337 -426.810303
-1021.734436 929.801758 -716.640686
-1156.478760 693.921509 -688.439636
-1130.348511 709.459229 -636.986816
-1036.711060 916.538513 -725.999573
-717.923706 921.482605 -104.287209
-870.539063 541.804199 -344.318298
-1118.094604 844.057983 -576.742859
-1044.586060 656.679260 -753.406250
-677.828552 890.400452 46.724705
-803.605408 546.483704 -425.420807
-777.297974 720.913391 -365.029572
-914.618774 702.460999 56.210762
-847.139465 484.353973 -393.828064
-776.404968 891.295105 -120.943771
-810.454224 549.574158 -359.491089
-817.403137 753.075256 107.910835
-832.183960 509.721100 -398.420868
-985.349121 748.119324 -177.689819
-956.784668 723.646545 -214.178558
-705.689514 875.092651 -11.530426
-980.782959 917.863342 -788.856262
-1143.970459 826.367432 -658.737549
-1150.692383 912.593872 -550.865601
-674.670227 906.110413 39.298210
-767.134338 775.990051 169.273285
-997.885254 800.938110 -799.917725
-1130.272095 786.048218 -650.914673
-1022.728638 908.964050 -648.599915
-745.544983 776.480835 -362.431183
-843.495117 592.637512 -338.494049
-969.134155 709.208008 -21.611135
-757.186035 920.824463 -174.717926
-1051.288086 592.505188 -805.321838
-1278.163086 788.647217 -512.880676
-1069.896240 831.817322 -740.188843
-1067.177246 699.781067 -745.531982
-726.427368 717.485474 -412.754333
-1215.827759 630.552490 -551.430725
-756.313660 945.181091 -173.218796
-1014.506836 808.208862 -772.270996
-825.758301 717.938293 170.029541
-1194.245361 716.238342 -618.493896
-871.997620 748.717285 63.047020
-923.169739 806.157043 -236.062332
-828.943481 769.738770 -305.388916
-954.778015 690.574768 61.778439
-1011.095764 798.532959 -778.501282
-1084.395752 563.198364 -767.932739
-1351.464722 857.447937 -494.675598
-1208.119995 988.725464 -551.701416
-818.281067 750.911865 -329.269562
-803.230713 547.918152 -446.184814
-870.938293 847.530151 -145.543182
-840.380493 491.170410 -424.776093
-1111.671143 822.757202 -680.787903
-946.916565 694.340393 -245.395157
-716.188293 827.175720 105.246017
-1116.852783 784.235229 -689.081482
-1065.988403 832.306091 -711.244446
-1214.673950 1225.173584 -471.454926
-967.375183 821.585632 -809.197998
-1081.761108 753.501770 -682.707886
-1131.616333 982.539551 -650.942444
-761.480652 832.131958 35.274330
-969.088806 900.420776 -789.218445
-1185.317383 929.661926 -572.757568
-1278.721191 549.377014 -590.570007
-996.399536 987.852905 -732.963074
-1212.075684 692.427795 -630.340515
-991.113770 676.195313 -826.940308
-1030.008057 584.519653 -805.292847
-1133.278564 823.785583 -629.691772
-726.568909 780.928955 -384.432434
-767.507629 598.987854 -445.624268
-689.573486 741.830627 -461.865692
-834.949463 834.108398 -44.914673
-924.159912 791.748047 -68.383858
-909.163391 780.829407 -78.432739
-809.970703 637.027283 -366.254883
-914.481873 791.131531 -72.241806
-825.139160 792.791565 -314.921234
-568.972229 781.469238 -340.955536
-720.634827 889.169067 -24.243082
-715.032959 709.109009 -431.373016
-876.480591 719.772644 -288.939026
-768.178345 890.374451 -73.488762
-1280.543945 553.571228 -581.951233
-709.845642 875.823669 36.365383
-976.287109 1020.680969 -684.335144
-987.839905 596.729309 -210.274185
-937.483093 463.462036 -287.154602
-713.599731 712.063904 -422.062164
-848.679565 528.416382 -349.039032
-773.777527 586.074341 -418.579590
-950.914307 686.735107 -243.878418
-790.681885 777.991211 121.395737
-980.251404 992.546387 -756.857422
-799.109314 888.264221 -108.131721
-1201.191040 996.925598 -554.651367
-992.821472 811.490662 -805.794922
-709.627686 708.489746 -446.313690
-930.159302 720.648926 3.963032
-912.268677 592.259705 -278.554016
-762.635986 811.554565 -347.958252
-894.514221 714.525452 68.280853
-715.142578 667.246948 -437.444519
-724.280457 867.943665 -380.681427
-849.765747 874.293091 -121.759514
-952.478333 908.167847 -780.727905
-705.097168 739.719482 -430.519043
-1065.571167 742.148865 -728.931763
-849.736450 761.323486 -285.664429
-865.741272 750.719421 58.728748
-930.971130 751.697449 -228.240417
-729.380066 918.344666 -135.051910
-725.002991 732.921265 -431.367432
-825.849304 831.077148 -41.855377
-1236.155029 655.828064 -508.706329
-751.136292 814.325867 128.535141
-798.097473 545.786621 -413.581696
-814.045166 813.354309 -21.559841
-772.872925 571.335388 -442.029083
-1031.460693 707.319824 -570.515991
-950.747192 763.310181 -64.340202
-934.171692 779.299927 -198.607971
-1092.501221 883.786926 -695.115784
-1077.229492 764.199219 -527.359131
-1098.990723 577.416748 -758.688782
-883.723450 788.182922 -53.094574
-838.714294 622.399719 -357.462891
-789.436279 769.049927 -327.627411
-1035.856445 630.997192 -767.134521
-1038.074097 683.370789 -741.420044
-1115.426147 853.929260 -632.881775
-983.146240 551.193787 -229.292297
-800.451538 591.489868 -372.496765
