ply
format ascii 1.0
element vertex 1345
property float x
property float y
property float z
end_header
-57.236233 698.670532 -819.715332
-197.188843 764.821289 -766.961731
-333.006439 962.139221 -705.697449
-110.936249 675.144409 -828.502930
-56.004192 936.753357 -1229.513184
-237.366318 792.475464 -1194.237915
-196.712143 639.598022 -818.975403
-204.621552 772.291016 -758.068726
-102.877029 889.332336 -740.632202
-168.874146 787.798706 -1250.428223
-93.360214 805.455383 -746.911865
-255.508148 1021.276306 -693.605713
-56.956326 743.923706 -779.999756
-313.443848 1009.616821 -365.467438
-245.289993 757.886902 -1210.013062
-418.164459 836.994202 -1190.353760
-140.836243 1061.383911 -1141.076294
-157.452850 1010.191772 -1135.387451
-201.755341 917.677673 -718.569580
-184.743134 922.131104 -735.317261
-192.581100 1019.897644 -719.954163
-91.152428 1100.096436 -618.481323
-271.802979 988.178223 -704.270691
-242.074509 703.063660 -1217.879272
-91.667046 1073.909180 -615.498169
-95.971962 1055.220459 -371.324738
-85.220520 1060.894287 -561.436890
-93.871513 1049.704346 -575.157898
-73.533119 1070.618896 -548.885803
-328.848633 1000.049011 -1091.354004
-193.884338 891.922668 -1232.276123
-140.868317 991.407593 -1212.473633
-76.341270 1052.898315 -455.540253
-103.834869 1045.431030 -431.621216
-38.801662 999.041687 -1192.396240
-18.671558 1005.478638 -1198.577393
-228.503937 979.262207 -1188.852661
-115.481934 868.695618 -748.229187
-485.570770 807.681458 -1121.300659
-130.700302 943.609863 -1213.583984
-128.295593 1116.361084 -1157.201294
-184.817322 1031.516724 -580.628601
-81.941772 698.530579 -847.658447
-195.384781 851.101318 -1226.073120
-309.618408 764.320923 -1220.846802
-285.157532 955.514893 -720.725098
-26.054209 883.926575 -1241.071777
-162.367828 834.802307 -1218.182251
-343.994202 792.991943 -746.391602
-62.397324 694.322998 -837.045349
-288.857971 771.014709 -1244.699097
-199.153442 1047.791382 -373.271881
33.987495 891.175781 -750.472107
-253.683197 1024.145386 -1172.756348
-208.437607 847.607788 -1210.390259
-177.793991 1006.520996 -1176.113159
-301.707031 790.413147 -730.861938
-266.001373 1139.654663 -1141.130371
-161.836502 1035.281738 -448.715118
-187.125931 1210.675659 -1148.741821
-248.132004 1030.205444 -572.552490
-188.030045 1112.168823 -1138.703735
24.562309 959.032715 -1248.529785
-324.237213 1015.136841 -439.158966
-225.058258 665.688599 -800.614868
-11.695326 1009.456604 -1208.063721
-363.877350 1007.522095 -505.560150
-79.981674 809.375488 -1250.243164
-90.370537 1055.699585 -493.643463
-173.451553 970.418518 -1204.654785
-509.225555 812.024475 -1166.476807
-343.577393 695.077026 -747.699463
-13.413111 919.969788 -1251.677856
-322.655426 687.147339 -763.692505
-109.799278 990.514038 -1125.530273
-89.070770 899.165344 -739.811218
-260.845184 1035.038574 -489.536255
-166.777222 685.738281 -782.671631
-171.176834 1059.124512 -582.149597
-338.383942 884.141785 -1070.044922
-254.807755 826.717407 -741.318359
-267.109711 1038.666382 -404.191284
-179.695480 833.884521 -725.233215
-283.870331 1026.161499 -441.338165
-233.745865 1046.321045 -564.173767
-137.730820 1076.669312 -1165.133423
-240.117218 1037.386230 -1099.896729
-294.329742 1018.445984 -676.588074
-179.582474 925.704712 -722.326599
28.381723 1029.814453 -1214.685059
-401.358704 738.648987 -725.831055
-164.245468 1221.861816 -1142.507080
-126.902077 1089.641479 -1154.625488
-174.564087 1050.519775 -311.177673
-223.802063 984.105347 -1176.586060
-210.638763 1027.591553 -334.114014
-61.850288 852.601257 -1255.240601
-238.250397 1038.951904 -559.971008
-46.552509 771.249390 -773.003479
-179.144180 693.274475 -1271.629761
-173.686874 1032.673096 -460.156097
-381.146332 947.421509 -1166.486938
-375.671051 705.282959 -748.655579
-150.861420 1023.443481 -727.099670
-202.163818 1041.115112 -352.776855
-62.177631 1050.765137 -459.096924
-34.172672 881.408508 -1226.530151
-29.747614 746.718079 -827.361389
-332.859222 768.926086 -1215.432617
-170.478699 1019.286194 -1173.978638
-89.218773 817.597229 -1246.359863
-405.102966 858.148499 -716.843140
-182.971970 940.138245 -1217.108765
-378.648285 827.361267 -1198.137207
-216.405930 721.617615 -1256.352173
-178.523056 1195.200439 -1143.847412
-69.641220 707.283569 -802.853699
-76.718811 1046.199585 -447.017242
-201.367340 821.616516 -760.374329
-376.944580 690.523193 -744.100891
-191.349152 797.439209 -1220.661133
-370.753937 674.519714 -752.242371
-275.851654 667.409607 -1244.343262
-74.460533 1052.531860 -513.963379
-193.815506 1070.759644 -722.606873
-260.857635 840.023193 -1161.910278
-159.333298 1034.333618 -495.100952
-73.390305 953.340271 -1220.126831
-144.426926 1035.313843 -543.734680
-281.345612 937.793457 -713.200745
-541.198547 820.829651 -1171.789795
-240.628601 1134.169556 -1169.199707
-15.532561 952.522339 -1217.104248
-288.523804 751.438232 -742.440186
-112.763710 1041.600586 -380.637970
-0.341892 943.852661 -1235.275757
-423.410614 924.097168 -1162.012207
-358.954437 930.471680 -1194.396606
-100.700188 1004.816772 -1174.894897
-130.435699 776.835754 -747.217346
-516.049622 818.404358 -1137.227783
-82.193222 1061.775757 -559.462891
-160.087006 794.188293 -1243.255981
-51.170490 1056.985474 -512.946411
-366.205963 1004.835144 -482.125336
-309.348541 1009.404358 -455.958435
-137.176666 1013.807922 -1202.015869
-104.439377 794.078003 -759.807983
7.479056 1019.471130 -1207.266113
-203.652328 907.790955 -1219.554688
-81.120720 831.616089 -767.948608
-149.968796 1050.602661 -441.638733
-346.086517 1001.858154 -382.295624
-241.476288 773.319214 -763.301270
-144.716248 1044.022461 -1151.197266
-56.239376 882.386108 -746.509888
-56.395515 996.112610 -740.337463
-146.261902 984.790833 -1170.244385
-193.857758 1181.743042 -1134.306152
-518.058716 1072.154419 -1162.530518
-248.840286 1163.573364 -1162.140137
-139.293137 1070.900879 -321.059448
-154.472092 722.304016 -783.184692
-253.882813 1033.810669 -296.325745
-39.642136 1049.921509 -512.940796
-180.835739 1123.474609 -1137.341064
-295.735748 1025.618652 -352.944031
-23.587654 832.049561 -768.988831
-246.203049 873.009644 -737.330688
-126.332443 990.340637 -1211.194702
-478.600952 1129.377808 -1127.676147
-227.901443 849.061401 -735.649841
-104.481850 978.359192 -1136.949707
-60.828579 1050.893555 -499.727051
-142.033249 1071.974243 -329.775848
-117.551170 793.252441 -763.579224
-112.634171 844.158386 -1244.279297
-44.279224 1015.464050 -1193.489502
-78.094727 783.555054 -1255.478516
-357.312256 666.386597 -760.799072
-255.586777 1013.242249 -558.930542
-120.765549 736.364502 -769.091248
-251.657578 655.959229 -1248.357788
-464.735413 855.551941 -1154.659302
-251.639313 761.252441 -740.217957
-114.690598 991.291138 -732.973206
-94.755287 939.869995 -1231.762939
-111.990021 994.560974 -719.175903
-135.976089 712.522766 -783.475525
-271.864014 1035.706909 -543.454529
-281.838470 626.802612 -803.142334
-230.896332 793.123718 -1232.875488
-246.711731 802.732300 -736.453857
-339.152832 752.226563 -1235.872314
-103.237099 696.024475 -803.039429
-246.250122 859.516174 -731.268860
-341.597290 704.324463 -1228.743286
-248.984253 1026.337280 -427.058197
-267.126465 1012.678833 -386.709961
-76.578514 1049.890503 -364.651825
-126.496628 1059.054688 -557.516113
-97.813515 809.933533 -755.260437
-95.061012 778.610291 -1256.508057
-274.991333 858.666809 -722.802612
-224.199692 1028.811523 -314.937042
-160.705093 1029.839722 -1172.790649
-249.492325 1040.989624 -402.515411
-369.477173 997.471069 -411.337067
-252.397690 666.331299 -772.851807
-158.134979 924.572449 -729.512024
-186.028641 1168.844604 -1169.089966
-265.730133 747.180908 -1225.779541
-12.072511 975.075134 -1205.633301
-249.790939 683.186707 -1249.012451
-181.375183 1030.271240 -341.881805
-314.386444 1012.706543 -547.825134
-15.103045 832.622314 -769.530151
-96.561874 1059.658447 -552.256897
-200.952301 1003.952087 -1125.081787
-279.839813 1021.095520 -406.871277
-261.471588 1115.834106 -1151.457397
-165.583496 951.073425 -737.066284
-51.975616 814.131897 -766.950439
-385.732117 1008.832642 -693.556458
-35.678391 790.614990 -770.146057
-337.823303 1012.795105 -523.236023
-354.272614 676.500061 -751.930786
-283.937775 784.135315 -721.538696
-400.502899 881.187927 -1185.842407
-104.253105 750.810913 -766.594543
-301.938477 1033.628784 -573.999817
-72.883812 761.783020 -790.549683
-353.136749 989.333496 -699.015991
-244.829315 1125.889282 -1154.354126
-152.628876 793.292236 -1239.789063
-241.716949 676.909607 -1258.530029
-7.577614 1093.059448 -1194.154785
-99.564110 1049.047729 -553.970764
-243.541748 751.712585 -1147.291748
-264.231506 1027.407837 -519.275269
-365.468933 908.816772 -1189.475098
-197.356812 827.825500 -750.354187
-89.461174 1047.350708 -407.045105
-191.395706 1005.763733 -1177.042969
-167.238266 1299.691528 -1138.906250
-350.467712 1004.979919 -485.944733
-129.554977 871.702881 -1232.367554
-225.160553 862.165955 -1219.938477
-349.140686 1003.499573 -427.339142
-331.003784 779.780884 -729.841064
-193.480881 728.975952 -1215.190552
-498.767731 824.216919 -1162.386475
-368.881012 993.210205 -1121.367188
-293.538422 1021.800354 -375.629608
-225.475433 950.403442 -1078.106201
-38.672493 1048.342773 -463.209442
-450.801605 1052.815552 -1142.053101
-349.844482 1015.379883 -499.261200
-137.469101 1047.557373 -562.359009
-358.459595 933.746643 -1190.151978
-164.948853 872.409973 -1242.649658
-234.697556 659.612854 -785.258423
-154.095428 715.833374 -1251.624023
-204.098434 691.601379 -1248.570068
-292.344604 899.044739 -740.106445
-103.209183 686.657959 -816.351013
-277.578857 1014.961365 -504.795105
-202.023682 1034.422974 -513.873291
-274.350189 1028.298706 -380.258270
-121.503006 658.375488 -829.757874
-104.104752 970.954834 -736.051514
-128.925964 800.739258 -743.359802
-122.551422 935.251160 -1229.397827
-177.295715 727.968933 -771.127014
-152.321503 1029.058960 -416.212372
-421.827667 851.193237 -1187.854980
-342.114471 799.607117 -1213.493408
-251.353592 767.288513 -1225.602905
-275.505219 925.920349 -716.691589
-213.944687 1189.635498 -1148.255859
-258.760132 1021.527771 -357.529175
-91.470451 848.218384 -1253.395020
-186.280289 700.823425 -767.540222
-207.146759 865.873169 -1230.606445
-407.003204 886.126831 -703.718933
-272.519470 1012.423218 -360.927063
-267.848907 1046.886353 -593.072632
-440.890717 786.176880 -507.986267
-464.074646 1052.058716 -1128.147095
-179.697433 803.877197 -1222.911987
-349.690125 1003.960266 -381.642334
-197.164703 1039.877441 -542.532227
39.989296 1009.838440 -1236.493530
-111.590370 1045.974854 -426.665955
-177.943176 1096.868286 -1162.301392
-250.379669 1049.013428 -594.841736
-311.352081 1027.938232 -592.401123
-27.070831 1076.594971 -1206.449951
-243.694351 819.131714 -1170.793457
-63.437557 1084.328369 -558.337708
-266.090637 1020.526550 -450.974945
-356.186371 666.525574 -753.390076
-135.814728 877.296753 -1241.040771
-233.626526 941.116455 -730.728210
-140.958527 1052.095703 -323.167969
-174.461105 1218.325195 -1142.186646
-205.731430 1182.499878 -1171.952271
-142.512589 1021.017395 -718.576477
-20.009726 850.510010 -757.974792
-290.332733 810.840393 -713.244568
-391.618958 977.910828 -1151.906006
-262.085236 1031.484741 -347.486847
-26.058334 740.096741 -796.281128
-219.597672 1029.289307 -388.938202
-283.760498 756.383240 -1204.371338
-291.003906 845.913025 -1221.430298
-64.014557 1047.523071 -403.636597
-207.861496 884.972595 -726.142456
-456.659210 1106.036133 -1134.484375
-330.466064 943.750122 -1182.495850
-181.061081 641.430603 -818.499695
-363.912140 707.177307 -742.208618
-29.056772 767.381165 -792.435852
-278.580780 1119.819946 -1152.092041
-78.284698 1049.696411 -1174.931396
-162.516006 1142.305542 -1168.483276
-105.564583 823.276733 -1241.437256
-156.610336 1052.740112 -369.398376
-437.160034 925.696777 -1164.722046
-35.024570 701.450378 -842.196838
-313.409363 1028.514771 -572.826172
-253.019821 1027.535034 -305.451904
-117.274376 808.429077 -749.408813
-326.696838 967.331787 -1118.272583
-211.241226 862.947266 -726.392029
-151.825943 973.008972 -1210.177734
-155.999954 1043.023804 -351.951874
-92.816887 938.843994 -1221.205688
-170.780121 669.528503 -796.173950
-287.968628 648.650696 -802.882507
-251.909943 1022.926514 -577.172180
-347.867462 692.221924 -741.983948
-245.332367 1157.458008 -1158.406860
-163.159653 1050.332397 -385.964874
-448.780579 1000.136475 -1147.561401
-403.550354 1011.608276 -559.033569
-276.252838 836.677002 -730.941040
-430.712128 788.823547 -1198.794189
-297.750244 985.662842 -702.751160
-262.932251 802.612671 -730.662842
-318.939911 935.174133 -1067.870972
-200.734055 770.231018 -745.747070
-404.304047 959.539307 -1124.692505
-297.566681 945.311829 -1143.620483
-137.477829 751.878174 -760.034668
-251.028214 826.814697 -748.585938
-76.866631 807.998413 -770.234619
-323.877045 1009.463013 -566.016907
-224.143784 1205.845337 -1124.471802
-348.523193 999.093140 -1113.653076
-196.141113 1201.814087 -1148.626221
-206.850586 645.554321 -791.313477
-174.853226 748.745056 -776.757690
-322.395752 1383.731445 -1096.601807
-69.413704 955.701904 -1218.424561
-470.795502 843.039551 -1157.249756
-70.154343 864.077271 -769.227966
-300.692139 936.009033 -1189.441162
-3.267262 843.567017 -773.168274
-68.053207 1033.869873 -1172.437012
-470.241333 852.441040 -1170.374268
-36.208626 1003.804871 -1207.275513
-361.645142 1007.492859 -454.398163
-250.727325 1031.269775 -465.949524
-137.177658 723.972168 -762.235168
-242.622253 664.492493 -1254.187988
-117.917770 1063.427734 -630.337830
-223.953598 827.697449 -723.027466
-184.955795 1042.558105 -352.220154
-258.517029 847.628418 -1193.358521
-163.021118 1361.649902 -1122.864014
-151.196625 848.394470 -1234.342896
-435.302094 999.107117 -1133.962402
-145.788635 1005.940491 -1199.498657
-266.888367 873.842712 -1138.839233
-125.025566 691.162292 -793.266541
-368.950073 790.790588 -1210.439331
-264.870361 755.287476 -763.834961
-312.853699 865.200806 -731.582825
-166.946060 1052.388550 -598.933533
-262.846436 914.897461 -1182.965576
-353.001312 896.916809 -1194.881470
-69.373573 1006.343567 -1206.952393
-346.538788 909.850830 -689.897095
-63.176357 1052.457642 -431.482635
-134.974426 1065.348999 -603.659058
-13.793286 791.761047 -801.419250
-178.309860 725.536560 -762.735107
-255.266373 1036.935181 -540.580627
-183.152390 741.857483 -759.589783
-182.386597 994.544861 -702.158936
-142.980377 922.797180 -1228.344238
-45.439312 1066.682373 -1170.427246
-163.305222 711.871338 -1241.017456
-96.463837 877.086670 -743.722900
-293.858856 734.575745 -1213.216187
-175.090836 821.063538 -727.923828
-0.250222 805.131042 -790.755676
-251.344742 995.312500 -1182.992188
-183.731201 707.771423 -1224.739014
-113.056717 1046.133057 -582.398865
-84.864731 1044.321411 -466.370697
-119.674141 986.045410 -1170.237061
-246.652954 706.728821 -1234.479370
-422.706299 854.201538 -1201.202148
-199.453918 1027.505127 -423.188354
-24.525862 884.532776 -1253.045410
-137.147278 1042.396362 -442.227295
-51.291164 1056.776123 -542.487549
-314.619141 1023.110291 -489.224243
-150.297302 683.524658 -790.606750
-357.698914 983.534180 -1127.587646
-204.152969 1039.459717 -490.523834
-407.627411 914.760559 -1092.034180
-411.426483 895.643250 -1175.968994
-165.507187 683.479065 -787.973877
-78.922150 838.225891 -758.651917
-325.073853 957.388245 -706.785706
-9.327227 804.825439 -786.353088
-67.835403 806.641235 -1238.391846
-161.856522 1047.844482 -516.729858
-296.369781 749.904236 -1222.768555
-322.423798 721.499817 -729.032532
-217.973022 723.032898 -1226.092773
-267.569763 942.934570 -726.159546
-294.766418 1018.375977 -425.208801
-179.094955 1048.163818 -529.075684
-263.781738 1226.667603 -1055.406982
-16.578922 875.316101 -754.912659
-174.899673 1021.365967 -1115.281006
-176.351395 740.707336 -1240.049316
-376.398163 754.490662 -1214.804932
-153.217010 1028.867554 -404.889008
-215.648880 1038.186646 -518.410400
-9.868711 753.476013 -811.812622
-106.046593 1063.422119 -1163.016968
-358.228027 792.459656 -736.706421
-151.650085 713.233521 -770.106262
-124.390282 812.453552 -756.478760
-219.951126 770.618286 -743.271912
-325.346466 1006.034363 -436.233887
-300.593262 1012.518127 -559.404297
-34.068092 739.597107 -787.893188
-180.961853 1129.658203 -1149.927612
-105.431694 731.957581 -783.710205
-315.405121 1006.408020 -427.780304
-201.202164 956.508606 -724.528809
-35.722271 852.226196 -1231.725098
-451.938873 1024.020508 -1138.846313
-467.218353 819.354614 -1100.849365
-156.239487 1041.061279 -407.104950
-177.466415 629.568054 -796.541138
-69.666817 926.266907 -1229.997803
-178.702988 988.910889 -1198.749390
-468.998688 1081.206665 -1119.993408
-195.127914 755.599670 -1240.946289
-181.021530 1018.129700 -1137.817139
-240.153915 726.637634 -1220.877686
-298.251434 1020.188477 -689.724670
-110.956917 680.869873 -814.626831
-180.463730 695.708252 -1239.034302
-263.113312 1037.217163 -540.736084
-128.244217 784.941223 -753.257019
-176.155273 1039.666382 -488.027954
-319.086365 1027.670654 -1084.170776
-400.091888 1079.940063 -1072.478638
-201.959167 1350.426270 -1122.758545
-280.032135 749.177185 -1240.866821
-369.353119 992.724670 -463.309265
-231.175140 788.349365 -1154.301025
-374.717804 944.583191 -677.050293
-219.677124 956.727234 -710.505310
-27.503325 922.921692 -1240.561768
-230.466553 1041.753784 -511.969452
-284.620483 1029.753418 -570.950317
-188.570786 945.958984 -724.874817
-2.299634 838.323364 -747.412537
-280.665955 1020.650513 -399.385590
-135.725143 861.771545 -727.489868
-79.047554 924.129211 -1241.015991
-553.323486 820.888489 -1170.985474
-167.808151 761.924377 -1228.159912
-307.963135 868.934021 -1203.589478
-232.027206 1043.384399 -322.837708
-312.775146 1020.196777 -407.499176
-159.766144 1230.175415 -1132.855469
-328.979462 1021.718811 -536.490784
-119.193352 1035.449707 -425.845520
-207.783539 759.556763 -1225.112305
-252.944778 1006.385376 -698.330872
-427.936157 1089.183228 -1125.082520
-237.379349 873.108154 -722.290710
-461.532715 795.053345 -1190.063354
-192.873550 1028.591187 -296.548340
-255.309479 1032.570679 -466.992584
-63.137608 1057.954712 -421.948914
-532.620178 791.406006 -1160.326172
-554.942200 836.510315 -1115.361694
-228.671463 641.483032 -796.869385
-65.525818 1092.897949 -1190.927612
-208.013947 965.580017 -1203.054810
-80.747551 1052.863037 -433.312073
-378.802185 775.667786 -739.199829
-60.133583 726.331360 -791.071289
-54.561138 819.946350 -779.946899
-476.057587 791.740417 -1174.670776
-128.619965 1039.828857 -383.866455
-239.805588 681.509705 -1245.618408
-74.960457 1059.626221 -466.862946
-270.679596 909.330200 -1176.142700
-40.542961 1045.586548 -604.010010
-170.690964 1193.811401 -1152.199097
-169.624313 920.598267 -1221.500366
23.674423 1014.115601 -571.185364
-69.663612 1048.797363 -425.616333
-288.352875 779.898743 -734.321472
-39.188148 1099.109375 -611.864136
-330.707367 997.947144 -359.037994
-255.496445 1180.283936 -1121.685303
-225.485718 792.199890 -1216.162720
-517.059570 858.348511 -1140.670654
-158.599136 1028.050049 -1144.571045
-331.038025 1004.848145 -378.099426
-81.236389 1043.062744 -458.243164
-214.915039 990.848206 -1110.455200
-305.642883 832.475159 -740.245605
-312.843170 696.589355 -1221.193481
-556.635315 844.056152 -1144.586060
-222.862274 934.650574 -1210.887085
-115.587082 981.914612 -1209.276001
-318.628143 797.486267 -726.054199
-466.880554 787.322876 -1177.221313
-348.950348 1015.194824 -1065.308960
-469.619873 958.823975 -1136.565918
-475.778259 845.458984 -1108.207031
-97.097916 928.230408 -1238.911255
-122.717461 1042.390625 -471.973206
-121.593338 815.488953 -1240.781738
-72.452850 1048.069458 -548.630554
-191.532455 723.747437 -1246.452759
-350.379517 779.825195 -739.371155
-114.481361 1037.749023 -521.219177
-340.045654 877.827087 -708.430908
-228.513870 719.690430 -1245.776367
-173.804825 876.857422 -722.742371
-382.941711 747.431335 -1210.249878
-262.232422 735.634338 -1231.590576
-126.064575 946.044312 -1216.534302
-232.675323 1029.068359 -416.774689
-211.181351 1031.162598 -497.249237
-225.570358 727.673706 -1238.647095
-25.597168 967.793213 -1204.993652
-237.898102 1361.697632 -1111.476196
-240.048996 834.395569 -741.643555
-543.617371 1007.798462 -1149.649414
-522.253235 848.837158 -1136.384521
-44.956532 824.603943 -765.261780
-386.930511 906.433044 -1181.245117
-210.279282 1023.892029 -466.260864
-8.715746 892.439514 -780.353210
-162.156128 677.456177 -792.997925
-449.580505 1094.843872 -1115.746094
-277.885315 807.914734 -729.037170
-302.010559 1023.912903 -369.418762
-205.576477 650.095642 -1243.474854
-115.171959 942.085999 -728.275757
-170.507690 668.268860 -1257.602295
-134.811218 1042.516724 -449.649475
-220.924988 1042.742676 -722.259644
-148.864807 1039.451538 -397.285370
-241.995956 655.970215 -816.776123
-136.474930 1032.803589 -388.392700
-467.465179 897.782043 -1093.069214
-349.476624 1002.542847 -407.139893
-46.562286 879.956238 -762.178162
-352.247284 1000.690857 -420.578949
-179.708374 777.901428 -1241.659302
-176.012680 729.236572 -1233.899658
-2.898195 870.418457 -770.474182
-174.236588 1028.643066 -709.346802
-70.278885 686.149170 -839.318054
-236.565323 980.576538 -707.417908
-343.314697 955.862610 -1169.977905
-122.989655 968.965881 -1193.844971
-186.967041 1042.962036 -535.419861
-198.171295 1035.132813 -482.287720
-313.374756 679.218262 -1240.275146
-121.957718 985.936951 -1187.821533
-228.086945 653.174255 -798.256714
-167.740280 1050.063843 -334.660706
-313.967529 1016.774658 -492.439240
-319.449677 974.839478 -711.938354
-463.743774 866.949829 -1149.993530
-91.412537 1050.096436 -551.309143
-325.844543 1028.076660 -469.065002
-148.221207 805.602600 -748.959534
-134.233582 1078.470947 -1156.775635
-231.216019 738.081726 -768.512512
-247.025742 941.393250 -714.418823
-213.863846 669.848877 -778.650696
-350.940613 735.898132 -1224.300415
-62.226212 857.681396 -753.221375
-23.349985 916.899597 -1248.929077
-309.020233 1042.081543 -375.650360
-379.971649 1006.864563 -534.741272
-368.225586 700.000000 -723.367004
-402.726593 1009.134583 -550.243225
-196.084503 1031.995605 -382.731964
-332.799530 779.598450 -1199.877197
-203.735260 691.877197 -1238.497925
-194.780792 1040.525391 -397.082825
-246.561447 932.937439 -714.627686
-92.858315 793.479004 -751.403809
-185.107971 1061.574463 -1166.965942
-378.306274 814.555664 -1186.922241
-277.070862 942.764343 -711.790710
-162.666046 1034.697754 -333.082520
-126.276024 890.209778 -737.811523
-221.735535 1042.454346 -560.941589
-184.604782 987.499084 -1171.690552
-153.373001 761.643677 -1240.577271
-122.514221 782.371338 -754.872742
-303.332611 827.787170 -749.142334
-203.505859 1411.738281 -1107.942017
-308.889984 778.605286 -747.491882
-71.035248 866.175537 -1254.190674
-178.979935 739.432251 -1237.430664
-55.812401 793.389771 -764.404419
-514.589783 787.126343 -1163.189331
-166.164978 1191.287964 -1158.209229
-560.350220 794.679443 -1150.847290
-159.465088 1312.799194 -1131.512451
-238.331818 1228.834595 -1063.633545
-100.611763 1031.846680 -721.752563
-264.986908 1025.929565 -600.687744
-65.804291 882.192993 -1238.675659
-269.616333 1015.778259 -366.085571
-313.991211 1002.797668 -350.251831
-237.841324 1027.030762 -430.942657
-126.027863 961.601440 -737.356873
-230.951538 754.530396 -1211.074341
-63.402149 1053.333130 -418.695068
-195.966431 1039.826538 -551.533752
-533.768799 1069.805786 -1135.572021
-153.338898 1236.622070 -1136.232056
-334.982361 775.932922 -730.631042
-90.573105 686.938110 -821.544800
-169.355164 1070.549194 -1135.332642
-168.027374 824.944458 -731.962769
-59.023163 744.234070 -774.012756
-87.012177 1011.495850 -1153.997559
-304.660706 980.751953 -703.255432
-141.156952 993.064331 -1173.258911
-221.341522 694.407959 -755.849915
-161.549438 695.433655 -772.727295
-96.001740 1080.405640 -1161.820435
-176.158173 1107.640503 -1153.539917
-202.452286 1045.931152 -337.835144
-346.088898 787.629150 -727.100342
-193.497025 1041.470825 -352.518311
-109.143089 842.665588 -1223.026855
-92.311859 1035.522339 -388.935455
-85.152962 782.666260 -1252.569702
-340.076752 1007.534302 -519.098267
-210.762436 727.966980 -1223.494019
-80.557693 1052.197754 -435.072021
4.429090 822.578064 -786.992859
-134.421280 909.896118 -1222.725098
-269.832123 758.446106 -758.609497
-273.390167 1020.726807 -439.966827
-94.867859 1040.785278 -397.096619
-301.726013 965.692200 -1035.358032
-280.450989 1003.709290 -1103.762695
-110.185616 1053.106079 -346.846313
-411.509125 733.539307 -1212.348999
-72.771790 864.821228 -1240.854980
-103.584236 999.568665 -1153.532715
-156.134171 838.331421 -737.225891
-227.998581 935.325928 -739.988403
-326.403381 819.942810 -738.292847
-230.507889 681.137268 -1236.183960
-219.732590 708.596375 -744.268005
29.152256 975.074890 -1220.955078
-190.344574 779.841492 -732.767517
-191.418411 841.971863 -1052.390747
-414.378662 750.418884 -1209.318604
-100.905693 704.939758 -777.398621
-348.316315 659.148254 -766.659973
8.888017 861.393555 -737.776367
-282.957458 1022.568298 -499.600922
-225.152023 990.494751 -1132.847778
-476.027466 842.341858 -1156.554199
-157.425262 761.243530 -1233.457031
-54.892471 910.829468 -1244.957153
-340.077911 1042.353882 -1066.173218
-174.689377 655.625244 -822.655212
-380.827698 1037.006470 -1067.104858
-413.595062 836.623901 -1190.379761
-265.528137 1036.520386 -544.594971
-207.034424 810.195190 -1202.741943
-156.382660 991.786377 -1118.809937
-215.063354 689.413086 -752.449829
-207.818237 853.370972 -1222.850952
-160.636703 1047.663452 -1149.680908
-354.157745 831.117615 -1206.428223
-242.993546 1055.076660 -1060.837158
-269.672516 883.020020 -1124.193848
-364.481842 1000.543762 -480.982056
-116.865013 733.805969 -769.830627
-2.974681 988.517761 -1206.829834
-303.521606 725.936890 -1241.222900
-265.412018 820.900757 -753.253601
-218.214981 727.295837 -1186.570679
-60.963657 826.058594 -759.997009
-237.845276 1036.706665 -434.093262
-221.035049 854.629944 -1198.966797
-269.480835 675.851074 -1252.371216
-79.791359 733.729675 -782.153442
-379.151520 1056.474854 -1120.702759
-274.148376 752.436768 -738.261780
-160.741928 1024.273315 -1196.456421
-79.735489 690.849487 -806.591797
-117.861664 780.629761 -758.706848
-236.451630 822.210693 -1149.764648
-328.142914 937.839172 -1114.154785
-330.687317 1010.722046 -494.202179
-224.655701 1129.839355 -1149.603760
-476.890381 824.196289 -1176.293945
-283.083557 750.144714 -1214.985718
-503.781586 912.448303 -1130.400024
-279.064697 1040.502441 -588.880432
-305.030396 691.506836 -1238.666992
-369.717773 1008.030640 -461.222809
-499.528107 793.225037 -1186.281982
-380.241486 999.308228 -451.022675
-116.566589 727.213135 -762.997009
-167.255997 1210.241333 -1174.182739
-540.951599 924.424500 -1136.163696
-299.862152 1020.278748 -467.367767
-274.484863 901.978882 -1080.771118
-165.036575 1029.041626 -724.315063
-400.305267 863.181091 -709.887573
-219.428360 666.362488 -784.634705
-373.299622 948.723694 -1140.841919
-223.500458 1189.712402 -1144.871460
-201.232986 805.858826 -752.135803
-30.457451 892.378235 -1250.941284
-106.475548 1050.208374 -503.294098
-148.784393 1053.780884 -556.386169
-104.839149 1046.290649 -540.724304
-166.219666 692.277039 -783.078125
-508.382874 891.416016 -1129.433105
-346.303101 738.567749 -1223.255615
-208.595108 626.031433 -792.212769
-252.296402 681.978760 -1243.759277
-389.257172 833.979919 -692.555786
-404.949982 800.184509 -711.886780
11.897012 1025.181274 -1216.525757
-234.024490 747.697754 -1198.436768
-166.267746 749.123962 -759.721130
-155.242172 845.140320 -1242.488892
-164.792847 1063.382446 -606.979797
-247.981781 943.999329 -715.186584
-122.375710 1059.689453 -321.601776
-83.855865 794.508057 -1250.668945
-322.183319 892.806580 -1165.948975
-365.045563 827.721497 -713.798584
-297.608093 993.629028 -682.759399
-251.261353 804.501831 -1197.950439
-242.914398 806.008301 -1004.967957
-36.251408 1061.591797 -485.634155
-282.930847 1007.721497 -567.620300
-227.207138 821.731262 -723.506531
-414.759979 793.059570 -1221.733276
-192.584900 994.321106 -707.700745
-48.004696 831.462036 -770.368042
-54.342663 692.632202 -826.455200
-346.234497 803.429199 -1222.445313
-197.997086 1023.135864 -410.293640
14.595265 956.106689 -1239.652344
-61.240185 972.527771 -1205.097168
-17.046131 964.811157 -1202.712280
-209.487991 1014.604431 -728.702087
-298.555054 1026.773682 -325.656067
-194.369995 1053.052490 -349.039886
-167.133713 955.823547 -717.210693
-272.495239 703.659180 -736.717712
-255.258209 1214.582886 -1089.471802
-240.339340 1039.869263 -507.094910
-293.692169 1013.123230 -410.446075
-218.664078 646.614136 -1252.748901
-541.968872 840.665039 -1167.897949
-42.048897 879.360901 -1253.586426
-186.061111 696.105225 -770.541321
-178.224228 962.735291 -725.514587
-108.215813 758.716858 -762.431213
-375.222778 788.576172 -1206.021729
-142.907013 1039.801758 -480.800385
-19.072662 1006.980652 -1150.616089
-314.054291 1073.632324 -1073.471802
-385.142029 814.922180 -1218.633911
-390.489349 907.135132 -706.816101
-418.280121 740.937317 -511.435394
-54.379795 1056.586426 -454.742401
-214.229111 1042.278320 -339.853607
-148.283691 1043.042236 -529.467102
-125.950867 906.940796 -1232.953857
-205.157211 698.849426 -1266.453491
-130.288345 951.860718 -1226.048706
-378.513916 943.681213 -704.406616
-180.755829 1052.183594 -331.632324
-48.079430 905.108521 -734.884521
-241.568893 1029.968262 -316.083923
-196.027756 980.881897 -1103.212036
-146.568512 699.536072 -1244.062134
-272.701111 623.795959 -792.408020
-393.216003 888.389526 -1186.276001
-288.074677 1015.099609 -358.005035
-222.214920 935.982544 -1100.526855
-161.377396 1059.025635 -346.419189
-193.240829 979.597839 -1184.364258
-135.073090 1085.674438 -1166.806519
-116.864113 717.038513 -777.901489
-49.111771 1057.626465 -461.791534
-181.449081 841.260437 -727.105713
-432.713806 906.390137 -1142.542847
-323.275330 834.078430 -1207.435059
4.896173 1018.395996 -1208.254639
-103.050583 1048.574585 -540.398193
-410.579712 896.157898 -677.992737
-185.181442 997.407654 -1193.964478
-281.088623 1031.828491 -541.760742
-55.351994 731.232361 -796.597778
-60.393066 919.368408 -726.275085
-287.777527 998.224670 -696.620422
-291.364532 1015.387756 -707.363403
67.001335 826.829956 -576.827820
-204.201981 981.632568 -1195.822876
28.490301 979.532043 -1224.764771
-396.586029 813.125061 -1201.811279
-192.424103 674.771851 -771.846558
-173.305878 669.699097 -797.963806
-246.134964 976.695923 -1088.725830
-43.754768 1009.911743 -1156.547119
-179.521362 1066.751953 -1144.481689
-356.817657 914.444885 -731.213135
-191.357681 1043.403320 -324.832153
-345.918518 1015.708618 -531.243103
-154.472321 970.738403 -1214.294189
-134.618835 1035.751343 -346.766846
-369.972137 1000.872498 -370.089813
-342.168579 1003.290955 -415.441864
-181.918915 773.026123 -1209.046265
-109.805969 985.169678 -1126.734009
-157.087311 800.954163 -1240.337524
-146.249298 1065.787109 -634.136108
-119.388344 1044.368652 -458.353851
-143.421005 1031.265747 -388.053101
-9.242631 940.113037 -741.007568
-307.932251 805.348328 -727.758545
-201.160736 665.726685 -787.644409
52.314632 1042.694336 -1217.632446
-200.620056 763.998901 -1236.868530
-48.277439 856.095154 -1253.331665
-186.937744 677.955505 -1266.083496
-292.685089 1030.229858 -537.068298
-24.877970 967.078369 -1214.841064
-237.886398 1020.060913 -322.672058
-143.059586 1050.805420 -416.243744
-116.312592 1055.469360 -609.997681
-160.023590 730.011841 -766.298340
-185.508286 738.058044 -1214.737671
-302.330627 856.745178 -1168.881470
-180.730850 1034.156616 -326.537384
-200.018112 697.808411 -1217.697998
-340.298615 969.456055 -1143.288696
-275.408417 723.237549 -750.351868
-37.210114 765.119812 -781.043396
-206.510376 658.764587 -779.760437
-209.186569 885.056152 -1220.193970
-325.022461 966.713928 -682.927917
-208.917603 693.081116 -1224.645386
-317.247223 1014.488708 -323.457153
-173.621002 1028.334839 -1192.356079
-109.330566 832.335876 -1251.792236
-202.080139 1126.222168 -1166.289307
-199.047455 713.737732 -779.112915
-139.893723 762.559937 -1248.392700
-175.447754 1017.398926 -702.958984
-164.341812 1057.914917 -1171.040527
-428.638947 868.181030 -1180.813843
-198.715057 666.595459 -809.020142
-191.406235 731.732422 -1239.992188
-110.324913 1029.491089 -1183.188110
-82.760399 955.089905 -725.815674
-275.531525 703.035767 -1224.189331
-302.174316 699.622742 -748.943665
-196.368912 980.638794 -1155.071777
-325.313080 1016.976501 -496.451080
-150.874374 687.070251 -803.031250
-244.034683 1156.776489 -1142.953369
-68.464798 968.629272 -1223.611328
-105.425842 1041.950928 -412.777374
-245.412491 1027.388428 -407.692505
-311.135437 923.405151 -715.872192
-60.019592 855.716431 -1232.413452
-298.258240 1014.637268 -404.042175
-328.948792 1008.370667 -482.241516
-104.733894 1096.071899 -1172.353638
-103.497047 1046.000977 -403.568726
-428.783630 715.017395 -578.705933
-445.145538 915.895935 -1137.610596
-327.320831 768.736145 -1220.949463
-156.365784 809.284119 -1246.350952
-275.310913 1029.084961 -387.390839
-117.032562 795.928467 -744.716553
-369.710175 751.088989 -1235.773560
-413.277924 854.754333 -715.411499
-345.509552 923.459839 -1187.139404
-102.694763 957.605896 -723.509949
-42.739929 1078.880005 -582.071350
-281.606842 1026.314697 -420.625214
4.597215 936.467224 -1233.914795
-71.432610 880.826599 -759.824524
-305.870178 818.347534 -737.397339
-162.586227 678.401794 -776.760376
-361.467010 689.638245 -734.851685
-238.495407 829.099915 -1171.739258
-253.373901 719.675049 -1238.770752
-68.917809 1003.754272 -1208.917725
-98.651855 881.280396 -753.377319
-321.874451 789.001648 -1219.267578
-133.888657 895.889404 -1240.110474
-142.970474 648.098022 -826.849976
-191.403687 644.438049 -780.291687
-54.737801 743.509521 -804.987366
-231.905457 837.450134 -1208.205566
-135.436356 1051.857422 -342.533936
-196.380142 926.703613 -1198.352783
-203.935425 873.899963 -1192.120483
2.193401 810.029297 -761.356445
-209.339935 838.402344 -739.516418
-223.562515 804.419922 -756.011108
-323.759796 708.182312 -1239.338867
-216.442856 1001.549011 -1200.187988
-21.804928 935.505127 -1246.118774
-278.582184 1012.609619 -375.125214
-15.740047 938.530151 -713.244385
-55.443138 707.151184 -809.630737
-375.577820 933.201843 -1094.140869
-23.495981 1018.747314 -1193.364990
-198.992859 1035.699585 -307.057800
-140.390060 821.761658 -752.357178
-417.649353 874.194519 -712.776367
-297.447723 772.815918 -1237.921875
-273.213593 817.650330 -733.153381
-198.570435 673.581787 -766.830200
-336.972046 691.319519 -1229.746338
-361.610321 907.878052 -1100.657227
-57.500668 941.857239 -1238.150757
-234.914642 661.651428 -771.682312
-74.150246 711.221680 -785.086975
-178.506622 1011.015930 -1159.240967
-49.263000 725.479919 -789.153687
-24.249092 715.198853 -810.384338
-228.899841 1028.544434 -445.284149
-174.564514 985.238647 -1198.345459
-296.247345 966.122681 -1140.586914
-73.446815 1064.082275 -1153.950684
-141.290070 662.171143 -822.185120
-84.704170 806.973328 -1248.438843
-187.076401 700.510559 -1260.044556
-373.233765 1001.682983 -460.245117
-266.900818 1183.865845 -1086.091675
-330.317200 1017.634033 -421.519043
-215.519119 740.042725 -1225.687866
-55.910416 1060.868530 -402.671051
-407.810425 756.045166 -1209.370361
-227.429657 1029.976807 -411.627625
-203.869431 985.513184 -726.104675
-350.616730 848.526672 -716.755981
-191.204758 719.125671 -1244.980347
77.813873 793.071350 -630.795471
-261.628113 722.203369 -743.039368
-226.654251 1035.769653 -570.676636
-130.795456 1041.372803 -473.867401
-351.714600 875.157349 -726.237549
-451.766754 840.446167 -1157.441772
-25.972328 773.551941 -786.781555
-217.093521 765.478699 -1169.442749
-352.577484 1000.786255 -398.818542
-236.128403 862.913147 -1203.158813
-312.294159 689.104736 -735.793396
-170.204956 890.644531 -1226.090454
-385.507416 863.726013 -1192.268555
-237.791031 841.819092 -727.443176
-162.943573 1031.212524 -375.172302
-163.019333 1047.044922 -581.416504
-88.620720 877.939453 -1224.589355
-187.269150 739.073730 -756.927856
-71.157730 721.655518 -789.060852
-84.331268 973.460938 -722.977295
-511.157379 931.521973 -1129.494263
-294.443573 1011.352356 -384.906799
-233.364853 914.311340 -1196.582886
-284.736786 765.718872 -1201.313721
-419.866364 913.719604 -1087.104980
-217.589798 1046.031372 -500.259064
-218.227676 962.670227 -1103.579834
-200.408951 751.939819 -750.099060
-150.012772 1043.211060 -485.820007
-343.536499 933.160645 -1166.674438
-99.803131 854.606201 -1239.484497
-219.986542 1030.098022 -453.818146
-171.249619 1034.132324 -545.326660
-116.486427 878.219421 -1247.031372
-376.536011 734.430176 -1213.653320
-269.428650 815.153687 -1124.710083
-272.608978 949.859985 -1110.407104
-489.323669 930.143127 -1147.173096
18.862406 980.301208 -1221.735352
-253.479721 853.011047 -1079.966919
-167.466354 721.754333 -1251.086792
-238.572662 924.722168 -1073.263672
-242.875641 1023.014404 -397.603058
-304.838959 633.034546 -807.214783
-281.406403 1018.243286 -402.559296
-371.187775 688.910828 -736.861145
-308.633698 777.852356 -1218.324951
-245.533112 718.202087 -750.785767
24.234802 1082.952026 -1203.341309
-345.331879 1003.190308 -463.072815
-66.668213 1042.099243 -389.976257
-299.876953 1011.259338 -349.071442
-220.199249 1029.128296 -489.492310
-172.435104 1276.653320 -1140.152466
-84.796188 1048.220703 -436.398438
-324.504913 1038.012695 -410.439117
-87.242966 805.643311 -763.520935
-357.155029 808.953491 -733.056641
-213.239685 752.194946 -754.318726
-514.886230 1043.048462 -1122.267822
-376.793610 751.941895 -1213.694092
-106.502480 741.350159 -758.618408
-203.272705 696.561340 -760.852234
-142.783829 973.482117 -1203.285645
-204.935684 1054.013306 -1108.757813
-259.515045 928.319336 -699.719116
-67.002022 1048.185669 -383.690338
-133.920441 1032.184326 -1191.071777
-84.611122 1057.081665 -510.887329
-104.389938 878.807190 -1244.783081
-124.400764 1045.302002 -467.740448
-260.801117 1020.449402 -698.569702
-198.287354 994.804871 -1142.131592
-307.130676 964.268188 -1128.037476
-188.925308 982.525818 -727.345032
31.532290 1051.331543 -1206.373047
-322.473083 971.137268 -1176.691772
-265.440063 1037.275513 -309.315918
-201.410126 700.739624 -1245.528931
-97.032532 1038.757690 -509.600403
-203.685120 762.200317 -1221.710449
-115.262367 1044.884033 -320.203705
-188.447205 1014.331360 -1182.348755
-168.444687 946.894409 -1199.649048
-344.672577 1000.438782 -462.589935
23.017408 1010.321777 -1215.773560
-350.065613 895.189392 -1205.792480
-433.105988 838.032654 -1188.862305
-183.521454 1045.319702 -504.761566
-259.633209 777.004517 -740.095215
-337.377777 721.546692 -1241.744019
-210.819565 1129.276123 -1151.669556
-203.260406 981.090271 -713.323242
-202.621292 1026.823364 -579.891785
-321.282471 705.639771 -749.819702
-95.975555 965.558472 -1208.687866
-216.157593 682.087524 -756.210632
-99.501266 1027.061279 -1190.296875
-231.216965 820.801086 -1196.081177
-31.721514 793.312317 -773.406738
-309.002167 820.884338 -1179.584229
-309.874847 1011.950745 -560.663208
-184.106476 1043.059814 -560.302124
-236.067123 1062.919434 -697.283691
-361.508698 1030.307739 -692.117126
-300.806213 1034.267090 -449.668518
-151.777634 670.485535 -792.213379
-374.752899 817.125916 -1199.644897
-79.061371 791.404785 -1251.014160
-180.482574 1026.643188 -432.090302
-51.709877 839.508240 -753.969299
-215.106659 736.484680 -763.842896
-237.259933 690.012085 -1244.056274
-410.896942 1076.584717 -1136.547607
-130.333984 733.095337 -1265.517090
-118.142548 1048.433594 -593.414429
-110.445053 778.129639 -748.041199
-371.028046 785.084656 -722.408875
-338.393066 653.659729 -772.649902
-174.253723 1048.979858 -555.408447
-192.915558 1065.132080 -325.806793
-236.222855 979.316650 -1188.984619
-243.381271 770.301208 -743.954651
-125.598427 939.243103 -1202.149658
-364.174408 930.314880 -1170.955444
24.411503 851.622925 -765.101929
-215.876938 918.798157 -1222.950317
-251.722656 1036.048950 -486.789368
-291.601746 889.575562 -1168.863159
-20.278223 796.473328 -779.657166
-128.352264 802.396362 -1251.703003
-35.209538 811.446045 -771.015381
-170.006470 918.646606 -1230.006592
-380.588470 926.167969 -1156.091309
46.260773 1068.347656 -1203.098145
-490.810974 842.528503 -1133.017456
-146.708832 1167.809692 -1162.007202
-174.646881 1045.330322 -315.254669
-329.769806 705.495728 -743.131409
-206.623932 906.973389 -713.946472
-23.910198 861.554932 -769.250183
-251.902740 888.500366 -1067.468018
-32.733646 989.282166 -1202.926147
-128.031372 716.680359 -762.499817
-377.068085 1001.840393 -497.052216
-233.384872 1028.330933 -451.219757
-133.917313 773.497681 -747.160034
-215.166107 932.665710 -1208.343872
4.168419 851.568176 -778.087646
-323.448334 1005.319519 -447.442413
-277.814423 907.330566 -1074.124878
-163.056458 670.300354 -787.287842
-211.244965 964.793884 -1076.974487
-230.896774 1023.305176 -361.884705
-128.544556 853.475037 -743.678955
-147.637741 853.788879 -756.876648
-541.169006 1005.782715 -1135.789917
-271.627014 908.041809 -1184.407349
-385.913391 694.503601 -721.831543
-42.581760 917.570984 -742.849121
-49.111378 941.888855 -1229.180054
-242.688461 769.472107 -1223.505127
-208.275543 776.253296 -1151.437256
-161.031738 867.856567 -1239.578979
-167.076859 1060.014648 -594.108643
-89.080505 714.095459 -802.233215
-388.278168 863.903259 -1193.942261
-248.438843 829.379639 -1205.730591
18.573679 988.910278 -1190.831299
-243.502136 1123.437378 -1188.446899
-171.618256 765.991455 -1249.568848
-139.731567 1043.492554 -502.942932
-73.141434 852.389404 -762.133179
-50.362091 1096.369141 -1176.858398
-206.341171 942.421021 -704.893982
-436.249664 786.321350 -1184.906006
-258.260529 1029.274170 -348.667694
-343.196869 977.327515 -1109.825073
-62.670254 786.615234 -1242.861938
-116.583321 818.737610 -1226.126709
-221.774841 769.174072 -748.567505
-347.517639 1009.955811 -416.326965
-529.194092 806.829468 -1182.195313
-298.377075 1016.009277 -501.514923
-48.726318 761.162292 -775.943115
-40.123955 910.570923 -1249.562012
-140.791473 855.284607 -731.772583
-236.159943 937.736084 -1207.768188
-248.691696 1013.615601 -1096.442749
-35.120937 747.193481 -801.427002
-40.202206 853.129272 -1246.511841
-424.942566 758.832764 -1204.162964
-315.028564 960.244812 -685.708740
-276.871185 978.305298 -1033.326660
-115.365326 1047.271484 -520.898865
-198.384842 1030.047485 -418.719391
-313.070374 745.421814 -1223.515259
-173.682220 1034.363525 -362.832458
-144.972443 1030.131958 -414.510010
-245.547684 817.046753 -731.138184
-334.893494 778.910339 -727.980408
-202.269699 671.505554 -785.490356
-312.860382 1010.807983 -341.626129
-114.692223 1044.325195 -365.479279
-107.966972 1042.788696 -422.797333
-363.606659 1021.988037 -582.330444
-329.865479 943.626221 -1075.608276
-252.932877 781.414612 -739.935913
-37.124832 969.312866 -1120.851440
-252.556335 1032.865112 -511.205139
-303.497955 766.917053 -1204.059937
-241.841537 1353.724731 -1095.653198
-282.732941 1009.570740 -377.613403
-121.842087 729.608154 -763.498901
-38.447529 868.648621 -1249.109253
-338.791595 805.386230 -1207.362183
-363.214264 1006.161743 -439.072754
-177.251694 948.697205 -1215.020264
-116.329956 1045.345581 -516.786621
-358.118011 869.443604 -1212.977661
-240.840775 1019.310242 -1154.692139
-347.528107 857.903198 -1211.495239
-485.744293 776.628845 -1189.436646
-192.791885 722.362122 -1240.215454
-349.970154 857.674072 -729.835510
-192.655060 879.471924 -1202.644165
-155.850555 982.194031 -1198.949585
-52.122738 852.337830 -767.106812
-365.935608 1001.818420 -499.672913
-521.676636 917.154663 -1131.999512
-370.325867 895.496643 -700.915588
32.554996 996.028687 -1230.251099
-115.563225 891.235596 -725.348022
-220.205505 1110.432739 -1178.842163
-172.171051 773.236084 -750.200134
-48.510189 787.455200 -775.631287
-207.445786 1035.446899 -498.891022
-272.905029 1195.374512 -1112.534668
-85.159119 1050.010986 -571.379028
-290.849030 681.396362 -761.765381
-93.886192 1041.042114 -441.784149
-158.641296 667.743042 -793.035400
-222.742813 1218.768677 -1115.834961
-258.302338 1020.575989 -511.600372
-233.662689 668.104553 -1235.511719
-241.585526 956.092957 -699.817261
-197.809967 803.376099 -1169.814209
-229.284576 653.650574 -788.570129
-287.459625 781.123779 -1225.665771
-28.355019 974.401794 -1188.398071
-303.620392 1025.252686 -539.524048
-269.391846 1052.159912 -721.121155
-159.398010 852.040100 -760.549255
-139.429474 671.391663 -794.449951
-121.238556 874.771545 -1218.297607
-248.805511 1024.661255 -384.598907
-277.571808 923.544556 -697.970154
-180.957138 1177.688232 -1140.683716
-60.252151 945.599670 -1236.440796
-263.394531 1237.983643 -1048.040405
-283.255829 1154.934570 -1117.904419
-310.160675 999.869690 -585.263489
-232.611359 1023.906494 -397.584015
-28.072809 760.906250 -798.401917
-140.031418 960.603882 -725.208313
-407.815674 877.651672 -682.553772
-208.931549 1322.998169 -1108.952026
-324.282776 1009.931152 -323.768738
-336.455048 1008.868469 -355.317444
-70.574120 820.645996 -1252.788940
16.674685 1013.798828 -1230.810181
-275.424896 947.002380 -723.773010
-231.299316 1034.226440 -444.772186
-246.321884 840.364563 -726.562561
-74.118050 802.092468 -763.222961
-109.110352 662.680603 -815.239990
-335.050079 961.034729 -708.335449
-278.984985 1378.646362 -1089.449219
-217.814758 1032.575806 -482.416473
-285.289581 1012.766785 -315.482391
-190.872299 698.412964 -1244.327515
-421.709869 775.426208 -1202.634399
-53.702175 1049.275635 -467.703705
-344.392181 865.399841 -712.654541
-214.011978 705.916748 -1222.501953
-346.588104 951.976929 -706.563904
-230.197006 919.024170 -1081.364502
-70.875702 1060.178955 -522.048401
-138.161560 1031.912964 -707.563843
-70.949532 951.362671 -1233.037476
-217.174927 1191.099365 -1136.500732
-305.664246 939.117920 -711.022095
-331.114227 911.084595 -1176.109131
-160.342926 844.925415 -728.765442
41.360313 1045.811157 -1218.723755
-144.609238 1046.770386 -572.299561
-89.126152 1059.686646 -566.324768
-313.777618 632.938538 -788.582703
-372.325836 879.061768 -732.784790
-259.096832 860.600891 -710.314819
-288.425537 902.889893 -1175.486450
-126.083054 800.816895 -1242.907471
-98.701393 686.967041 -857.410339
-305.965759 1029.900757 -562.252136
-224.013062 860.698669 -739.096619
-308.838654 947.449036 -707.921692
-34.001240 855.203064 -753.495483
-325.048645 874.461792 -1208.708374
-323.601074 841.431763 -1190.096924
-366.523224 960.718994 -1125.043457
-103.191994 681.962769 -822.966919
-61.521343 945.642029 -1226.878662
-173.927414 1036.577759 -400.734985
-213.272095 1026.084106 -398.421967
-215.262695 990.263855 -1141.723755
-186.117767 814.429321 -738.603394
-106.287491 990.323853 -1140.540649
-48.733364 1071.146240 -1189.946899
-262.939209 1032.427368 -481.474945
-185.361374 1113.957642 -1161.725342
-125.306839 701.693970 -789.157043
-140.371109 1019.575500 -1155.157227
-142.670395 977.324097 -1195.808838
-0.875660 813.536438 -773.357056
-426.268402 910.919861 -1185.042969
-60.987167 898.433899 -755.286682
-352.324188 801.438904 -705.044556
-197.704712 658.108887 -805.671814
-180.377716 1033.195801 -321.595703
-277.795105 1021.079163 -390.428925
-348.674103 726.731323 -1224.067993
-77.551880 889.511230 -1242.978638
-380.456299 751.413940 -1215.226440
-109.535713 793.311768 -1255.689697
-339.005615 1000.225342 -1091.241333
-179.238815 1036.619873 -1117.267212
-308.048828 643.415344 -765.575256
-104.771233 1038.666260 -397.061920
-228.835510 887.838928 -713.489441
-377.310059 993.865723 -427.031189
-106.264130 797.964905 -771.485413
-194.657822 1047.491699 -335.600555
-202.427917 1064.732910 -1201.009277
-343.557434 673.319641 -752.256958
-207.669495 857.810059 -720.683411
-250.758118 670.322021 -1246.224487
-202.455124 1247.647339 -1080.385742
-232.657532 756.908936 -1192.467651
-88.431374 719.572021 -803.576660
-120.818298 1032.033447 -1186.907959
-272.283325 967.139343 -1095.923096
-135.750351 937.685303 -1215.217285
-403.536926 775.252625 -1205.157349
