ply
format ascii 1.0
element vertex 1391
property float x
property float y
property float z
end_header
-32.803970 692.116821 -900.920593
24.805698 941.602234 -594.403198
92.389259 721.328186 -1380.919312
-38.359352 542.743530 -891.022583
49.169632 939.738464 -668.413513
26.042145 539.900879 -906.928528
111.804382 753.062317 -1299.353638
-77.595177 939.933472 -615.463928
-42.759216 489.077911 -1359.550415
-39.002972 965.759399 -548.413208
203.980545 821.779358 -1376.593628
161.393082 884.372375 -769.076538
44.891998 682.248230 -1377.817139
-26.488838 926.485840 -747.479919
93.451424 925.612915 -761.212891
36.033340 964.854309 -574.138855
-33.004753 642.027466 -1285.553223
-12.148285 617.188599 -898.128052
-238.179596 917.451843 -643.131409
-172.629044 912.524536 -719.597900
131.425385 572.470154 -1382.728149
-315.940704 810.593323 -1361.768799
-81.383797 888.755005 -902.314270
-129.729187 929.122498 -677.067932
-43.797001 954.386292 -553.157654
-123.618317 539.424927 -1366.149658
-34.666344 929.934387 -763.524597
10.546599 746.981079 -1379.231689
-226.791229 923.942993 -632.668213
102.927605 699.137817 -903.990112
26.815266 727.916199 -891.366150
-333.146484 636.393494 -1339.209473
-85.053596 763.694763 -907.007263
-369.413788 648.885803 -1341.461548
46.692974 703.201721 -908.072510
-300.356171 643.174683 -1310.987671
-34.662048 508.131165 -1368.149780
-149.060822 861.966858 -905.491211
4.115838 595.230652 -889.352966
-11.441190 571.301453 -1246.209839
-227.130005 618.108826 -897.714355
-181.883728 944.888916 -564.528320
41.139099 922.212097 -773.974487
-252.278275 616.329102 -898.096252
-8.572912 515.445068 -916.084717
-175.266235 780.661194 -895.332092
-161.955688 938.459717 -599.860474
-253.868179 899.467468 -745.172791
40.818851 905.439880 -1391.877808
88.186394 953.120972 -730.767212
-26.908607 940.551453 -676.259827
-40.198120 453.461121 -1368.722046
-192.210037 942.964294 -548.737000
-240.972641 709.063110 -1121.707031
-64.103096 568.979980 -1364.945679
-175.803223 927.954041 -650.510681
-9.000757 628.344238 -1374.418579
-127.062401 590.482483 -912.661194
-137.342514 921.367920 -778.223450
-41.198719 911.091736 -769.715637
-331.158966 712.345764 -1329.701416
6.289277 597.276062 -908.665283
158.688538 575.365234 -1385.257080
-113.629410 572.836243 -893.747742
-44.502029 531.864258 -1364.400879
27.888325 528.430115 -909.715332
31.386084 928.275940 -730.656128
30.936884 633.499939 -888.193970
-279.163330 626.924377 -1323.859741
-88.793045 449.502045 -1358.275879
-117.081528 700.039795 -883.987244
-203.483627 911.565552 -721.891296
-37.086868 811.191711 -920.915894
-46.803879 928.119812 -774.825195
45.970047 650.763672 -897.299561
93.924530 808.893188 -1325.960205
-215.790558 598.836853 -1364.506226
26.657797 691.211548 -893.182922
152.696442 697.625610 -917.075623
107.149261 508.138550 -1375.185913
-109.297081 834.078613 -912.764221
-135.392761 660.254456 -1367.593262
77.084938 721.142212 -886.030457
59.247044 675.336670 -903.497131
-139.295715 871.169495 -907.582581
98.807312 940.969238 -725.088379
-64.009171 991.520447 -520.851074
-227.899902 916.101990 -799.167847
-103.059189 592.057800 -897.193481
4.319903 536.879517 -898.405762
147.974548 644.493958 -1389.454224
58.912670 546.747559 -921.444885
-133.202316 673.550842 -1355.371216
89.433495 536.901917 -936.253052
39.179790 729.829834 -1364.671265
0.044159 915.294312 -793.453979
-167.539673 594.553467 -916.279114
-36.083256 565.225037 -914.857849
-94.225815 924.925476 -813.024780
29.510214 908.236206 -1360.521851
16.069685 591.282715 -913.012207
35.259907 1020.812805 -1341.535278
181.102661 729.032898 -736.328735
-94.994347 687.800110 -1353.405884
-146.018402 515.014404 -898.783936
-127.227608 921.487305 -737.589661
40.743465 784.926331 -1314.554810
-171.357895 786.101135 -905.926392
67.330750 744.343506 -897.313721
-150.708313 548.656189 -1354.878052
-91.582062 487.724152 -919.666992
-137.430237 676.007629 -1372.416626
5.291792 942.851746 -602.340637
131.606308 611.101196 -918.863281
91.549812 574.787354 -913.719421
95.519150 671.152588 -1362.184570
5.778676 902.805359 -1366.672729
-99.001419 927.133423 -713.161316
-241.106476 592.829834 -1376.199341
-126.006187 694.709778 -1383.031372
-130.886230 911.620850 -756.546814
-289.469727 633.953430 -1287.351318
-182.497452 901.636963 -775.651672
42.316715 665.618835 -1388.375977
277.476074 798.124023 -1363.924561
-13.088312 930.223694 -725.651123
43.538700 722.206177 -1370.542969
-9.263710 860.664551 -1349.531494
39.814838 492.175507 -1369.443237
45.308647 772.347107 -1345.841797
86.993690 587.686096 -899.800049
65.372002 728.408691 -908.616638
-88.660789 577.154663 -895.394836
12.627011 963.005981 -587.137451
-230.276550 651.439941 -1334.023560
-31.318386 490.926849 -1364.554688
-233.829041 547.054810 -901.314941
161.330872 682.814270 -1390.138428
-76.265060 560.456238 -1369.188110
-268.894897 626.903809 -1357.784790
3.001043 861.717712 -1351.686523
28.075855 946.939819 -572.643188
87.142807 948.841064 -659.780334
-169.192123 647.347229 -895.144836
10.216355 939.513489 -648.478516
53.358517 657.784119 -898.976929
12.283414 781.755493 -1374.768677
32.623001 948.165100 -632.149353
95.818558 751.389404 -1298.103882
-223.905670 595.864319 -1367.563843
-31.172480 901.619202 -1327.601318
77.834984 951.265625 -609.514954
-293.831543 596.221985 -1355.277222
-244.804398 915.829834 -678.277405
-15.513689 969.223755 -548.630554
94.982986 535.063293 -1375.631348
115.348038 712.613098 -1385.429810
-224.002060 919.352478 -652.287170
20.874556 860.342957 -1377.860107
50.411404 1121.033203 -1349.780518
-45.884388 538.516724 -891.413208
-124.920067 943.043335 -566.682190
-107.919113 968.160034 -511.480499
-164.814896 669.836365 -1364.656494
33.725140 957.917786 -553.213013
-120.337547 927.370056 -729.759583
81.726837 658.901184 -903.541870
-233.791565 609.432190 -1372.492920
33.262997 957.861450 -575.663940
34.892292 535.351746 -1358.412720
-182.212402 554.981689 -1369.863037
-244.042892 722.579895 -892.118103
66.936119 631.862183 -1382.870972
-3.628463 584.853821 -1309.919678
48.473480 958.733826 -564.684692
225.296494 710.345947 -1368.110596
-286.090302 687.215210 -1333.906982
-48.815704 932.913452 -784.823853
34.661911 925.098206 -1355.916748
-205.789627 713.291992 -1357.447144
111.136658 649.263000 -1363.629272
11.236576 931.133911 -672.543640
-29.836241 542.288940 -891.643616
10.607059 767.664917 -1320.604858
-74.814110 938.734863 -658.979919
134.750977 571.075745 -922.998962
70.411629 756.425110 -1343.689697
-62.751011 828.785278 -888.338928
-160.791992 917.949463 -666.142822
-2.809786 653.753357 -882.755981
48.553967 937.397156 -773.372742
-159.745926 638.503723 -909.492981
21.207031 732.045288 -896.338623
-9.063916 684.862610 -1360.427490
116.400963 769.290955 -1295.258301
-161.457275 660.280518 -1348.161255
142.431641 700.235840 -917.263550
79.682838 545.341064 -924.441040
-114.307068 883.670532 -900.794617
20.627607 927.166321 -716.674561
-88.109673 955.328918 -537.325134
84.317032 760.484802 -1301.673462
-22.908176 560.726990 -906.848877
-71.669304 836.138184 -888.156006
64.879341 481.317078 -1383.609619
-145.964554 929.353882 -622.042664
-66.752235 703.782532 -918.039185
105.492706 570.773132 -930.127625
-137.636139 562.106201 -1366.115845
18.928478 950.975647 -599.092346
-92.867500 482.541321 -928.335815
-6.393949 528.056763 -907.394409
44.960075 785.860168 -897.982910
-95.757576 695.264282 -886.056763
73.256142 721.180908 -1381.804443
-73.083473 929.484253 -669.413086
29.833828 775.910156 -1316.823242
-84.912064 950.683350 -586.586487
-231.949097 570.631897 -905.326843
-19.447796 519.246094 -912.678223
194.309204 782.274597 -700.671936
-159.919296 856.395142 -924.458740
-108.657562 750.774597 -1225.757690
-322.709930 742.647888 -1354.583862
-22.744789 532.237305 -1343.864502
-64.582848 748.905701 -1178.535767
-225.692886 522.477295 -1366.641235
-205.987991 730.081665 -1333.912231
9.011946 781.919006 -1364.379639
81.245667 610.856201 -891.302185
-211.236771 786.091858 -1339.801392
-35.088024 952.958618 -1367.132446
-46.815140 918.419556 -732.632019
267.485870 770.244385 -1374.331421
22.473852 689.577454 -1376.263550
-60.905140 910.908386 -902.973755
-117.945641 696.162354 -1364.722534
37.715607 529.192566 -910.954163
-171.464264 739.833862 -893.230591
-238.952347 741.052551 -897.090881
47.734623 829.936218 -912.331726
41.673622 962.908630 -572.442566
74.335831 541.388428 -926.264954
78.324226 929.894226 -753.780640
-131.562454 970.311096 -538.976929
106.598488 558.418457 -913.130066
69.572578 499.942719 -1375.651611
-191.840012 588.188110 -894.781494
-219.705414 572.657410 -1352.304077
68.954910 702.851990 -888.416138
-3.610647 416.718140 -1375.669067
-113.994087 491.377991 -931.318542
-318.976868 615.033386 -1337.038330
-62.274456 415.921692 -1368.680908
-21.955133 935.046448 -672.535828
185.201721 725.510620 -1368.847778
-196.951675 924.509766 -679.247925
-38.744389 725.263428 -1320.287354
-90.203979 930.772400 -783.029724
76.885498 618.709839 -1386.646362
-182.811768 573.854675 -899.513123
-185.405746 911.679810 -765.101196
-20.521818 919.299988 -767.422546
-57.903145 707.300781 -1306.610718
-96.609665 398.105164 -1355.151245
13.385465 935.206665 -1354.712891
-233.357300 904.568420 -718.804871
-33.468857 933.808472 -774.357056
78.624931 948.368164 -747.373108
-32.465534 731.807800 -886.684204
-5.254727 956.007507 -553.045227
-169.440033 715.389832 -909.789673
-139.229340 648.733337 -1373.334717
127.763733 571.093384 -915.994080
-143.606888 909.961975 -740.392517
-61.704788 483.366058 -938.591980
201.465836 686.068420 -1385.740112
83.774399 821.459961 -895.306641
22.938839 815.544556 -913.919128
-65.426010 946.498535 -576.335388
-32.456791 957.758911 -569.023315
-82.003136 719.570007 -888.234802
12.302808 786.537903 -910.328857
-150.464111 840.169250 -903.255188
-25.289318 960.681152 -575.679749
-157.587234 928.578857 -647.201660
-205.427826 671.719727 -877.562805
206.772919 672.860352 -1362.662720
-198.859573 624.072754 -914.174988
73.425026 514.590942 -927.234253
44.464485 1066.156006 -1367.290771
-91.357552 933.056641 -635.876892
6.994119 844.158264 -900.484741
-188.992752 736.005127 -1347.979126
-62.743523 946.069702 -571.244141
-57.527176 613.034790 -898.542480
-20.032833 666.341187 -912.437012
-133.150620 610.292480 -1368.808228
-217.505463 658.830811 -894.270569
-109.140671 779.246216 -912.331665
-19.532795 540.881714 -1337.206299
-175.627594 494.412933 -1371.097534
-242.865189 911.293213 -662.429626
157.580017 682.111511 -1388.294067
61.713493 518.627319 -1363.250732
37.479584 936.360962 -1376.075928
-45.936825 529.996277 -895.430054
83.359673 676.546143 -1389.008301
-196.593094 499.844238 -1365.339478
-62.450832 511.917419 -1345.785156
19.147362 569.111389 -902.180237
243.038391 725.725281 -1364.548340
-158.310562 672.447815 -1368.246826
125.796761 620.745300 -1389.485962
119.130859 675.787231 -895.454041
-267.451630 694.256897 -1331.222900
-175.864334 664.056519 -1237.971313
-57.271259 479.635834 -931.182617
-159.068817 500.747894 -910.539124
228.446060 817.214172 -1355.365601
20.447861 626.737610 -916.234863
-355.135956 646.979736 -1343.589722
30.247604 923.591370 -712.574402
76.458359 788.874451 -1366.425659
-58.426464 753.908691 -1344.072998
-194.495316 710.570374 -1321.322754
71.018730 755.834412 -1293.504517
127.975761 602.519592 -909.993530
-117.286011 677.474121 -892.063232
94.566406 733.318909 -1356.321289
68.296852 941.617188 -659.656921
78.012337 551.658813 -1391.580200
-112.449623 499.701324 -1380.726685
-229.169876 650.849915 -1307.483887
71.535179 938.685852 -679.929932
-157.346222 805.989807 -899.370850
-101.037704 782.378784 -912.094910
-219.413284 542.989014 -1366.701782
13.382049 494.264465 -1358.717407
-116.171005 713.316711 -1346.619141
-139.114624 646.504517 -1373.695435
78.988617 618.725647 -1375.503906
91.023933 833.191589 -1340.208740
-101.652733 723.163208 -900.793335
38.418598 958.802612 -1357.862061
130.094757 639.740845 -1389.686279
195.790619 753.937805 -1365.590454
75.448639 725.559326 -906.068909
-263.328094 931.981628 -598.668152
-186.001419 610.995178 -1370.640137
-159.511734 850.873474 -913.349060
48.704624 646.246216 -1382.582397
-8.241883 646.498535 -1357.120972
120.926750 661.052429 -1363.211304
-73.382133 490.889008 -1372.852295
-193.621643 937.221497 -606.100464
28.588261 511.424042 -1359.448486
106.269005 754.316223 -1311.496704
-22.138966 940.881042 -636.325684
-27.070469 870.486450 -905.507141
-189.067001 549.648376 -1369.288330
197.122864 780.372925 -1363.402832
82.980591 588.750916 -901.788147
-129.397705 500.244568 -929.163269
-12.224359 691.185608 -1172.941040
-15.820237 824.595642 -912.638977
-35.897011 647.228210 -1279.338623
-143.135361 686.131042 -1367.506836
190.231522 754.078979 -1368.622559
232.947296 715.350647 -1357.087524
-152.985962 586.714966 -909.191345
134.445374 566.104858 -1390.490601
-35.214943 792.018616 -903.970764
40.094696 937.586731 -712.775757
-87.434143 943.815063 -573.375793
-25.382410 852.335388 -912.438599
190.996231 809.948242 -1376.319336
-248.040894 757.977478 -898.444641
-112.174454 558.919861 -914.808655
-341.191650 709.770142 -1348.842041
-76.439804 744.113647 -883.467896
-37.580589 718.281311 -1342.172485
-84.539360 509.901917 -1373.153442
-22.387259 669.441284 -1363.765625
-111.116051 657.482605 -916.979492
-41.896351 841.174133 -1346.781128
-86.096161 922.680542 -790.123047
51.362572 503.324860 -956.042725
-152.740448 698.062439 -907.173950
67.094360 512.549072 -937.660889
-3.486843 567.201721 -900.834351
-15.634305 618.365356 -1354.926025
73.434418 542.225586 -919.469299
209.454773 649.316528 -759.338867
-179.077469 667.518066 -889.759888
-261.555084 598.950439 -1369.152832
87.054649 775.980042 -1364.349854
-12.062054 944.287659 -622.178589
-0.007720 495.639557 -1325.212891
75.446259 900.437500 -1368.665039
-170.145660 970.085632 -585.351318
-55.299416 467.191437 -1389.683472
-7.602566 674.757202 -916.951904
149.072433 584.073914 -950.396057
57.204762 939.260071 -681.260437
-88.156578 778.794006 -898.148010
31.821192 856.633850 -895.868469
-91.732597 868.131287 -900.595703
50.759220 706.945984 -918.560669
19.628637 669.519836 -1389.718750
-97.552917 933.837646 -681.303467
53.936314 533.016968 -918.020874
-55.585461 950.328308 -590.483215
110.502052 592.704224 -1363.304199
164.878677 750.472046 -1316.180298
-63.499653 953.510498 -546.662537
-188.519760 751.341919 -1323.445679
-219.988953 909.315369 -746.981934
-29.741476 618.412598 -1260.359863
-64.969490 960.715881 -531.478149
-235.200943 845.519104 -906.480835
-122.986908 457.213074 -1372.356323
-69.461014 722.696655 -895.717163
97.127724 936.436279 -645.794922
-27.492966 552.054871 -1344.298462
-97.554001 711.738159 -1263.462280
-161.777466 911.419067 -723.705566
-32.970219 636.886902 -892.084167
172.664307 721.171143 -1361.435059
-82.472031 735.395020 -902.071594
-70.299622 762.241699 -920.330688
59.029701 800.994019 -1318.639160
-91.050690 807.777222 -913.588074
-45.525120 456.472778 -1372.772339
71.683823 792.345215 -1329.703003
-101.790718 618.483643 -1378.417969
17.518223 618.305847 -897.454163
-75.632118 910.213257 -800.693298
-122.777504 952.584961 -581.127502
127.827431 594.584534 -922.757507
-59.408154 744.597229 -1318.252930
215.897324 793.750610 -1340.995361
183.733047 647.114197 -1383.086304
-119.709923 642.853882 -896.907410
2.640031 491.655151 -939.833008
41.787594 956.917603 -1367.108032
5.425427 961.213989 -566.554504
-33.603329 754.985535 -895.206665
-113.536942 477.592499 -925.778809
119.969139 592.807434 -916.114258
-296.910980 657.051392 -678.360107
-96.022926 956.559387 -626.555786
-142.824448 948.450317 -555.349976
130.945984 760.544922 -1361.619507
-56.904949 591.615417 -893.800842
-45.608902 744.749023 -883.887085
30.022985 639.765076 -1377.414917
72.724030 965.481812 -610.191101
-61.768753 611.956970 -1339.788330
39.204720 956.759766 -586.338013
57.978127 962.882813 -578.621704
64.389862 930.541321 -744.381287
57.423321 657.162170 -1377.625122
229.029022 857.728760 -1362.551880
-71.936134 656.866272 -1297.239746
2.866236 937.476013 -820.374756
67.467018 964.727234 -579.800842
-220.517563 634.656494 -892.496582
-111.674980 820.809265 -883.816956
-180.229507 658.013367 -1369.331665
-17.967825 551.905029 -1294.191406
17.140028 778.934631 -1294.911621
-108.010506 928.344971 -736.531799
-270.180176 772.942993 -1349.261719
45.434994 936.107239 -746.397827
-98.903015 987.084473 -513.033691
-81.845139 941.883606 -602.686035
-63.129547 581.094482 -907.332947
216.061142 822.644104 -1382.522461
-226.342148 557.018433 -1368.459839
-154.775909 558.410889 -913.621155
-134.491074 914.871277 -714.352661
-68.847565 967.941956 -550.818359
16.312252 908.061707 -906.740845
7.437113 941.491394 -636.435303
-135.090805 885.538025 -896.120178
-14.113464 478.849854 -1362.757935
-58.996063 426.169556 -1355.724487
-66.194481 579.689880 -1369.197510
-63.304146 937.237671 -734.304932
20.349916 511.989899 -951.872009
0.822121 611.738098 -894.511780
33.832993 937.319397 -667.639771
-136.273987 545.437622 -1369.074219
-118.499397 753.292114 -910.162170
-91.737717 463.781464 -1381.049927
170.350006 654.803528 -1375.501221
-153.285217 812.146973 -899.220154
-152.104462 498.768555 -1369.725830
62.592716 956.669922 -609.462769
-270.594971 607.844727 -1340.388184
-150.209152 911.222839 -751.738098
99.352638 922.893860 -737.863281
-227.675415 803.012024 -903.257935
39.049881 967.920227 -562.186035
90.350746 540.559509 -962.633057
67.402817 927.087463 -817.902283
-39.525761 556.463989 -899.229126
38.658985 919.430603 -1390.710938
50.683327 522.675964 -1359.980835
54.625111 449.605164 -1379.093140
61.204727 555.602234 -907.408020
-174.302490 752.778564 -1276.680298
-139.755493 483.178040 -1378.131470
-34.403389 501.653595 -950.607971
-187.856842 517.586243 -1364.170776
40.160427 660.145325 -885.267944
65.994453 676.176025 -917.880188
1.774322 463.844635 -1360.699707
49.693001 1098.061768 -1355.948853
161.194839 630.373840 -1389.175415
-103.360527 942.078796 -597.405396
-102.594498 938.106018 -637.576355
-114.482780 519.890015 -897.103577
-157.632034 928.094177 -739.967957
-109.842903 599.295959 -893.358765
-66.521935 753.716125 -1326.036011
-2.089401 949.113342 -596.160828
156.887482 667.860107 -904.140442
77.588692 842.506592 -898.230042
-26.997713 931.876953 -649.432007
-171.095779 934.726013 -655.355713
69.393341 697.671143 -898.452637
-78.467934 719.379333 -1263.025024
0.886220 931.500122 -757.474426
-46.976322 938.359192 -718.390137
23.356560 716.869141 -896.209656
-13.758838 917.075378 -761.357788
-142.036819 680.687561 -907.818970
4.721536 735.099670 -913.492126
-61.890900 569.405029 -896.608826
-188.395950 923.739990 -717.252930
-247.324554 908.083862 -1374.362305
-88.714424 914.613464 -740.001587
-185.465652 844.370422 -894.939941
190.648392 760.362854 -1359.018066
-232.856247 584.571716 -1374.893433
-44.251007 935.291748 -789.758484
107.753944 624.589172 -907.372009
43.309444 763.398743 -1284.293945
-56.629440 804.569702 -905.817017
117.204605 934.874146 -733.589111
89.382751 940.729736 -692.443359
36.204983 629.515869 -911.779175
-33.810932 513.160461 -906.910889
86.126732 622.499329 -902.076721
-186.591980 936.330322 -589.414490
-155.163330 831.829224 -898.971497
-30.845619 670.726990 -1161.331299
132.981750 699.200745 -1378.258179
-254.213242 581.129272 -1375.428711
74.248474 655.012756 -886.483643
-229.494064 655.954834 -1344.677612
97.946625 722.675842 -908.183044
-210.106033 929.962097 -586.701355
-91.499336 621.512512 -1356.251343
-208.169724 705.400024 -1367.396606
-95.968781 934.700623 -717.796753
-20.897461 467.813568 -1366.569946
113.014740 682.698059 -885.218628
-140.074554 950.834167 -583.295288
-239.235779 594.265808 -893.384705
140.163849 573.335876 -1384.885010
-28.494967 690.706299 -1351.023315
-96.190102 609.949585 -1336.957031
-103.783546 717.181030 -1381.775024
-221.017227 635.149048 -884.926270
-102.553383 564.915527 -899.554321
70.829781 539.108215 -1375.448608
-164.894318 552.723816 -1367.071045
-166.047302 661.022827 -890.499939
77.582016 923.168335 -700.959778
-84.361153 852.713135 -923.343567
133.901764 692.609070 -908.848938
7.031832 579.291992 -902.262512
55.647346 854.197205 -1377.818970
52.961952 461.193146 -1359.781006
-135.769440 928.194275 -632.297058
-195.373810 644.410767 -877.411987
-76.253510 785.646057 -884.799622
165.255966 809.358276 -1376.447632
-79.057610 656.383179 -1353.600342
76.622482 568.098694 -1376.294189
15.435943 593.920959 -899.756714
-58.707657 779.274536 -905.227173
-77.159889 469.276825 -1371.163696
-302.766510 631.687073 -1311.127808
-93.439102 717.203064 -885.157776
86.978882 557.390137 -920.029419
-75.302788 932.058044 -758.601990
-94.449364 620.077148 -1365.488281
-58.579685 752.151123 -887.088013
-141.017715 496.128113 -1368.286499
60.304165 930.581055 -782.910583
39.164848 864.634705 -1381.925171
84.471962 918.005310 -767.474548
-180.727188 919.092407 -676.380981
-157.771942 920.310913 -733.375244
145.461075 567.125977 -934.408386
-21.665979 961.820007 -529.457520
19.112494 933.014099 -714.309265
-135.643387 947.951355 -659.485962
76.264320 940.137085 -686.813171
202.193192 736.584900 -1356.753540
-69.545105 941.445679 -597.960938
22.691181 559.654968 -1353.740845
-46.351860 606.022827 -1332.435913
-11.715275 673.430481 -1371.420044
-95.810524 830.129395 -1267.075317
-70.022514 942.515015 -612.198608
-137.605972 482.187836 -1370.517456
-46.348469 949.927185 -628.064270
106.490532 650.746338 -1383.716553
-224.694458 925.493652 -614.551392
-176.343704 824.988403 -1254.277954
-72.954468 742.462646 -893.791931
-96.571335 482.923553 -1366.786865
-160.508499 940.966064 -636.643127
72.030510 510.797638 -927.488770
-12.614524 621.082336 -1360.651489
5.396912 939.523560 -654.832031
-66.300034 938.312073 -676.090210
-53.303806 644.540039 -1357.332520
-169.431274 550.529419 -894.960205
180.920807 703.426819 -1368.202515
-31.672274 569.186707 -897.607178
40.005920 638.696777 -908.581238
-40.347313 944.432190 -576.688416
-44.794891 551.905762 -898.340271
-122.737839 926.276733 -763.297607
-93.815979 466.514984 -1373.023682
13.316216 511.378693 -946.831970
-195.620422 923.239746 -687.428589
-164.644226 723.183838 -897.829041
-45.003490 718.394836 -1166.107788
-23.069971 686.319214 -1366.437866
-219.260529 921.433777 -636.578125
-330.542267 761.955322 -1359.392456
106.360489 759.428467 -1346.696777
-100.908928 725.687927 -1355.220825
-29.606972 501.868073 -929.166931
8.486311 927.159851 -771.376160
53.795048 940.543091 -675.717651
-257.047058 609.292969 -892.306519
-112.168800 698.116211 -892.879700
-158.968414 909.689880 -753.374817
-283.111267 648.650391 -900.169312
-190.683792 699.983154 -1366.054932
-264.541473 669.025146 -1294.628784
-60.257755 967.705261 -578.796326
-76.418488 525.354492 -905.335693
-195.831741 912.820190 -718.612000
-60.224388 525.450562 -1346.187256
-22.031713 623.507996 -906.272766
-85.333694 959.252563 -539.736877
118.208099 690.207458 -1385.357300
-162.625732 898.169495 -1327.975952
-136.443054 925.913818 -664.887939
3.788660 954.746704 -557.217957
2.838488 558.370605 -1378.625122
-51.246418 901.022522 -1364.658447
24.132463 930.500305 -802.294373
-139.919388 750.575134 -1345.972168
48.617638 967.575134 -561.729492
-153.672333 607.646484 -1368.448608
80.678421 716.037598 -911.482361
-225.597473 915.153198 -617.905151
74.956993 671.673401 -1383.476440
57.370346 917.293152 -770.352783
-99.217224 836.572388 -901.822876
0.317746 936.127808 -802.997314
80.056671 817.957886 -1315.890747
-224.269394 641.446411 -1258.104858
-13.003440 957.815552 -587.106812
65.825531 749.036316 -1351.166992
-157.038116 745.969421 -898.501770
-253.436676 874.467834 -1361.441162
-258.738617 674.915466 -1288.702759
36.729511 544.889038 -914.408813
1.961351 579.157654 -909.079773
69.999123 562.045105 -1376.954346
-43.067238 939.797607 -725.259216
-172.081802 764.994690 -1350.658447
-181.301025 936.331726 -580.132446
134.207397 836.167419 -1337.566406
196.511490 738.175171 -1364.634277
-275.407318 666.846741 -1281.632080
-9.487157 935.215759 -1354.018799
32.478188 496.636658 -925.472900
-190.286926 641.158569 -1380.283936
8.267583 776.904236 -1298.166748
179.976227 771.723816 -1350.392944
80.459343 941.658325 -658.451050
-34.937702 501.858032 -926.088989
-31.675928 886.945557 -902.076782
-274.097382 615.793579 -1344.836426
-144.723282 630.100342 -890.649292
24.808491 963.007874 -1352.453369
-343.279358 776.054260 -1348.294189
13.961728 734.816589 -904.925476
-76.909714 930.131836 -702.914246
-152.057587 563.837219 -899.754639
-163.269836 760.811707 -924.042908
81.747643 579.487366 -1384.556885
-10.176738 952.884460 -569.822510
-215.976379 662.629272 -886.640808
-58.862789 629.420227 -898.674622
106.967262 698.797913 -1385.435669
-124.599937 769.235168 -894.522522
42.682549 726.539795 -1374.626099
-100.170448 681.058533 -1363.440674
66.670250 949.374817 -586.194824
6.520737 944.381592 -658.731506
83.190399 942.712830 -667.106567
85.530983 945.696350 -681.883545
14.492079 444.402130 -1360.092041
-54.097164 594.536438 -906.303589
-161.953720 704.525085 -897.298462
198.620560 691.515076 -713.441467
-221.638062 702.942993 -1362.071167
53.716732 863.237915 -1352.174683
179.210693 689.311584 -1387.682129
-153.608276 679.757629 -919.011169
-62.710888 518.121582 -908.881897
-232.685730 743.020691 -913.150269
-359.510925 677.576172 -1352.212280
-70.914856 773.740601 -909.937805
38.866463 867.920959 -1378.584961
-200.396957 920.494141 -665.323242
-108.944672 511.274780 -933.028931
16.285919 1101.170410 -1342.307373
-251.791214 909.000488 -689.206116
59.108997 607.194885 -1390.270142
10.833144 723.908447 -888.335327
14.256395 662.878296 -1389.073975
-99.106506 920.143738 -693.404602
-1.752804 932.899292 -694.050659
-76.365868 555.756653 -896.024414
136.349594 589.938354 -1361.037109
66.004303 944.110168 -721.523499
-204.962997 710.552368 -897.317444
34.323704 931.271179 -740.330811
54.253651 937.736206 -707.498718
-190.642227 542.395874 -918.397644
-5.607728 647.643799 -894.485901
-170.938568 907.187866 -813.597107
44.297665 811.594238 -1332.795410
99.338417 939.131470 -789.055481
-104.031532 969.927124 -540.641663
-71.626068 487.880402 -935.285583
-91.768372 698.818359 -884.459961
-16.236357 535.650024 -896.310425
-134.425934 493.355927 -1372.296143
-192.784164 569.392700 -1365.677246
-25.194473 457.671936 -1372.744995
-167.734589 699.978149 -1282.664307
122.348824 759.645325 -1327.330444
171.872299 715.747559 -1370.686523
-180.355301 908.765015 -731.529114
66.601242 965.642273 -1384.093628
-189.748062 952.801636 -517.589050
-129.375046 940.441284 -569.349915
22.577213 726.776672 -1369.541504
-66.115181 856.904541 -922.977966
-135.167099 566.855774 -1356.897583
38.417725 786.321960 -896.160889
-131.342087 953.048096 -578.519714
62.677219 693.607422 -898.433533
84.275475 608.544373 -903.116943
-157.277542 733.643311 -1345.415649
-101.599693 932.127075 -672.099915
-38.746090 796.292297 -1347.227173
100.705322 605.298645 -922.536377
-195.232895 736.459717 -1328.083984
-47.755108 641.612976 -1359.845825
-46.760139 493.175873 -1350.053101
-28.235704 531.192688 -1362.697021
5.678406 947.354370 -622.416382
26.798630 596.076660 -1376.703979
-253.637131 913.433167 -733.687439
50.524940 657.686035 -896.340637
109.308487 573.137268 -1360.353760
93.690338 940.069031 -700.316406
17.645247 905.096313 -1355.541382
33.474445 564.984802 -1362.473633
-99.272484 817.567627 -900.185913
-124.775055 958.000061 -578.080261
-243.515884 924.273621 -608.794189
67.198769 639.320740 -901.507263
-192.568512 543.208008 -1366.134399
-44.207237 938.196777 -734.228394
26.137012 974.153625 -551.090942
-34.568443 933.066589 -765.796387
-145.245865 507.240814 -899.221191
63.047520 693.170593 -1381.293457
-323.867035 798.867554 -1364.716797
39.836189 825.860046 -911.982422
69.957924 588.982910 -1367.168457
-221.052765 920.043945 -1355.273193
-207.170578 625.188477 -1384.978149
-135.576828 482.022034 -916.371826
-84.066605 654.683472 -1357.631104
-146.082367 650.897278 -1372.819214
-87.228096 588.567810 -893.275269
-51.465530 930.075928 -760.749817
128.635880 540.219604 -1380.458862
-18.502905 956.399719 -574.646423
-276.408752 811.596069 -1365.058594
-54.873634 642.068787 -893.573486
5.646876 444.840912 -1375.868408
-59.994488 645.900818 -898.569580
39.713120 784.902222 -1307.947510
-86.735313 921.729187 -689.002991
-226.474030 560.013428 -905.880493
-20.022959 526.618530 -927.851196
125.440987 660.239685 -903.219604
74.314400 766.334167 -1325.233398
-106.553352 613.222351 -1378.588745
33.249908 593.931152 -899.124207
219.790863 675.895264 -1388.116211
-210.358307 920.605957 -664.687744
52.964119 960.667297 -559.519897
185.738388 706.616455 -1356.409058
49.317909 712.030273 -1378.927368
11.661463 527.505371 -1349.075439
112.102219 539.779175 -927.181641
-200.983170 614.319580 -895.249390
-176.756363 915.739929 -752.519226
-180.251266 916.018799 -677.081177
-140.155746 579.562256 -898.544678
53.909214 550.390381 -1392.292114
-118.655052 934.765686 -661.060547
-17.149908 686.772400 -882.435852
-195.011856 927.607056 -630.382080
-155.856598 930.636536 -630.954346
177.809494 694.842834 -1374.207153
158.788101 736.769043 -887.912476
54.031662 579.250061 -1392.090454
-240.838806 678.791565 -891.840820
-90.461411 952.119507 -585.975952
-107.502983 842.750854 -900.497742
-272.904999 568.632874 -1350.283203
-353.744202 717.067444 -1357.376831
-110.324066 631.893066 -1351.628296
81.950768 552.845276 -920.116150
-13.561176 967.496704 -530.155334
-182.032288 931.736023 -657.370728
-124.528152 905.169250 -767.524475
-23.076767 933.650269 -712.750671
-115.782295 660.940552 -1366.673096
69.136948 679.559875 -886.019043
-183.842819 776.770874 -924.955444
-65.587135 732.787476 -1335.237183
-9.985808 418.639618 -1373.450684
-246.643341 914.512512 -707.662415
82.737770 647.761719 -1388.066284
84.365555 637.829346 -1379.093872
-87.533928 945.872925 -608.286560
34.413593 887.228638 -1346.222656
-7.068543 758.135498 -904.684753
-11.263291 901.303467 -1318.619385
-30.834623 1014.836731 -1289.005005
-90.096870 492.729492 -915.256165
-3.865453 523.259705 -931.261841
74.966415 721.185364 -901.578064
48.683830 915.542603 -1376.835083
-213.029129 587.804016 -1378.502808
-20.508059 519.127502 -933.036804
-243.658569 906.946106 -768.559998
0.621144 714.386780 -1357.998901
-164.085007 777.576660 -914.635315
-61.092396 517.361633 -1346.624268
-342.658997 756.414673 -1368.176025
49.805588 485.368561 -1372.441650
41.993919 513.107727 -1371.329712
-57.244457 482.250244 -1352.076172
54.588745 748.319824 -900.605469
-58.321518 866.934875 -902.355408
-128.347504 559.634216 -1352.743530
-51.048328 553.063110 -1351.340576
117.980377 523.849060 -1364.287231
25.380117 581.250183 -899.901428
-17.661831 489.038300 -909.113892
19.928295 814.873901 -888.783447
-181.766129 922.278564 -658.462036
17.469494 761.548889 -1338.580811
-213.454193 927.767700 -574.238586
-131.163803 792.009827 -1302.932129
39.855755 922.648560 -721.784546
73.563560 758.697754 -1366.894897
-72.584030 933.900574 -694.262024
-81.590630 468.157684 -1373.366699
114.054321 544.435913 -1363.857422
14.144928 929.973633 -723.339905
33.827873 486.042847 -1369.290283
-123.421310 617.681702 -891.594360
12.719922 529.117004 -910.360779
-156.371902 744.490173 -1346.729370
49.468979 939.998535 -801.698242
156.629456 692.000671 -1380.878174
-133.083221 940.369446 -575.715027
36.428162 487.415833 -1371.375366
-44.655003 522.973267 -1289.708862
-254.240540 831.371582 -1371.748291
-195.292053 909.574280 -695.760559
-99.533501 639.018860 -892.980591
-66.055359 436.699371 -1370.460938
-192.430115 940.993408 -568.512939
-309.562592 644.213135 -1338.936890
-53.793411 943.317322 -658.330200
88.670601 631.308044 -889.489258
-85.063911 738.292358 -894.341187
74.703133 510.466797 -940.451660
-232.214600 706.903259 -896.113220
-215.438049 534.173401 -1354.285889
230.108002 720.807434 -1378.397095
34.635689 427.483856 -1376.746948
-45.815136 563.196411 -1322.876953
93.555115 612.431030 -1376.716553
241.228867 705.723450 -1364.078491
186.660004 734.662781 -1342.112427
-108.557732 612.131592 -912.136230
109.846710 585.029236 -926.668884
-231.342880 547.776367 -890.100586
-202.585510 651.654297 -894.142395
12.671474 931.176025 -733.759094
12.859534 469.362671 -1372.960571
-222.285263 684.570984 -892.432922
21.145267 441.732666 -1373.133423
74.875275 483.662781 -1364.389282
-110.568588 568.848816 -1369.986816
39.679413 1090.590698 -1371.111450
-122.256386 937.752625 -618.804932
107.342995 606.784424 -903.473328
23.479250 631.971741 -1361.208862
-236.899139 740.702271 -877.621033
48.516388 936.398438 -718.156433
-88.641228 902.234558 -770.473694
56.226448 598.984253 -918.291260
-94.211967 929.921326 -694.946655
-45.366123 786.625000 -1255.368408
41.271946 1027.082153 -1345.403564
29.411839 711.486938 -894.889465
-155.824387 844.198120 -897.861206
-4.393644 564.418762 -1374.436035
-171.495102 912.562622 -712.963013
-258.524078 905.564453 -690.297546
160.584961 623.423035 -1374.412964
-131.163803 945.575684 -584.019043
84.257866 618.623596 -892.223206
-118.519661 926.676147 -737.052979
65.331360 508.839722 -1375.261719
-188.646606 907.552612 -731.200439
89.663559 694.150085 -885.731567
-33.855644 497.985962 -1312.481323
-126.285858 597.567932 -893.922668
15.532505 1066.002808 -1323.607544
-33.957809 931.058777 -714.210205
34.466537 1140.879761 -1348.411133
2.489122 854.328064 -912.043823
-138.238678 959.504822 -568.983521
16.428301 683.870361 -908.165710
201.109406 830.060303 -1368.792725
26.771500 933.387756 -710.323792
-87.878006 777.993835 -913.789978
27.059269 722.818665 -1385.250488
98.264275 838.904236 -902.428955
-146.927338 921.831543 -733.403137
158.464630 800.964966 -1370.825317
-65.606781 919.201111 -781.126038
-193.591736 723.035522 -1361.453735
-258.075195 773.315552 -875.630615
111.497467 779.598206 -1308.938354
-163.208984 939.702698 -561.576294
-152.275833 948.281128 -579.419800
165.667130 694.254883 -902.303101
71.234734 840.934998 -911.510620
-20.460009 623.140747 -1335.570068
-71.985405 676.049805 -1286.904297
-213.783005 606.079956 -1367.236938
-128.131226 682.452576 -883.256165
-24.502316 938.008667 -733.328857
64.261742 698.270569 -889.471375
-206.917145 494.509003 -916.701477
17.557470 1100.668701 -1347.885864
-161.738037 689.416260 -1357.340088
83.689163 1154.291626 -1349.190674
-141.446594 505.044647 -916.989990
-66.122154 818.293518 -885.055237
154.988770 605.603027 -1365.935547
40.350742 576.936096 -890.536011
5.003381 520.346436 -1370.073730
-230.183624 573.902771 -895.646240
-46.908817 934.959106 -711.849121
-17.070578 922.421936 -700.636292
-56.666451 915.410461 -769.826477
58.573757 581.530640 -901.920471
-362.073578 615.342529 -1352.808472
61.763550 608.723267 -1378.385132
-182.040466 941.335205 -618.101196
-165.043167 736.368408 -1357.876221
-268.242950 633.865234 -1351.793579
-114.376465 696.528137 -1370.020142
-309.596497 600.424072 -785.412109
-64.313187 918.421814 -790.177612
-338.054718 773.507385 -1362.131348
-185.658737 662.950134 -1367.416870
28.841835 967.274841 -545.270874
27.804703 709.499207 -907.046814
-175.788559 929.147339 -689.652100
-302.547028 643.642822 -1319.502075
12.930342 951.652893 -576.353821
-3.066969 440.989990 -1372.514526
-112.342003 915.185791 -708.758179
-184.364441 715.635681 -1319.341309
135.475266 694.483826 -910.653137
-131.836273 668.522461 -897.395447
-205.303711 599.996155 -1351.516235
27.401651 734.989075 -1371.905151
63.109608 818.787476 -1353.389404
-200.659454 883.705139 -1361.460938
128.028915 540.161987 -959.590576
-41.705402 946.287720 -826.434937
-337.510010 756.222107 -1368.239136
-53.996212 590.587097 -916.087463
-165.572037 930.059814 -692.106689
-154.982422 638.872314 -878.519104
-109.540077 935.345459 -755.529907
97.800583 946.494934 -644.380798
61.397896 920.209412 -780.595154
-36.272362 953.482605 -553.308594
46.062035 1045.201538 -1364.787476
-120.112106 565.766785 -914.173889
-111.858009 716.824036 -881.823425
-94.354156 675.884338 -1355.469971
-115.633476 599.641663 -907.367920
-90.037430 920.829834 -693.303833
16.745449 784.366272 -1324.066528
1.810808 832.848572 -1324.566284
45.725159 947.024475 -607.554993
213.801010 700.723389 -1362.238281
-94.530426 506.703217 -1357.275024
89.725311 658.538635 -886.977234
-268.608124 593.063782 -1349.436401
70.676735 590.165161 -895.446289
100.287064 576.084778 -917.650146
-153.671524 916.455994 -740.293457
-157.996536 712.588013 -892.410217
-107.784744 939.382446 -670.299622
-52.449142 511.460541 -1386.106567
-169.164551 922.616211 -725.676575
-71.555092 646.554810 -1332.205811
-36.197308 931.525818 -801.709595
36.004253 554.118164 -1362.494385
-172.319534 855.452026 -899.162415
-44.099957 955.402405 -542.863586
-32.831768 489.730743 -1344.895874
-171.278992 912.762695 -741.950073
-189.520020 919.271912 -640.699036
-92.265450 759.988525 -1313.609741
198.253983 647.413086 -779.128540
43.589451 960.600281 -564.488647
-174.215500 933.616089 -589.260681
-139.091858 520.162659 -909.818970
-11.754597 815.867859 -897.441406
-45.914612 574.795837 -1357.071533
-173.895401 536.947327 -890.050659
-154.470596 815.897766 -914.135010
-59.924286 930.588501 -723.877747
-149.902252 773.907776 -899.984863
-80.752205 600.353455 -1381.477783
59.321293 769.333008 -1296.615479
-139.286545 642.934814 -892.583740
-153.149078 942.038574 -618.648926
-208.687393 930.516052 -629.705688
-186.639297 568.651917 -895.371155
-145.524521 925.422363 -639.518799
-203.245163 901.314575 -770.202576
-105.723274 940.066895 -633.159180
-42.424366 944.428162 -630.655945
-361.439331 695.825073 -1348.479248
188.947754 665.045105 -1365.324463
-124.522308 946.997437 -562.902039
-178.816910 928.179443 -674.757751
81.054512 940.472046 -720.531494
89.284569 940.965942 -718.547424
-5.492687 913.830383 -786.392639
137.892090 596.941162 -936.950195
-99.042664 556.357910 -882.788086
-179.485474 929.618835 -636.734375
-114.359764 535.200684 -1372.097778
-253.321518 803.932617 -877.210632
-72.070999 944.378540 -594.818359
-27.482489 1146.760498 -1345.496094
-40.997643 795.401306 -913.668701
27.734703 693.811707 -908.201843
-66.647552 934.324646 -741.988770
57.841728 705.610840 -1376.104614
-51.538528 651.703613 -1207.487793
-52.239166 946.750244 -604.745911
-310.081482 694.439575 -1334.055420
-33.959309 589.230042 -1271.443481
-50.797832 473.367157 -1390.094482
-76.372505 929.844055 -741.682068
79.752411 939.111511 -780.986633
-101.906731 650.716736 -916.584839
107.911324 569.897888 -922.046021
49.477940 949.390259 -620.977173
155.094391 762.370483 -1337.153442
86.494125 937.800415 -754.638184
86.850006 564.886353 -1377.680176
-17.120907 440.429565 -1375.815186
-157.779358 918.019592 -699.138916
-245.749100 932.525696 -617.649170
-53.993889 755.321960 -1340.791626
-60.997417 724.730225 -1151.760742
-154.719330 883.843079 -900.885193
-58.383076 653.766785 -1214.013184
-54.745876 481.206390 -1368.042236
-191.275406 956.092712 -540.161865
73.148300 963.123474 -1373.377441
-234.875870 551.152344 -1363.903198
-324.965027 744.176575 -1353.103149
-53.751446 601.642029 -1324.208130
-92.938316 626.731140 -893.690002
-14.442871 965.069092 -585.210388
2.409898 993.595520 -1338.977661
79.914749 753.448303 -899.013794
143.126236 549.799988 -1390.274414
192.439835 688.469666 -893.605042
39.620007 442.336151 -1371.373291
-13.782392 478.018219 -919.112488
39.474442 762.919128 -919.066528
-10.528986 717.460876 -1360.994507
-9.199482 791.536926 -885.341858
-247.266418 595.458740 -893.219177
16.738949 641.683472 -901.087891
-80.952278 874.572632 -1339.385254
89.764275 961.602051 -1293.820435
-214.424210 920.657715 -648.048950
120.850006 521.544922 -1384.211914
85.482086 585.438293 -1387.979126
-164.879227 523.859619 -894.918579
60.097935 894.658447 -1376.803955
64.615532 562.736023 -1386.172363
16.231041 595.082947 -1360.865723
155.185074 626.577148 -1377.897583
-148.648972 939.788452 -649.530823
-159.148819 628.901062 -907.222168
-26.149614 922.325806 -700.987183
-80.863388 940.023438 -716.477173
67.591919 968.255676 -576.444031
99.524536 932.406616 -726.603516
-119.116531 953.650024 -572.816223
-153.487381 558.514587 -895.758301
33.430401 519.871643 -1374.879883
-150.629486 646.294128 -905.829651
116.448799 743.556458 -1359.991577
205.444839 743.940002 -1329.590576
-11.859497 925.742920 -1310.875854
-126.135506 942.590027 -640.583191
-47.369499 682.199585 -1353.964844
139.913223 635.056396 -920.158875
-14.322591 422.338104 -1370.508423
167.390839 664.182373 -1383.961548
-122.229012 922.923096 -749.911316
4.511265 689.019897 -896.186279
134.199631 560.345032 -943.837708
-63.130997 762.109375 -884.385925
-186.245102 929.355469 -660.869873
39.290447 646.499878 -897.142883
1.857702 748.441772 -884.485291
59.351601 1131.018066 -1382.496948
-259.212860 831.993469 -1365.981201
-88.810150 924.556580 -757.315430
-58.597237 926.199158 -1361.574097
-181.907227 933.329895 -611.349182
69.810417 941.823669 -748.960876
-168.993927 858.491333 -1331.644775
-104.546303 469.352905 -1368.161011
-34.781078 894.180115 -1361.676025
-163.006058 764.643250 -899.983398
-239.661240 668.187744 -1343.277588
-242.318985 916.995422 -646.110229
62.314438 915.583008 -1361.427612
46.329483 942.138977 -675.928467
32.210144 771.326050 -1355.373779
58.798523 656.264465 -911.639893
8.554811 969.830078 -540.097412
-107.409126 823.766052 -911.422119
26.452026 954.475891 -553.670349
-94.950531 735.748047 -885.673279
-41.300926 709.289246 -1357.424194
-134.027908 969.374268 -568.952759
-4.875536 958.155762 -584.665527
172.389267 705.867798 -725.350769
-53.451313 602.899414 -1357.981689
-33.212025 761.090393 -1334.193237
29.991982 952.689697 -594.428955
164.553482 752.818970 -923.309998
-28.544069 837.899109 -1339.320923
12.661428 711.393738 -896.522705
17.428015 814.391174 -1319.160522
143.926819 586.104431 -920.351868
-207.581329 710.767761 -1361.969849
40.625504 937.101135 -1335.695435
-178.271622 490.796844 -936.698303
-157.709305 919.724854 -693.607971
-152.283981 927.716858 -716.530762
211.475403 715.474182 -1335.989990
-51.315456 938.914185 -695.138062
-134.306854 592.927429 -1386.749878
-192.758102 828.673584 -902.565369
-40.934353 970.944763 -512.728516
-26.125330 674.484863 -1348.403320
-210.839996 525.411682 -899.322449
157.842194 610.409729 -922.012939
-8.987207 927.784363 -753.476135
9.959196 748.858032 -1373.759033
-28.932688 520.879272 -917.117371
-41.786354 938.726868 -733.781494
-60.345749 942.363586 -619.829895
36.910255 654.240845 -908.435791
41.095387 645.581604 -1388.627686
118.133705 704.554077 -1381.489258
-95.821381 527.905334 -899.817505
-310.113831 639.549072 -1284.852417
27.355072 625.973145 -899.099426
13.327323 652.809448 -911.810669
-202.378464 754.976318 -1337.385620
178.774857 623.999084 -1362.417725
-75.474579 586.117126 -898.655701
90.409309 580.870239 -925.311401
-68.439613 694.307068 -895.109192
-114.593155 926.292480 -756.235168
17.054432 901.700500 -919.499207
85.153915 943.166565 -693.501038
140.337936 551.026123 -926.907288
-228.907791 665.969849 -1303.065186
-66.889565 911.630249 -799.521667
171.065186 859.434692 -1364.128418
-202.101028 929.142090 -588.649170
19.825785 936.354431 -715.019714
208.284515 664.425781 -734.020081
-218.069565 558.857666 -1366.137329
-88.064560 482.531738 -1372.827637
-133.857315 652.246155 -1355.264526
-240.021606 868.928406 -909.191406
-23.223650 968.183838 -545.263794
-26.797651 646.207397 -916.105164
-330.953308 612.736023 -1358.686401
-249.788467 589.940247 -885.540100
-191.964798 916.913879 -728.192566
-91.396568 633.177734 -892.187317
-172.864471 512.057861 -924.203613
-115.868095 690.810181 -880.752930
-134.046097 802.968689 -912.928284
-207.969360 631.077698 -1361.555420
-94.494011 646.214844 -897.513428
-84.917313 906.434875 -905.747925
-123.196022 605.935486 -893.265625
67.025345 937.310425 -689.228394
-140.980072 743.527893 -911.122986
-165.583038 490.211395 -1356.875000
-128.886047 931.930481 -610.713196
-208.649597 509.968506 -1365.308716
-182.138443 705.848206 -895.763672
-300.378510 672.205627 -1336.677368
36.053761 953.795227 -559.961792
-96.847374 960.072693 -572.957397
-201.429977 934.840576 -608.465027
55.446404 623.229492 -1387.345215
-364.741241 636.541077 -1342.687134
-294.344116 787.670471 -1346.046265
-91.722839 689.002563 -1340.404053
-188.652100 648.613647 -880.825928
15.775143 908.853455 -1360.840698
-5.710355 968.693176 -1346.260864
32.791920 886.991272 -1355.020264
-57.233612 585.755371 -1328.109009
56.955746 940.776978 -811.634033
-19.247534 931.921570 -793.489075
-109.400513 950.651611 -654.334900
-86.805298 951.320862 -579.738831
-141.153122 607.234558 -1369.878296
-216.880325 766.531555 -1337.744507
27.871407 947.941711 -606.457947
-10.875917 489.812439 -944.210754
-136.765503 738.107666 -905.190796
33.149746 728.390503 -1383.396362
-34.378796 505.797455 -1308.195679
-113.268997 903.503601 -913.068298
48.711899 707.858093 -1380.962891
-158.300613 854.205017 -1340.849121
-68.244209 935.279541 -704.719299
40.652111 921.428589 -1359.558228
73.290138 746.204346 -1371.921387
-53.755337 647.689575 -1321.608398
-163.476227 668.982361 -1371.330444
148.985275 628.942078 -909.950073
39.287758 648.408325 -894.956055
64.585976 935.715271 -715.557800
-122.491737 542.572205 -897.439941
-148.445633 635.809692 -1370.038818
-47.376316 527.537720 -912.600220
208.216263 703.552673 -1351.925293
-203.418411 563.853088 -1368.036377
-98.480965 548.125977 -1369.473145
-187.325668 915.096252 -714.837769
-229.333679 690.918945 -1361.693848
-9.368958 877.161987 -1377.941650
36.655693 939.723450 -651.236694
-253.570511 705.414429 -898.128418
-116.218567 947.242676 -549.496948
-37.017776 957.568359 -543.774353
62.038921 817.255249 -1343.988770
-105.553612 622.570435 -896.114136
-167.782990 926.917297 -735.371765
-51.752243 640.483459 -898.809631
96.176208 937.592163 -761.133545
105.246704 935.025513 -695.936707
-30.309067 907.668579 -819.182495
28.568174 951.130981 -560.709778
-184.570587 500.276367 -1355.842407
119.357201 658.160950 -1366.504272
-289.772949 580.101257 -1344.061768
-24.619619 565.910217 -896.148804
-120.602875 512.108215 -901.036560
-165.371536 863.819031 -883.931458
161.581253 754.287903 -1336.172852
-19.916567 938.561707 -630.659485
-70.536591 948.970215 -603.877441
-220.215790 767.185059 -1325.389771
-188.913559 614.217773 -1365.057129
163.503662 757.887085 -1344.559082
-23.779888 488.501129 -930.783020
51.837254 532.544800 -1386.172485
-8.520430 903.797302 -915.038086
-115.961937 646.934204 -896.188904
39.961052 949.490417 -588.178528
-200.847656 759.968140 -881.803345
45.205688 556.818909 -1371.486938
-41.705318 559.044128 -896.824768
41.813087 951.929504 -606.439453
-241.424377 649.428894 -1359.049561
-106.907219 922.762146 -764.072388
-195.140320 855.064514 -926.107788
-41.998058 864.488342 -1351.082397
-183.033707 914.278931 -791.665894
128.558838 604.984680 -1376.282349
217.879364 748.986633 -1376.872681
98.994659 669.347839 -1377.431396
111.271843 672.573364 -917.213074
131.728394 709.226135 -899.889771
-12.810270 629.269287 -896.019592
-196.363815 867.013916 -905.227234
77.693840 517.695374 -1376.102417
-143.524338 715.233276 -902.207397
-96.745934 504.613190 -906.744690
15.152250 849.962830 -895.999512
-196.495407 914.282166 -739.286743
-2.624547 945.645325 -626.696228
-167.762817 656.675476 -1350.104858
-227.604980 902.446411 -762.794250
-224.290359 632.880554 -1349.211670
112.410332 774.947083 -1317.636230
-105.255913 479.080048 -1381.015503
-78.779381 943.939270 -637.658386
-13.406971 893.515808 -914.186218
-234.013763 916.113892 -648.252075
-45.653137 406.760071 -1359.578613
-158.518356 965.220825 -532.691467
-354.103271 673.705322 -1295.523560
58.569550 722.429565 -897.983887
-80.661758 815.142090 -895.728455
93.423729 492.005096 -1375.033447
103.900818 661.881714 -1384.733032
-61.470825 935.701904 -786.127563
-218.770142 911.218506 -729.455444
173.455826 630.863525 -1387.580688
175.187088 697.759521 -1376.724854
