ply
format ascii 1.0
element vertex 1391
property float x
property float y
property float z
end_header
-879.271729 404.570160 490.148376
-883.741272 287.990936 768.008545
-1315.511841 374.601868 580.867493
-1264.406982 376.042358 515.265930
-1358.921509 130.232300 625.759705
-1316.589478 445.776825 673.537964
-653.556763 238.365891 931.511963
-877.351746 297.394623 726.589050
-544.074036 469.675507 873.325623
-1309.499268 315.067322 748.142273
-831.217957 500.109650 754.930298
-1327.206421 444.579224 636.245544
-877.280579 376.322510 500.334229
-717.268738 356.475311 898.051208
-1332.591919 263.489349 448.156616
-685.141724 301.602661 901.196838
-842.804016 482.100372 515.144714
-662.711365 183.354446 933.163940
-492.490692 339.330933 923.670349
-1303.877441 561.899414 628.950073
-1325.978882 171.184952 729.487976
-1340.788086 187.751785 715.462708
-1278.888550 548.257996 712.842590
-1302.794800 589.592590 616.411560
-893.366577 276.375153 741.323608
-832.018066 458.165497 582.490051
-679.959412 487.106262 847.677979
-844.070374 414.477905 723.796021
-725.076660 389.351715 883.143372
-867.311951 285.059021 814.522888
-1333.230591 316.141754 571.375671
-907.073792 249.118088 501.725769
-1338.577637 310.569458 416.037354
-712.273865 35.157806 728.320313
-599.006287 279.010803 934.721497
-882.981689 265.608521 713.514832
-1290.135254 539.367737 742.086121
-878.560181 224.975525 524.457153
-1348.474609 262.263153 587.991028
-623.319519 437.643921 875.346130
-880.034119 226.192123 547.777039
-1336.464722 464.202087 656.841370
-1330.207275 538.698669 821.786621
-1336.725708 380.716125 399.787811
-868.483032 249.445892 600.704895
-1364.677979 147.220581 636.450562
-1323.095459 345.987549 438.655731
-1333.537109 275.535309 456.127197
-1331.897095 512.110291 532.956116
-1337.706299 432.644745 509.464417
-616.467041 398.072418 889.317871
-1328.366943 426.164124 617.426025
-1286.907593 646.121826 1026.019653
-1359.109009 277.892395 608.916077
-918.780334 184.048370 511.853424
-709.179993 504.847473 853.756042
-1304.557007 111.900986 703.021606
-529.818481 268.329132 934.278320
-717.856384 429.051727 856.269836
-1283.620361 417.797028 712.337280
-1319.296265 355.934387 518.935913
-1288.433228 409.595459 529.653381
-1305.953003 202.868988 813.624207
-1368.247681 180.122971 876.808350
-1361.699707 253.693161 623.855103
-1269.705322 512.784363 693.637878
-1320.064697 373.750031 520.264221
-852.667603 434.900574 787.042908
-759.414734 305.395630 914.885254
-1343.578003 432.636871 472.412170
-567.898315 185.572052 972.872314
-1337.747070 343.645569 410.596741
-505.635071 331.648376 923.817322
-604.285950 325.323914 910.480713
-1257.248169 546.012756 755.067993
-683.103577 318.540710 907.275818
-1299.907349 601.349060 645.159973
-1329.703369 415.769348 449.653412
-847.179016 393.564087 522.956116
-556.029846 343.592194 921.223450
-1289.020752 599.723816 558.375427
-872.922852 305.618256 850.567627
-1291.623901 681.481506 594.505798
-1305.060669 419.362305 711.112732
-870.580200 221.599350 687.916138
-649.174011 375.152527 883.164185
-1316.660522 518.105652 613.898743
-1361.405518 280.854797 520.145996
-498.117737 402.879120 909.865662
-877.677795 325.501556 493.781219
-903.370789 229.755371 515.767883
-1331.342407 478.572449 663.787476
-1342.438721 292.637177 481.894440
-1311.105103 460.444275 493.124176
-548.006897 371.898254 902.524353
-1331.554932 424.752411 459.151154
-612.811523 327.215729 908.828186
-598.194031 437.433350 878.130066
-741.361084 394.079865 878.519592
-762.887878 324.343536 912.101624
-735.224670 418.029510 863.281006
-843.215942 387.978668 686.190918
-1331.226563 496.104095 624.953857
-1285.740845 168.297256 710.669495
-878.737366 128.945999 599.795227
-897.797363 236.488251 496.846954
-889.367188 218.968323 877.565308
-710.405945 276.516632 920.021484
-1342.445435 436.489716 414.286530
-1337.242188 505.844360 828.620728
-1269.700195 285.628967 706.832703
-1329.341919 419.934052 615.760193
-1292.076538 523.552246 888.612000
-1332.190918 493.158112 584.446777
-878.989868 437.349121 477.687988
-760.101013 380.970184 897.741760
-1356.145996 119.378281 758.755676
-643.372498 387.578583 888.979980
-873.133179 289.568939 802.624390
-564.836975 182.251068 958.771912
-885.616089 254.737900 492.758118
-846.166931 519.778442 746.560242
-835.089050 420.355042 649.597046
-1339.872559 464.981171 579.397766
-1278.554810 551.272461 673.400391
-1340.587036 178.788300 655.005066
-1326.390991 430.393707 456.256409
-849.630676 465.824219 529.815857
-669.405884 196.753418 938.604431
-865.770386 312.398590 863.067749
-854.843140 388.373291 519.713196
-884.012878 129.833008 568.388733
-866.310852 215.471512 536.663879
-881.717407 295.862396 697.322876
-855.575195 344.713776 732.159241
-878.518921 241.965988 772.491028
-767.991516 326.124969 899.287720
-1166.715698 331.188965 642.187622
-1260.330322 313.790253 836.342651
-1329.267944 321.068176 567.229736
-878.134766 298.273895 515.441345
-1292.771362 558.272400 900.825439
-838.163696 476.958923 637.787842
-1296.773193 499.552185 876.364319
-1351.416870 135.830902 651.537354
-1331.399414 267.101379 514.325500
-1296.503784 374.659576 512.254578
-1284.255981 351.834381 775.045593
-547.493958 368.131775 920.761108
-889.009094 207.747025 751.063293
-752.905090 231.016388 918.795044
-861.615662 298.533417 589.165466
-883.273743 186.553070 593.305908
-1235.871704 550.812317 696.428955
-896.361450 347.209595 455.091980
-1318.500122 495.125305 501.775482
-854.037476 362.341888 697.812805
-1292.412476 347.304932 530.672791
-868.849854 268.212036 725.152893
-478.523132 360.069000 912.225830
-1364.465698 218.539536 548.774780
-1296.321411 560.382507 904.328491
-1345.227783 257.803680 556.703003
-1320.475952 473.601196 706.918030
-522.002319 358.176361 906.867004
-1305.474609 579.081238 635.099792
-1321.075928 533.762939 592.558167
-871.222168 249.943146 661.307129
-870.445679 401.519073 491.583099
-1291.072021 369.445099 448.193176
-860.649719 328.645081 676.234375
-857.572815 268.220581 771.020203
-1200.305664 383.332642 665.860840
-711.098145 325.717651 907.491028
-1333.817749 152.492340 682.570862
-1318.101440 404.270599 508.081085
-870.292358 337.853455 552.655273
-1226.171265 532.837280 909.177795
-1342.484619 422.420593 433.836853
-1334.255371 310.764282 483.430054
-1322.488281 532.468628 529.977295
-628.350464 284.245178 912.064026
-1339.757813 492.993011 834.156860
-560.302612 377.920288 899.501038
-881.310913 245.886169 529.364075
-1354.945557 299.781738 620.809937
-511.825897 371.334991 919.508972
-843.913269 418.875702 586.335815
-891.988098 369.206055 467.279358
-894.046448 179.648819 716.299866
-1306.128174 601.054260 584.032776
-1291.572754 482.784424 693.434082
-608.092041 186.569672 945.939392
-532.189453 435.134064 885.127563
-1305.998413 498.328308 654.414001
-1336.280884 146.475174 661.044312
-852.736633 315.290741 737.611755
-1290.977051 568.323181 831.724487
-871.562256 289.540405 509.055206
-1362.541504 98.478416 685.367981
-1300.737427 612.789307 533.690002
-516.947327 326.706146 918.484863
-545.794373 385.531219 890.247925
-1337.416992 328.884155 457.379425
-887.923584 217.643326 661.764954
-634.520874 416.819824 878.388428
-859.656372 239.832657 547.199524
-900.452820 92.654716 590.878784
-1310.355347 560.618652 821.260986
-544.963867 390.852295 889.935730
-890.817688 203.088699 527.191467
-885.944946 122.147957 715.013123
-873.318604 196.572327 586.343750
-831.494019 480.727295 679.843567
-1343.915649 314.024780 746.003052
-486.615479 332.867554 932.468323
-890.590027 340.801208 462.660492
-853.751404 409.030457 579.812378
-886.789063 375.763733 476.319153
-846.887512 412.306091 608.111450
-1334.984497 431.792084 554.729065
-891.125244 149.684860 575.924255
-870.130615 233.831161 583.087769
-576.569397 408.476532 889.149658
-839.847168 400.669678 779.192322
-1346.967163 227.204803 682.306396
-844.338928 353.193756 849.954529
-864.676147 273.821442 601.265991
-1365.235962 125.028938 799.826233
-1244.807739 388.084381 623.246338
-1272.166016 694.013062 664.107056
-1321.149536 570.257202 555.286377
-1355.369141 151.744339 693.297974
-713.683228 262.776520 904.634216
-1273.405273 573.242126 870.907471
-717.622253 386.804169 884.739624
-1333.082031 398.608124 561.247314
-1323.219849 562.727600 553.623108
-1324.349854 497.662445 661.727722
-1305.635010 477.852051 686.832092
-1315.577881 217.926498 717.062866
-850.249084 469.089661 654.517578
-664.902344 425.497925 876.791504
-1351.704224 235.026672 626.044556
-612.328613 377.994263 896.489563
-887.467163 338.177399 468.701324
-886.568115 335.786804 816.886841
-575.022095 216.591339 940.218384
-884.569702 290.493774 466.613831
-1330.522705 332.354919 726.484131
-1296.746704 647.719360 596.068542
-1358.688232 204.860367 914.371277
-867.717590 337.375244 785.312378
-560.233093 421.400360 879.392883
-887.980286 252.060226 898.628540
-587.878662 256.083557 940.280579
-895.757996 253.572525 709.095764
-853.611450 304.016632 541.038452
-1373.422974 216.586578 556.764526
-1247.660889 626.188171 630.288452
-1313.762695 547.422119 655.799927
-545.349976 397.657928 890.808655
-696.981140 490.274811 845.612305
-649.914368 479.585480 842.173523
-594.613037 180.857544 937.991760
-515.785583 329.149323 934.977783
-677.338745 201.751236 939.098083
-835.529602 468.459991 721.679626
-1325.719971 312.639496 702.497314
-689.922119 239.778854 918.679138
-590.197693 401.663452 878.372986
-834.725891 501.034912 797.211731
-1318.618774 407.141998 430.459778
-1356.594116 265.148621 949.532959
-1277.457153 545.335876 825.181824
-866.896057 268.398926 555.585815
-894.938782 152.085114 743.152710
-1255.055786 325.190704 721.380554
-1370.795776 186.833374 613.187683
-868.080505 363.987305 529.795654
-1357.015259 142.395111 598.403503
-1311.245972 596.722107 585.323364
-852.828247 382.053864 616.880310
-1327.368774 553.530273 830.967896
-749.377930 342.007080 903.758606
-651.624878 239.696350 934.017456
-885.382202 402.876740 469.015411
-1298.494385 470.365997 692.281006
-850.515503 484.285980 838.358521
-847.014404 484.887970 557.163391
-858.928528 228.317169 693.890442
-897.605591 346.302094 478.354431
-1358.763916 166.520477 586.755493
-651.391296 531.928711 651.730774
-1324.224976 543.845764 590.710938
-891.973877 135.950226 572.012634
-515.367798 274.843414 938.215698
-830.272400 507.100861 690.071472
-447.742554 352.046051 939.334351
-1287.301758 569.977600 643.901062
-842.583374 446.941101 740.781860
-1362.316772 161.752457 576.640869
-882.956848 409.832214 475.341187
-1317.157349 511.372711 510.415009
-860.636292 349.892426 804.072144
-793.048218 511.089752 617.086365
-613.913635 335.300659 908.824707
-538.498169 472.385101 867.964478
-683.615906 273.542816 918.473572
-1331.788696 326.725281 544.600464
-1153.578979 359.120117 677.602112
-1330.481201 468.011902 645.618530
-519.626648 422.393707 881.190491
-615.586792 248.745850 936.803833
-1180.972900 359.541351 571.008240
-664.801697 338.818787 899.423706
-871.650330 411.619324 523.078430
-1335.297485 460.068237 516.421021
-1327.532593 461.213348 534.794800
-878.945618 347.910065 677.926575
-1299.078613 545.253052 526.153320
-1271.723511 579.776184 936.174744
-1313.183716 535.627991 566.334717
-1332.399902 243.519714 709.687195
-672.765564 350.937164 884.440430
-520.388611 368.312622 907.678223
-1280.389160 550.388733 1104.819946
-861.757690 337.615112 569.803955
-894.512390 217.258102 568.224731
-892.719910 168.427399 540.687927
-1318.154297 526.747253 628.971008
-835.501770 421.218475 618.012146
-571.805603 329.185852 918.669861
-718.859863 524.075745 855.722046
-1315.293213 419.353760 476.307373
-1238.161865 324.714417 860.513306
-583.789368 480.131317 862.290161
-1319.524658 180.276794 766.243958
-1246.949829 363.985870 560.588257
-497.686157 373.590485 923.896729
-1295.936279 648.915588 701.630127
-566.656982 468.382660 868.798767
-551.027161 484.253693 871.484375
-848.228394 354.831024 740.819519
-882.064148 166.637817 647.120728
-1335.369629 238.434143 591.035889
-872.611206 248.370102 510.432129
-1315.542358 356.481018 744.652832
-710.080200 238.288361 918.901917
-633.910217 416.792419 875.822815
-833.865906 427.036530 611.488831
-597.461487 372.092438 894.153137
-1294.167725 659.187866 590.873413
-1257.385620 336.276550 589.697632
-862.733582 415.920746 762.913147
-1320.033203 243.221909 734.968323
-1332.227173 295.986450 750.657776
-1206.611816 345.669403 595.493408
-551.851013 366.121521 911.361328
-683.826477 326.334106 905.399536
-657.427063 475.510956 854.352783
-874.393250 277.085663 496.915131
-880.017212 184.274673 731.128906
-846.367432 470.349243 552.386292
-845.688232 432.584747 781.508667
-589.954529 456.873352 868.840149
-854.901123 466.399872 552.845093
-875.859009 254.545563 533.190735
-845.040527 340.818298 696.821167
-648.226440 419.341003 876.252136
-1334.896606 444.933380 426.903717
-1293.132935 482.874908 888.992737
-647.246887 433.116302 870.547302
-1314.476929 513.578186 460.770416
-646.727905 295.640198 912.999878
-1348.077026 243.239746 584.142700
-874.827576 302.355927 535.444641
-1331.870117 461.556396 529.145203
-840.465210 474.922058 544.568726
-1309.744263 492.728912 503.074738
-1331.747803 423.003052 509.431274
-884.359985 176.995575 559.614014
-742.091492 276.025513 901.857544
-856.572449 242.432404 582.246765
-820.034729 529.843018 635.012024
-851.437561 376.309509 733.342346
-1354.116089 318.237640 595.139832
-871.935425 294.076416 828.367737
-751.556030 397.129486 864.516357
-1341.758423 166.351273 596.770935
-726.458679 187.630188 925.496155
-1354.046509 92.025276 759.644165
-1266.699585 382.376099 678.320801
-623.160645 376.905090 891.452881
-832.507446 448.871246 580.253479
-1302.620483 643.940002 598.284607
-1309.145996 497.962708 732.668579
-1321.906128 476.429535 532.569397
-860.207703 222.320145 705.019043
-721.036011 499.211853 832.639282
-1300.656982 512.315002 616.774536
-890.570313 133.653931 600.100891
-1325.016113 320.253296 453.246246
-862.813293 275.873016 650.874695
-623.114990 276.989410 929.178955
-787.230469 313.590149 916.436401
-1257.569824 363.388489 503.575897
-1328.403076 524.132141 583.162048
-659.482056 422.470154 872.191101
-909.908630 270.303284 461.693054
-913.763367 127.653023 537.953369
-901.442200 136.369995 534.387695
-1239.352539 358.176208 791.656860
-1346.308228 141.695541 606.969177
-774.416748 252.406097 911.221436
-1329.622192 283.731293 458.941315
-1263.346558 564.731201 883.290039
-1280.873047 724.854248 639.361328
-1293.387085 603.941772 1100.283569
-1315.661621 317.714691 802.645569
-598.448486 330.997986 911.659546
-599.062073 284.328247 926.328430
-898.744019 205.318939 469.034424
-865.518860 343.157074 802.554443
-712.376282 361.647552 890.347473
-499.182983 446.644836 893.740051
-1370.280273 207.561234 563.165771
-1296.120605 566.715271 519.931091
-1300.826660 570.446106 1063.119873
-738.834045 278.157043 897.349060
-751.214111 439.397400 874.067993
-918.891907 307.212982 473.057159
-885.066833 426.799622 471.423309
-1324.161255 347.973907 654.442749
-1328.533325 390.674316 389.157867
-1350.845459 260.514252 472.832001
-881.858521 312.632355 474.922577
-1279.824707 610.001892 610.029968
-718.849915 548.017944 528.880005
-854.538757 471.351990 580.571960
-1318.631958 500.037201 637.235107
-1338.532349 418.378296 567.381836
-843.896057 442.142975 703.833252
-651.065796 405.404877 879.829285
-1286.839966 179.706421 701.914185
-887.901978 279.630249 447.668274
-499.498749 323.338440 931.167236
-574.048950 302.869263 924.180725
-481.190979 338.797089 924.701477
-632.638611 384.411957 890.000732
-877.633484 199.094345 587.983704
-675.104614 419.098419 878.039124
-1342.339600 186.904343 564.622070
-1293.525146 106.318466 713.849731
-1309.692749 498.906219 570.911743
-601.071777 484.529755 864.474792
-1281.012817 567.007263 676.010498
-1340.604980 173.018860 664.076172
-668.071533 458.935089 856.801331
-889.766235 387.166260 454.528900
-878.718628 294.962067 512.594788
-709.593933 492.222168 839.255310
-1286.105469 212.599915 783.102966
-853.005920 414.118469 594.965942
-881.828613 207.674973 735.916687
-874.256775 369.631561 628.065613
-860.254761 240.163284 562.937317
-857.637573 395.421051 597.471436
-1289.867554 673.726440 577.184143
-699.661865 265.874847 920.713867
-497.552094 343.845642 948.196289
-1315.628906 463.419006 666.418579
-882.909973 166.551971 639.362305
-856.962463 334.192657 562.047729
-1345.018555 109.908478 658.900269
-538.135071 358.871460 904.592407
-719.425659 316.056519 892.122131
-876.265808 269.851807 800.164673
-539.155823 308.915924 926.090027
-889.490173 300.405396 744.012634
-899.944458 154.401306 521.289124
-871.325684 261.405060 620.471619
-677.287292 303.463623 911.259888
-1290.569458 691.114197 612.469910
-466.483154 395.891724 908.445068
-513.555908 399.814514 903.742554
-539.254272 216.147644 949.376099
-1320.319336 394.624420 480.797150
-520.234131 245.247421 961.442627
-1322.777466 513.354004 535.539612
-891.600159 393.150696 473.319183
-577.581726 298.839844 923.826599
-1327.745605 386.597626 505.387451
-931.230103 369.882263 461.319580
-556.087769 326.558044 907.944702
-706.548523 519.433167 837.024475
-708.009216 477.687103 851.342346
-898.348999 120.409599 612.648376
-1275.733398 623.611816 1021.283020
-1259.456665 616.383301 673.222229
-863.402588 308.659210 547.528503
-869.196228 318.493958 503.496643
-881.435059 463.934509 487.089264
-869.383667 327.344971 512.342896
-1321.187622 481.060211 629.674866
-1293.324341 650.193054 616.557861
-1265.775269 531.813599 709.726196
-527.690491 469.769226 884.990417
-865.274780 325.473389 829.208557
-850.787109 313.731537 596.641663
-892.905945 292.003143 466.833008
-809.203674 499.487793 592.614319
-890.655884 164.250015 718.719666
-675.214722 247.359665 927.508789
-1282.036011 680.867554 642.537048
-899.525940 92.927933 620.202087
-1314.118408 519.878784 459.526550
-562.069519 473.139954 870.498901
-1295.994019 431.692047 714.754517
-1316.750610 570.143127 502.349426
-874.253418 264.697754 751.086914
-1334.362549 491.886200 747.497498
-889.138184 306.686401 508.174408
-545.366577 301.637177 932.899719
-679.271606 269.475403 911.577209
-1277.879272 602.806274 1003.884460
-1214.617798 636.055725 618.425110
-883.640198 284.728180 812.240845
-880.766357 202.757385 541.380554
-896.063477 288.992645 500.743530
-1331.208740 407.612885 640.963501
-864.834839 344.149933 867.699707
-1351.928833 163.534668 642.954590
-892.132263 290.278748 481.155396
-502.244904 306.344696 935.629333
-640.017334 415.564606 883.369751
-1189.476929 337.953735 563.963806
-1346.675537 164.250519 599.546509
-590.445557 271.268799 927.997620
-1332.068604 448.712646 622.102356
-837.518860 439.993225 640.424377
-855.995911 263.204529 822.877197
-1270.006958 627.216736 677.567566
-1321.079224 174.845734 657.008179
-1316.062988 581.749512 537.831787
-887.301697 211.253387 781.471741
-1278.886719 571.171997 766.028320
-560.473999 359.423401 901.157593
-1262.375977 607.570068 617.609192
-1294.592773 310.288055 769.305359
-854.201782 503.069427 836.075623
-1348.381226 255.894852 554.107788
-844.418518 359.137115 780.346008
-853.187866 414.028107 606.618225
-679.981140 447.325012 862.177124
-548.842834 393.890900 896.018860
-1320.131714 350.959534 625.231445
-852.236938 371.465637 594.946716
-888.373718 190.376434 807.155029
-881.681519 372.572998 844.620117
-876.404053 331.419678 690.876465
-526.278259 255.886490 941.366455
-623.571899 247.781326 923.444702
-1334.745972 267.069550 627.877625
-696.903748 217.557678 939.107422
-1357.259888 184.898636 594.282532
-906.768250 111.898590 535.134888
-1323.700684 330.476379 413.143158
-1232.046753 502.486053 697.276550
-596.380249 459.675110 867.360046
-844.073608 385.723663 555.953308
-866.061584 265.656158 575.269348
-724.503845 261.437500 911.329041
-1345.238892 295.039612 403.428406
-852.936707 383.325287 603.985352
-1309.191284 607.762695 572.648804
-881.309082 201.948151 581.957825
-873.894104 136.482605 585.553650
-892.480103 203.576813 635.820923
-1343.789917 299.688324 472.545685
-503.295563 429.378021 899.830139
-897.722229 236.355377 695.793457
-1335.451050 473.607880 623.876160
-1364.048950 287.510193 464.662170
-853.926453 276.774872 599.944458
-474.463074 292.651031 948.733765
-1308.070313 528.039490 660.928101
-1333.683838 440.093231 615.051819
-1347.401978 242.963531 584.049377
-1350.835205 210.235855 498.704224
-1356.854004 310.291626 501.189362
-1347.893188 158.846466 575.226135
-479.732880 296.198547 943.382751
-765.221130 255.298767 904.814758
-1298.588867 436.576141 675.023743
-507.927673 430.089600 885.714111
-1289.444214 642.246155 631.574280
-1337.919922 210.240662 574.296875
-849.498474 451.122437 535.176331
-580.108643 268.354095 929.686523
-634.096497 195.519836 940.912415
-879.625610 342.250610 673.693848
-1353.321533 94.783363 713.660217
-1325.937744 374.431915 463.352112
-1348.045654 236.449646 534.045288
-868.308228 298.043335 773.135071
-1309.283081 389.084229 439.656281
-1304.557251 591.716248 530.818176
-1275.191528 467.163147 733.546570
-1294.312988 474.639893 780.587097
-892.614685 254.219574 536.387329
-1278.515991 389.212006 594.668579
-1318.800415 483.985046 488.471924
-894.623596 174.068588 541.404663
-1346.672729 282.628082 690.365112
-1263.608032 613.291992 918.031799
-594.917969 251.885025 927.329041
-527.158142 247.106567 939.969421
-857.735168 226.566849 609.537048
-1349.034668 148.471802 859.112427
-1332.763550 372.699585 410.029877
-1297.726807 667.795837 605.582092
-1304.796265 579.084290 526.846558
-1292.903564 567.563232 676.365845
-1344.104370 178.652435 621.813416
-897.640503 262.843933 763.853699
-1332.287354 489.908997 629.051575
-1325.467529 285.137085 850.428406
-887.320984 169.380844 590.489746
-1326.186890 337.627106 414.869110
-681.374023 325.533752 911.813049
-870.608337 256.570160 674.594727
-511.478424 278.969055 938.266418
-1319.668579 403.414215 542.212952
-1333.710327 249.701279 527.178589
-1332.128540 463.347626 512.537415
-641.815002 470.764221 865.136536
-1347.134399 289.689697 572.195923
-1325.956909 523.859314 754.746094
-1345.569214 197.110825 688.159729
-599.894470 315.854034 907.336060
-891.105164 166.040726 543.845398
-1318.285889 533.365662 494.161957
-1331.947510 386.867493 416.580872
-1332.728638 415.939148 494.227844
-698.348877 413.783600 864.223999
-1348.741577 49.439552 679.830872
-1341.903442 269.712158 680.667603
-1327.578247 463.353058 707.135620
-882.300476 427.176147 476.819153
-873.064941 189.534836 545.761047
-537.420166 376.497620 902.534729
-543.888000 399.752930 892.508362
-1332.405273 491.276489 627.507507
-845.091919 551.781860 722.769592
-1337.804688 313.058105 688.942139
-775.667236 518.384094 658.306702
-872.159607 277.645416 789.329529
-890.047180 234.480530 464.610870
-1342.458496 287.682648 636.419617
-1291.683472 602.420105 562.197327
-709.557739 361.295105 875.732483
-846.955933 439.798645 648.180237
-880.175903 358.534882 471.073792
-1330.905762 391.602966 549.426819
-867.880981 172.377319 579.955261
-1303.248047 457.072815 857.357666
-871.102051 263.016174 537.573364
-877.626953 205.963715 559.072754
-897.725708 151.633759 622.382568
-1339.982666 297.780090 538.136902
-857.327515 327.486847 510.092133
-864.394104 360.535217 789.228699
-1346.611084 283.092346 501.003937
-1342.322632 235.781708 951.776062
-871.054443 251.610947 872.484009
-645.255920 256.281158 932.499634
-538.538940 254.718887 947.379700
-1312.863159 352.278656 551.547546
-1338.555176 149.470932 676.941040
-890.182068 153.883041 593.604614
-1357.997070 164.337631 642.660156
-865.861389 301.540833 701.934753
-1298.798218 581.695313 657.419617
-859.241455 414.882751 718.677063
-1334.077515 121.245613 650.076721
-1334.330200 256.857147 564.337585
-1287.882446 360.231995 546.045044
-1287.479858 335.423462 780.627502
-1299.270752 590.285828 655.937988
-670.695251 473.137756 861.756287
-1282.845337 710.391663 626.638123
-858.411438 267.400848 665.976685
-783.721924 330.687347 911.239014
-663.941162 338.916687 908.442017
-572.290100 392.707123 894.356079
-646.798035 536.709595 709.465393
-1344.395874 199.314484 685.929504
-1331.957031 269.573944 560.507568
-1303.986084 625.368958 596.938782
-1351.511597 204.602478 574.365234
-1339.967407 110.831902 679.894897
-1305.637695 580.243958 874.812378
-1207.507813 609.304016 637.550110
-892.757935 200.551941 847.820007
-1237.255371 359.725555 711.723083
-1350.981079 376.817291 396.440735
-1289.779663 406.180511 518.854309
-1312.407471 480.288605 548.339478
-833.213989 431.230652 602.178955
-1303.685791 511.725067 457.048920
-856.018860 518.503540 618.286926
-1321.581177 375.870056 467.831177
-591.823486 478.270477 860.228455
-855.494873 339.003754 568.326660
-1320.461548 564.642700 799.543701
-1271.653809 579.279541 964.185059
-559.621033 379.963135 914.091614
-1282.248779 696.879944 637.949463
-852.965454 433.242645 545.526428
-1330.732544 360.903412 571.164551
-857.607178 341.817932 792.728149
-1320.411255 558.589539 529.301697
-881.615234 183.462219 812.929626
-594.520081 210.793579 938.469116
-1336.446411 362.049957 440.757294
-865.012207 127.905754 677.176208
-874.859863 364.136475 623.948669
-872.217529 247.771194 629.815308
-1348.038086 160.324066 670.790833
-1316.302490 500.172333 667.663025
-734.384155 304.427673 889.907959
-864.338623 401.951569 771.201721
-1326.430298 522.411560 538.502014
-1343.491089 314.875458 544.314758
-617.734558 467.830811 861.460999
-856.656616 383.520905 582.760193
-860.048035 356.857056 786.644653
-855.379944 413.851074 847.620056
-554.300476 368.817505 898.664612
-501.243073 200.012619 969.897339
-1267.562866 609.156494 904.675232
-615.094971 334.885406 908.671692
-1306.802856 357.605408 641.886353
-853.531738 471.951935 500.975189
-877.671021 218.702820 719.538208
-595.876099 415.536682 884.319336
-922.054749 233.642883 477.407806
-867.653687 156.127472 767.781006
-1337.628784 419.054077 416.791748
-1331.717651 508.523529 583.797241
-1320.694824 524.884766 487.024536
-860.018005 302.113403 513.216614
-541.970398 411.511810 884.444458
-639.372620 486.907715 841.233704
-727.169739 247.425980 920.268860
-1294.161865 567.637573 617.427307
-1353.760010 220.713898 563.299805
-1356.131836 198.499237 554.840637
-1330.183960 301.766693 646.777832
-898.419189 182.556351 840.584106
-567.008301 265.271912 934.427429
-841.600281 457.851501 770.101501
-885.135864 223.320221 624.786194
-1308.357666 454.577667 726.537903
-571.351257 375.303864 900.411133
-585.120667 426.964294 875.708191
-894.464233 298.044373 822.772400
-605.098389 486.981354 854.211792
-876.284424 153.833878 660.189514
-529.607483 255.171432 957.467163
-753.150940 459.242371 863.321594
-1334.389526 358.663116 384.506775
-548.379700 252.295425 950.692017
-898.632751 149.667252 692.674988
-1320.864380 242.296280 711.788269
-735.712341 190.774261 924.848877
-921.500244 162.553757 506.078156
-518.528381 319.522156 919.110901
-691.382080 368.157562 894.895386
-734.894958 207.830658 924.183472
-627.510193 304.223206 921.360901
-611.991150 212.291092 934.694580
-1242.413696 653.338562 644.370117
-756.704102 312.374115 907.511353
-600.205994 293.870117 919.507446
-748.456970 255.039291 915.999573
-1354.535645 167.808807 585.255371
-552.145813 438.318085 878.399353
-1283.197266 566.866211 848.697693
-872.721924 208.775681 557.389587
-512.318970 404.065186 897.477905
-875.380005 296.748047 707.502136
-545.995911 458.829102 874.422485
-571.012634 450.098999 873.814758
-854.198608 447.772736 591.586670
-721.911011 437.495148 852.140686
-883.058838 247.745621 860.825073
-1350.922363 265.821838 551.755981
-649.117554 423.445190 877.870850
-889.500977 185.589050 734.139954
-859.717651 373.125885 504.023926
-1255.965698 623.546875 607.738525
-1338.773926 206.869827 491.862915
-850.294861 385.243347 655.230408
-1359.136963 188.117737 619.202087
-504.938202 391.367096 904.440125
-643.963562 405.250793 882.587280
-881.815186 174.959122 790.765442
-862.020081 389.214996 715.128784
-1338.630737 466.296021 463.040253
-1321.358032 500.594666 575.352539
-1332.248657 258.190948 638.296204
-866.948792 349.927765 578.164307
-1351.877563 308.512878 706.014099
-1339.164429 193.431549 921.406128
-1328.940918 340.654785 587.035767
-1327.268921 368.136932 446.712738
-874.526245 304.802368 814.316956
-697.042847 318.531006 891.988525
-1345.610596 261.780792 510.767639
-697.468628 462.381012 855.597351
-1349.535889 256.391998 547.757935
-617.099854 418.386475 879.870056
-907.238281 207.022308 501.503937
-845.525330 456.757050 547.154846
-536.977051 240.266403 938.144653
-1318.538818 281.456909 805.007324
-861.908997 358.451233 532.068665
-857.781128 469.805969 601.536621
-894.996216 204.292191 757.806702
-588.293274 395.394012 886.736816
-890.507507 272.580688 477.923523
-868.445801 388.593506 726.883911
-1325.701172 400.631256 512.848022
-1280.166748 648.484619 603.375183
-650.948853 198.697159 936.975464
-560.884155 452.488708 873.961548
-886.701538 433.999634 459.084503
-859.788391 361.832642 526.750061
-594.541809 276.427002 935.485291
-1343.021240 281.045654 420.857391
-1334.925781 193.015823 710.379089
-1247.390869 324.119507 516.611450
-688.790649 432.577362 866.999207
-1341.363037 315.788788 445.146240
-917.974854 155.961182 515.089722
-840.244507 421.514771 662.043518
-889.654053 323.227875 839.757690
-865.140503 121.825821 686.981812
-875.674622 235.553009 695.308228
-1135.312500 353.739197 661.209900
-674.067932 310.145935 895.525391
-887.930237 209.784531 522.084473
-1342.801025 285.950073 458.577271
-578.193115 392.660339 893.604736
-1304.815186 452.160400 684.116882
-1324.606079 298.464752 498.416290
-592.108887 471.889160 859.896973
-893.063293 126.078308 599.759521
-1336.821045 307.423981 561.705139
-1329.239990 308.462189 758.874084
-1351.358765 223.045319 850.032532
-635.118103 240.323837 925.211426
-661.140137 510.012177 849.867249
-540.554016 446.892273 874.557678
-869.355713 243.998688 654.489441
-1333.040161 362.194427 389.534302
-843.994019 435.377441 666.538635
-863.034485 398.359314 527.847656
-662.205444 346.220703 905.872803
-1318.651001 507.854553 610.107117
-1316.320068 594.434021 521.224670
-1341.399414 277.358734 445.062195
-1291.551270 508.629547 723.740051
-495.831879 278.205536 941.127197
-855.691223 308.476837 524.844849
-557.748779 266.470245 938.526672
-554.868835 406.932526 893.629578
-688.981873 285.636597 900.273926
-1337.683960 348.091461 544.969360
-519.183228 254.209839 940.737122
-1337.385376 336.452362 421.198303
-704.797913 458.102081 856.195129
-1308.493652 350.200928 472.465912
-1223.385498 219.088882 684.374939
-861.078064 442.602844 495.840942
-602.219971 387.173004 886.614746
-1336.786377 475.760071 448.737518
-1283.463501 542.567078 696.218140
-1206.644043 388.310577 657.387573
-841.738953 396.821014 585.086792
-556.016724 263.723206 925.236450
-681.407715 412.912476 881.448792
-1238.752930 559.004150 687.853760
-1292.562744 563.702026 600.376953
-686.893311 413.317719 884.158997
-1314.779053 422.009674 547.363281
-626.898560 332.194702 913.367676
-685.867554 374.851837 897.079651
-1359.543701 170.943710 633.003052
-709.154602 469.929749 845.771240
-1313.069580 619.258850 544.895447
-1309.699097 446.162170 712.210754
-1306.253418 354.257507 467.383820
-1335.005249 339.352722 449.007629
-1318.490234 250.219498 715.043152
-597.619873 265.476074 928.160156
-1352.417114 336.120819 690.780151
-870.694763 367.163971 759.575989
-886.128174 286.560669 492.362793
-758.755615 406.548279 855.061768
-882.242065 198.077164 771.339294
-512.468384 432.561676 878.786926
-906.218445 215.532928 495.997650
-874.626465 255.228851 727.653259
-1346.517822 289.120728 433.570862
-1302.387207 330.908417 558.869812
-887.574646 173.017227 569.997803
-1264.998169 479.326233 710.050598
-844.451294 346.818451 844.771301
-1338.234009 471.229614 496.964600
-604.284912 392.103851 893.286682
-1321.017456 491.471069 443.343811
-846.316101 436.420441 526.594360
-1316.633667 541.381592 615.471619
-853.647217 428.244904 541.824402
-1343.575317 274.176239 558.923401
-706.594116 274.929260 919.789124
-1350.200806 268.438263 494.977753
-1348.894287 261.802429 677.854919
-861.907654 328.213135 554.157227
-1303.276123 407.630981 611.164673
-1357.722656 135.957520 804.555359
-854.344910 279.664368 653.501160
-1316.325317 301.732330 821.888916
-1250.893555 613.038879 634.517395
-1346.202637 292.455566 690.343994
-691.912231 262.098145 926.130554
-761.935120 219.412918 923.887451
-1339.866089 342.459473 422.665924
-1321.632324 499.854218 810.221741
-862.289734 191.812836 627.554932
-844.692627 361.412537 651.818481
-1301.977783 609.466675 590.078308
-872.633789 363.394348 497.089020
-839.876831 403.844879 688.451904
-1291.890747 683.001892 701.000854
-1349.024780 273.420258 665.225891
-563.661133 441.101501 876.323669
-1341.109619 228.811462 752.923706
-711.546570 430.828552 859.131836
-1325.394653 237.891556 721.269836
-897.076599 131.571732 729.405457
-1273.800659 631.908813 586.016785
-899.957397 151.891998 623.979004
-1290.140015 556.711365 688.120850
-1279.719482 325.033966 500.296051
-872.054138 260.446747 553.359985
-648.274170 497.930389 855.094360
-868.326599 371.676971 568.440430
-623.286865 515.850159 851.696045
-1358.550415 185.594193 652.787231
-1330.565796 340.558838 568.765137
-1271.002319 530.132690 684.705200
-1353.076050 188.787155 620.494629
-867.913330 161.369034 597.393494
-887.701050 156.930099 836.997375
-857.764343 328.212402 709.720459
-873.363770 368.343597 566.251892
-870.124939 208.569962 613.272095
-1276.244629 602.985962 1044.786133
-1239.772461 524.847961 888.353271
-1315.396484 601.498230 524.977051
-487.715546 307.325470 943.007202
-551.647217 300.038055 916.616455
-653.227966 306.613464 910.951294
-1314.186035 495.583862 681.550720
-1331.747070 512.069885 615.001648
-556.514160 211.865097 943.871094
-717.657959 297.806458 919.285889
-1307.103638 536.940430 645.403442
-484.002350 442.861420 917.981018
-551.025024 311.483398 928.777344
-869.714050 242.955811 595.657349
-508.764038 243.280319 966.578064
-720.025818 241.130966 922.237915
-889.560852 174.875687 528.708679
-846.040222 417.760925 782.965881
-1302.844360 641.250793 594.275574
-1366.067993 120.564903 643.987793
-566.504211 251.941254 943.110291
-720.201477 324.434692 908.735718
-1332.002686 501.278748 593.987183
-1294.385498 662.665588 660.586487
-736.725220 486.254547 845.793274
-622.625427 416.826141 880.917297
-511.307404 474.765503 881.523132
-1293.527344 336.333374 569.300964
-1350.262573 160.405472 692.065979
-849.728027 463.099792 634.002991
-1322.163086 115.353333 686.184265
-860.989075 354.613495 525.455200
-1244.029175 555.559998 977.312744
-1321.308960 306.050507 509.828156
-1354.607788 225.680069 897.760620
-1310.180786 233.982071 723.058350
-695.168640 221.692490 928.980957
-889.547363 230.028046 740.902527
-702.401123 456.842560 864.334167
-899.654785 102.236359 550.007080
-879.934692 307.455658 828.127136
-1283.559570 638.806335 742.839722
-887.987854 217.905640 543.714233
-830.953674 464.590149 778.382141
-1299.368408 574.494385 1096.441772
-1318.994263 384.181396 559.141113
-1307.915039 571.642822 632.196899
-890.359070 433.265991 477.006500
-894.070129 342.846588 445.606995
-564.116272 467.549622 864.859985
-890.804749 185.360275 787.971191
-866.515442 180.326035 759.071777
-1294.889160 485.507050 805.983643
-1320.182983 172.297501 705.604858
-891.373230 272.423309 692.610596
-850.258423 414.318207 848.444153
-871.191650 283.081573 508.610718
-1294.540649 529.117859 656.556519
-699.697693 319.883972 902.978699
-837.678101 410.235352 568.590454
-580.444519 198.281464 948.492920
-596.016724 415.518494 893.898926
-1313.639526 440.437988 470.524475
-641.692871 354.862671 905.032349
-1334.015503 473.003113 447.758087
-1308.879150 575.672729 841.228943
-754.127258 319.588501 892.066895
-1300.659546 500.648560 730.182495
-836.673401 497.401184 615.011719
-1340.332275 298.446930 503.312134
-882.718262 256.389587 810.227539
-1315.315063 366.264038 529.273560
-886.579956 137.419052 650.515198
-910.905029 254.829422 468.701569
-540.799988 295.798309 922.678711
-737.287170 286.866241 894.725830
-592.734680 233.957199 936.967163
-865.343140 274.796478 693.562378
-845.748047 499.106903 776.818359
-877.006226 326.624908 853.742249
-896.336792 274.675201 773.153137
-872.388489 380.090485 610.700806
-1343.730713 118.174660 662.820435
-565.839233 505.508911 853.840576
-1268.573486 616.589233 662.881897
-696.968323 469.345367 856.341064
-1290.715454 693.399353 655.801453
-511.592834 400.805206 917.421448
-853.428894 360.598633 683.533264
-1323.079956 294.737091 527.307739
-573.821350 480.647430 863.954651
-1336.916382 327.454041 727.739990
-703.627441 218.284378 922.867065
-604.995850 233.201111 935.272278
-836.823059 485.282013 635.310669
-671.297058 487.677399 853.727478
-1345.242065 258.515930 730.898376
-1293.450317 548.401672 865.351440
-884.025208 323.627441 516.982117
-857.495972 262.025940 555.118103
-1316.809082 411.506714 619.444580
-1348.072998 321.125336 432.777649
-880.012268 258.112610 736.093933
-1228.688843 539.400757 671.949890
-1328.567871 427.891510 466.964172
-525.363708 301.872040 943.533203
-704.439331 347.002930 906.301208
-1282.294067 708.217468 684.032715
-1291.766235 576.019043 822.630188
-1333.352783 252.802536 598.953552
-717.687866 293.797699 896.483643
-1310.654053 358.524139 675.793030
-864.594360 221.585083 539.250244
-1316.225708 557.398376 634.190491
-531.388672 201.520416 982.119141
-1307.924561 611.829834 1088.967041
-1304.535400 154.509415 698.376099
-854.912842 386.190216 561.358337
-598.044556 376.208374 895.269592
-878.920471 345.577576 530.090637
-716.978760 408.171814 879.966064
-1358.446533 124.433548 615.127869
-1282.140625 575.984497 901.906982
-888.850281 170.963287 764.930359
-1331.300903 454.025604 589.175110
-906.893127 168.050461 483.484772
-1302.082397 711.291443 606.226196
-868.575623 237.521027 596.079346
-629.123352 389.457703 877.663025
-545.254761 241.127808 941.469543
-614.838501 404.406769 884.969910
-842.491089 509.178345 607.048584
-1321.622192 559.254639 562.723511
-1113.301514 361.707550 696.588013
-524.314026 389.404083 899.289185
-872.028442 249.962997 616.422668
-870.240417 247.789444 553.366943
-844.858521 351.790222 655.828552
-874.152710 200.916245 704.305542
-867.397339 424.846283 498.596985
-548.004761 300.758514 930.567505
-853.256714 409.871429 819.771118
-662.114563 540.563416 651.931274
-873.103149 340.975067 495.900726
-1269.963379 581.082825 682.149414
-876.660278 118.208824 655.536255
-667.924866 338.246979 908.335510
-487.601776 368.318481 917.515320
-819.984131 511.144470 590.189270
-1320.804688 567.846619 531.057495
-851.106384 384.138092 719.546753
-882.284546 168.041275 786.531494
-858.497742 435.431641 630.883057
-1325.302734 207.559692 688.939148
-588.548889 452.923431 864.319153
-905.943237 239.516068 496.359497
-637.311035 461.008728 869.701965
-868.462280 286.794342 532.306091
-1329.382446 419.585754 461.564301
-1231.387085 625.207458 643.661987
-1364.482422 261.644257 569.769226
-1345.505127 268.180664 600.954712
-1279.843018 681.596375 727.275146
-573.598633 405.003418 888.625793
-1293.343018 602.215698 634.347717
-1290.141724 393.617218 673.893555
-1268.251221 637.763367 652.499023
-1343.703491 409.650146 519.049988
-899.952026 198.942993 820.838623
-1277.181763 427.060944 741.786682
-1361.092041 181.867569 838.089905
-601.147034 177.879974 948.512939
-1306.683716 587.713135 535.317627
-1328.035034 164.516769 681.418091
-1355.805054 173.391251 653.908081
-855.384766 282.913513 697.518921
-1338.337158 307.187286 576.579956
-878.582275 224.981171 889.101379
-1355.116455 167.620132 707.781433
-1377.925415 159.500702 630.464783
-1316.442993 396.490814 514.221985
-748.663086 408.301483 882.287476
-569.429749 351.858307 907.057007
-1281.128906 594.100037 672.197693
-1321.045654 480.477936 500.216370
-1331.777344 444.775513 509.590332
-1323.725952 450.993317 510.601746
-852.085144 403.014709 558.286682
-671.058960 433.395813 869.203491
-1331.220825 274.957825 403.273102
-1273.171753 608.625427 663.691101
-772.929993 271.778290 909.654541
-1294.703979 610.149780 967.620972
-852.127747 320.883667 741.984070
-862.808105 409.934235 567.138977
-1320.387939 541.926270 623.373535
-1362.640259 220.440536 563.321167
-493.308167 436.843628 915.564331
-874.249084 473.698578 488.378876
-520.271240 225.732285 948.249573
-1238.150146 515.692932 663.316284
-1277.006958 580.731689 810.539063
-1374.042114 210.408890 564.758362
-1348.826782 203.972824 653.947266
-485.109131 433.097046 890.192566
-853.827209 443.954926 631.362732
-1313.801514 391.398346 469.014496
-1304.577026 537.635071 656.157349
-662.899048 514.031738 842.635986
-846.182922 422.804810 756.188965
-867.426453 313.684296 795.627747
-886.688293 173.810013 792.747070
-753.846497 376.010345 871.275757
-885.726440 208.128891 808.179321
-1310.019653 566.757751 591.512390
-858.029358 453.759918 532.940063
-1325.245728 454.535126 679.147888
-703.704407 356.773590 887.831299
-1279.493164 462.634125 753.593323
-847.128845 339.837738 660.460815
-759.298279 252.688553 903.621033
-479.054596 366.675140 929.756409
-838.412659 509.982025 751.516357
-1320.598633 313.354431 885.949829
-856.293701 273.328796 785.670532
-675.623413 495.190460 857.971558
-1306.582397 623.267273 566.642029
-824.835449 533.713074 613.687805
-1298.419312 629.655029 561.818176
-895.476318 108.843918 660.573914
-652.422485 304.326172 901.779663
-1332.027466 116.580246 699.558838
-886.765686 222.431580 823.815735
-1340.245972 231.267349 493.766174
-870.958801 362.103363 640.373230
-487.962433 350.717041 922.962952
-863.724304 344.054321 575.877502
-1330.480957 430.216370 622.101501
-907.097595 164.692993 513.393677
-1365.883179 169.634262 630.999939
-832.129395 446.696594 648.485718
-1343.921387 256.770508 728.576843
-1278.025757 686.385925 595.086792
-1308.386108 194.167511 811.102661
-1320.803467 490.161469 481.328094
-1297.851074 608.052002 633.630981
-1275.677734 707.639526 710.506287
-888.143555 222.855667 860.301575
-1290.225342 693.442749 693.453003
-662.741394 236.525375 918.266296
-851.349609 413.038147 728.712891
-1285.631348 352.103394 762.146545
-1238.084473 489.553864 737.156189
-1369.160767 133.957413 660.013062
-1285.582031 637.697510 1074.457764
-858.104004 401.018646 792.032227
-841.689392 477.971527 727.374634
-868.653748 234.371994 644.628967
-1335.487183 356.680389 385.640991
-1348.968018 229.501831 496.127319
-833.248718 517.578186 622.985962
-1346.776489 354.613770 649.343994
-1356.709717 193.835281 590.099304
-1297.011719 627.091797 625.258423
-1343.594360 433.297913 569.640564
-1327.552490 327.208191 741.308472
-458.424438 293.952087 953.529175
-908.920166 271.236664 492.096741
-686.002502 258.216370 909.005981
-875.601440 250.567444 783.439392
-523.467407 238.734680 946.048889
-875.152222 345.547363 845.589539
-1256.421875 491.598541 751.330139
-868.763794 183.087799 584.217529
-880.518250 179.133102 599.310242
-766.631958 195.719482 926.636292
-1277.602295 647.035339 597.171936
-880.892212 264.903931 490.800720
-539.644409 408.666504 904.705994
-683.351990 486.518616 856.534973
-1345.486450 283.721130 414.231689
-645.332336 358.873810 909.086182
-1311.658691 434.864166 412.205383
-1307.170532 579.417297 560.637268
-569.467651 380.226288 898.505920
-1301.051636 407.938660 647.990173
-682.822449 431.192719 876.892700
-874.946655 293.622406 495.348450
-490.989502 273.081909 949.721191
-616.112061 447.666168 860.329346
-684.059387 552.542542 794.374268
-852.077026 353.533417 515.697449
-505.624695 416.901886 902.144226
-516.286194 242.914810 961.193054
-628.862793 458.520935 858.264648
-604.135193 342.867432 909.951416
-1197.537598 365.206543 656.491638
-638.059143 454.669220 861.661987
-1310.626343 567.217834 778.283203
-836.953735 473.935974 565.523254
-1338.529907 307.064087 433.439575
-1134.304565 350.740997 595.078430
-876.913147 333.884796 786.498901
-1355.132568 282.019104 720.897461
-623.259888 339.921570 911.622681
-855.266602 264.155884 838.373291
-857.583435 327.184998 698.490173
-883.162659 454.451874 498.309998
-883.058533 431.839142 471.430176
-894.124878 281.447815 761.655396
-495.324219 402.646088 910.260132
-903.338135 377.103943 452.887970
-1283.601929 684.358032 671.210938
-1314.525757 452.045746 582.165710
-598.917786 305.733337 924.442749
-1324.592529 357.946899 389.710114
-837.572998 464.395325 589.175964
-866.362244 373.501923 532.340698
-852.341858 475.881012 605.312805
-1240.757324 301.818054 722.442627
-1312.275513 429.663300 467.578125
-877.553528 268.438690 825.733215
-880.358826 188.933411 566.525269
-1323.562256 460.312531 488.328857
-1365.687500 262.151306 661.440125
-866.750549 336.617737 491.789673
-1275.797607 451.061829 731.719238
-850.286255 468.037170 723.277405
-1291.823242 647.870178 694.020142
-918.273743 113.315163 545.035278
-839.577515 467.380859 605.401367
-1335.846069 203.213837 671.972900
-1292.870117 572.723999 630.343628
-900.545349 298.710144 454.617554
-895.433899 228.178329 643.731384
-889.827332 217.995590 842.434998
-1348.334595 184.707764 819.049438
-1315.782715 368.859558 623.021423
-1299.659424 251.413330 725.079285
-1254.576782 594.745056 680.914429
-1347.145874 219.625183 682.287292
-841.969910 461.800934 787.319092
-864.977234 326.768585 493.039825
-1292.902832 615.969421 984.130676
-1293.968628 624.539246 998.287598
-594.073059 394.361237 887.875183
-1250.412598 445.635834 717.223267
-524.241638 387.418701 918.869507
-1307.664429 483.537018 716.160461
-1277.848755 632.698853 575.870361
-554.648560 199.451416 958.511292
-850.685608 315.450317 767.942871
-1300.071289 467.253967 690.203247
-854.845459 347.858185 698.798584
-842.928162 376.204742 836.535217
-1272.590088 535.814453 802.191101
-864.230286 298.828888 734.430481
-1317.469971 406.668945 628.963745
-1363.409546 206.422333 635.961304
-1342.173950 430.029999 449.189331
-728.231750 381.679779 893.351929
-851.727783 272.649414 612.359375
-1331.131836 162.664749 693.346802
-853.739990 463.158875 500.347382
-1332.360229 501.224670 464.242798
-876.192993 143.799133 682.354126
-572.385742 305.374817 918.498962
-1285.382080 396.221863 512.867126
-551.885254 463.245331 873.216370
-1286.050903 601.331177 864.222595
-869.362244 382.602661 530.365662
-866.264343 149.916916 727.291626
-1323.067993 442.293915 652.028137
-709.566772 184.718643 929.460510
-1265.706421 575.554688 916.656738
-1333.673340 472.785461 531.838745
-1327.793579 73.256767 703.515625
-652.286743 522.861633 656.152283
-1334.756714 254.917236 517.510315
-510.015472 434.652557 889.750366
-608.766968 324.084290 916.964233
-1281.606201 638.452393 654.805420
-1342.834961 331.063660 526.414124
-901.262024 157.745026 532.775024
-1340.492798 325.798370 460.739044
-905.657593 139.333252 522.916931
-1235.580078 471.949615 727.093750
-1278.302979 625.654541 610.426636
-885.400452 168.774185 560.975342
-587.046082 418.410553 872.389954
-887.728333 167.932877 696.875427
-1311.017822 329.552460 561.456360
-1296.303589 542.519592 589.574097
-605.855774 348.673401 918.802368
-1341.723633 130.630936 671.994995
-862.471863 290.949158 596.605652
-730.022949 205.891296 920.527100
-851.424988 359.610046 595.790649
-590.645325 210.815369 945.166016
-873.686829 235.722214 518.957214
-1326.991699 439.959625 449.758301
-1302.176880 377.305573 449.723938
-849.421448 420.809967 804.579651
-1320.650757 492.502563 503.069733
-1345.664429 310.998932 597.023560
-865.559448 353.169922 663.484802
-1298.743164 151.207764 703.963318
-896.598877 101.615570 570.351318
-1313.138794 390.990784 650.886658
-859.613892 228.424026 709.185608
-1340.059814 134.563049 668.535767
-865.355591 331.357117 480.658203
-1344.523438 224.835739 674.183228
-1340.256348 314.037476 568.077515
-1331.674072 364.639771 393.876770
-848.825684 441.837158 544.140991
-661.777527 264.589630 924.635132
-1307.730103 577.938293 809.661560
-857.130371 344.442322 696.484497
-564.990784 387.587036 896.271057
