ply
format ascii 1.0
element vertex 1397
property float x
property float y
property float z
end_header
-1413.367432 152.944153 345.921234
-891.620544 196.327423 799.364868
-1451.217896 330.209106 529.354614
-1456.791748 418.638245 548.971741
-1393.659790 405.010010 476.723053
-1482.100952 315.387909 616.317566
-998.619507 264.925171 634.388062
-1406.140625 -3.585907 547.641724
-777.400818 258.714844 808.028137
-1451.128052 317.059021 499.016144
-988.034668 384.337769 483.895172
-1425.856445 188.240158 302.718262
-974.897400 249.731064 367.016998
-914.692688 434.626373 717.606323
-1423.613525 50.001961 593.744324
-1416.714355 205.347244 288.243530
-1000.100708 280.537811 638.003723
-1008.947205 305.903320 697.616394
-1009.016479 346.195648 654.325439
-1391.419922 267.461060 570.546265
-1382.059692 -88.329498 567.739380
-952.367310 18.196785 472.656189
-967.768982 246.105362 490.961853
-813.053711 175.765854 829.145874
-1449.894775 222.105392 592.277649
-1435.583496 257.701904 320.821320
-650.077332 188.215469 887.363159
-960.264771 293.474243 461.271210
-1403.201416 154.547440 689.194336
-960.641418 112.871796 426.407349
-1426.855225 234.313919 589.854004
-1439.703369 271.467865 347.766205
-954.587219 237.731049 505.654846
-1415.677612 -14.663859 457.927795
-687.355164 298.323822 833.826416
-1429.039429 211.894913 293.622711
-1429.111694 191.266220 525.758545
-1448.769775 424.169281 432.933441
-995.648438 337.561951 407.969452
-1421.269165 101.317818 676.244019
-1403.898560 80.525604 405.750153
-1412.949951 57.404491 292.411835
-1444.688843 184.164688 385.121094
-982.689392 346.954620 421.221741
-1451.646606 402.572327 482.250153
-1421.676147 182.862381 380.553314
-1010.252258 211.519302 335.136383
-1422.816040 -73.734200 671.953613
-828.658508 209.184540 814.299377
-1415.977661 57.461300 337.916718
-962.846008 133.683609 347.201721
-1466.002563 425.036896 379.933105
-1011.957825 302.473755 356.952881
-974.804199 333.064240 412.790222
-1428.499146 51.741478 302.777100
-852.328125 459.538025 702.514587
-1433.966431 337.472717 565.634399
-1403.411377 149.904678 454.937744
-1405.419434 -103.089005 530.440308
-1414.807983 82.088165 399.940338
-753.195679 304.431091 816.156189
-1434.265015 286.881439 291.105865
-743.944641 361.045135 776.180603
-829.306152 160.856812 828.368347
-1432.942505 63.043194 525.467773
-1439.824951 76.860863 452.437408
-803.560547 179.384949 836.523560
-983.710571 404.929443 598.118652
-900.569824 230.175293 784.465271
-1001.551086 296.195282 641.586304
-973.214844 289.673157 362.947754
-995.588440 239.085068 559.869934
-977.695129 275.432648 407.906799
-716.067932 340.223114 791.066833
-955.068054 70.208336 426.760406
-1429.646484 245.186890 277.664917
-969.357178 250.284912 510.397217
-729.693176 227.824448 848.006104
-965.527954 281.925354 433.363983
-820.055908 187.821838 821.477234
-1394.522461 315.960907 522.729248
-1416.512451 132.113647 468.849976
-881.265381 417.589233 728.964233
-983.739014 227.872681 574.350403
-806.450012 470.933105 699.027466
-716.192566 460.334198 745.268433
-988.939453 187.165222 745.288330
-1492.529053 472.493195 897.733948
-1350.939697 171.444016 459.895935
-1450.262451 301.767731 459.045654
-783.919739 217.261734 839.002625
-1434.052124 344.619507 499.868011
-987.809570 227.920181 678.602844
-1443.213501 411.962524 758.478516
-617.514465 332.613586 851.290710
-1388.947998 307.522095 507.219971
-988.144897 205.458755 602.229980
-873.155396 430.577026 386.226410
-752.023071 327.568268 792.243591
-1355.041992 -18.622969 604.535034
-1405.995361 133.825180 388.817352
-1433.037964 337.725128 334.757019
-1442.204224 430.941040 409.642303
-822.770569 275.197968 802.318970
-1453.191040 334.681702 479.927460
-1414.763550 -39.249649 400.860748
-954.078125 37.726597 561.095947
-987.938049 154.589279 682.840698
-974.477417 306.012695 526.013611
-962.662354 336.953918 435.805878
-1291.564453 169.036072 585.237000
-769.257568 279.654999 817.216980
-1419.882446 41.897488 302.698395
-1433.937134 409.570923 384.183105
-972.747375 293.313782 481.626068
-986.338318 351.901215 492.647644
-1460.384888 260.502533 440.045258
-996.203491 293.105194 362.750824
-955.909912 137.382980 517.674011
-1450.297485 255.972229 395.530426
-706.225281 260.190002 830.985840
-702.108765 372.133484 789.117371
-961.691467 15.400944 454.699371
-1413.299683 87.718285 320.974426
-1450.335083 433.390045 448.651337
-1427.355835 197.827866 436.838196
-962.826233 313.627869 402.917969
-982.699707 260.636383 739.243896
-1454.344849 377.150391 582.137085
-1443.529663 302.125488 307.695099
-1426.286133 135.260727 244.959152
-1425.522095 -16.687857 421.919922
-830.501709 381.553589 747.743225
-849.124695 396.905182 725.787231
-957.800354 115.657631 466.320313
-1004.697632 382.474060 671.632141
-975.521423 133.979477 566.578552
-1328.871582 139.432083 421.931274
-959.163696 211.193314 375.963928
-1429.426514 281.808807 332.926636
-1461.163696 254.733215 459.777466
-1471.431641 408.516907 720.981445
-1453.131226 376.827423 411.520874
-710.799316 307.403931 814.971985
-965.908630 78.811134 409.041504
-1458.568848 441.077209 419.419128
-624.296570 252.680817 889.820007
-1346.924683 94.057602 579.085022
-988.761292 179.563446 338.924835
-777.937744 452.648987 728.439453
-1375.214233 293.343658 547.620300
-789.817200 440.281311 726.843933
-968.599304 194.881195 558.393616
-961.601685 52.869102 429.118896
-952.586853 15.371588 427.491943
-976.318604 92.919022 496.448578
-967.703552 165.809631 449.204926
-973.829834 183.452057 327.490112
-954.085999 146.070908 434.985016
-1398.040894 309.754791 542.775269
-724.042297 248.383087 847.177734
-1430.951660 208.370575 314.211426
-1428.398193 21.887285 333.463562
-731.297302 189.286743 871.669373
-1428.327393 40.567238 309.243286
-1429.829956 126.035492 499.850372
-1394.382080 27.626450 290.364563
-1437.538940 257.620880 338.554352
-1322.611694 -13.780891 555.185852
-1413.197632 160.315247 315.688354
-948.341064 -24.115267 491.424347
-946.572144 166.318817 464.414307
-837.609375 335.736542 771.286011
-717.500427 301.965027 820.427551
-1423.821167 185.588547 268.043213
-1459.117065 290.500641 457.466461
-1432.213623 240.570374 696.538635
-649.062195 333.139954 852.576843
-1443.670776 293.625671 483.681488
-956.119934 245.036972 463.911652
-1464.143433 427.363617 730.323364
-962.858032 198.575806 487.565094
-1430.600586 44.340172 405.216858
-1434.516846 305.324432 439.113831
-1428.131470 364.152588 883.559753
-1464.192139 401.472412 364.019836
-795.187561 353.324188 783.802185
-1437.028076 321.845093 467.870544
-1445.877686 212.307800 296.873291
-971.191650 161.197815 629.555420
-758.433350 298.815674 813.146240
-1408.180908 387.807159 531.093262
-988.907715 187.891235 748.673584
-694.671997 203.928375 857.641907
-1451.532715 434.485901 460.519073
-1460.046143 262.921143 492.879974
-761.502441 378.313721 762.252197
-897.550781 298.348755 755.991211
-740.072021 204.769989 843.944336
-699.267029 440.031281 761.366516
-1460.806519 250.687775 502.031097
-769.312561 405.898407 750.719360
-1439.793945 327.031830 429.164398
-1440.012573 398.391083 601.242798
-973.406372 290.617371 589.733948
-992.790283 110.837646 687.633972
-804.011780 197.230011 836.176270
-739.553772 361.601501 781.859680
-987.169556 316.021454 509.898438
-732.183167 422.299286 755.631165
-665.591309 406.339752 783.532837
-1443.419434 272.711639 374.804077
-986.774658 391.709534 529.606873
-1421.566406 196.804688 564.571411
-1402.433838 374.362366 491.895172
-1383.088013 132.590897 635.179626
-726.008484 286.475922 819.895325
-712.283325 229.234970 853.322876
-1409.832520 421.194916 426.219849
-1398.764893 178.076279 471.836700
-1344.807251 -21.666088 598.812622
-1432.879883 454.627441 515.734558
-684.695007 308.257294 833.438965
-1436.977051 346.206696 429.448364
-971.436584 274.139221 517.897156
-686.033569 369.290466 796.732727
-707.567017 222.689804 863.111877
-952.200867 217.391632 398.686676
-1397.692749 136.730133 311.547211
-1433.101074 131.544769 243.039795
-994.376892 75.696907 389.236023
-1438.455078 57.323540 347.273651
-814.259766 -45.212357 613.919189
-1376.994019 103.867897 382.560364
-941.454468 22.957260 588.724121
-961.869629 60.201359 425.995087
-1461.204102 312.235626 659.511658
-997.724182 156.705078 622.765747
-979.110535 262.738831 537.881836
-1429.047729 39.313309 487.499298
-1358.896851 111.223824 368.037231
-836.050415 235.963531 811.489502
-663.867859 429.652557 772.409485
-1449.645508 497.609344 535.794983
-964.065247 206.359085 385.668304
-1411.412476 87.270630 648.468933
-1361.577881 -20.991026 590.210144
-1415.309570 -1.790434 358.379333
-950.669800 52.697201 696.876648
-668.456299 233.963760 864.982910
-961.318542 261.821381 504.554535
-680.801453 287.951324 826.038208
-993.581299 250.709778 730.677734
-726.084900 162.263046 864.771240
-1399.800171 393.866608 487.565704
-1415.757324 398.902771 435.973145
-752.726563 312.296906 792.877258
-975.628296 127.311691 365.384918
-977.043823 139.644470 511.882111
-970.741272 278.240509 362.980774
-649.635925 300.312531 880.814575
-1408.376221 -19.527290 644.882874
-975.602112 254.878159 656.858459
-1431.628418 205.761337 321.914520
-1414.994141 360.224426 567.057922
-1377.021362 222.407486 584.526306
-1458.298340 329.194885 372.114838
-815.523499 383.416107 749.096252
-811.135315 236.791351 807.478333
-730.754089 280.177551 820.927124
-723.079712 277.244171 833.993530
-1328.640503 -70.940681 570.805176
-1352.463135 269.068329 661.200989
-1382.824097 -73.133339 567.313538
-741.505859 455.523224 735.104736
-1432.204834 273.258118 282.441376
-1461.652222 430.761963 498.220673
-1428.748901 199.697021 313.350037
-1427.645630 283.219788 554.281006
-812.937439 344.631348 758.090393
-759.213379 270.166199 828.306458
-1423.200562 -18.545168 398.424561
-769.096497 308.310150 806.864990
-1392.155884 283.028015 620.022278
-1457.391846 330.264069 452.134644
-806.547119 218.402313 828.870789
-997.151062 174.238327 672.542908
-967.433533 169.575287 529.702515
-1001.798767 326.399658 604.371765
-1451.603638 378.818390 363.218811
-1377.171021 141.307266 655.306213
-969.211243 72.703918 633.945251
-848.285522 417.254578 718.398254
-984.422791 130.972214 390.290863
-987.191711 108.964310 653.604675
-956.071594 21.632898 544.710388
-1442.531006 353.417389 666.285461
-976.132507 195.433701 349.474335
-1486.959839 342.343658 618.584900
-1435.434448 283.015045 506.175812
-1449.600464 453.172638 430.396759
-763.259460 353.713257 782.228943
-759.126709 190.851273 856.885559
-739.602051 435.688416 747.617920
-1435.625488 310.976349 680.127991
-747.749329 434.220154 735.675598
-1410.879028 196.399567 529.587830
-973.169800 55.745560 677.568542
-985.817627 1.694858 459.206726
-971.203186 189.162857 375.181274
-990.322144 126.211449 760.777405
-783.989502 366.322540 765.958008
-1415.066040 352.205658 548.129578
-1456.324219 439.526184 493.459656
-1368.891724 213.311996 556.976563
-1421.314331 2.980331 488.610321
-820.974304 319.228943 788.309814
-1426.966919 18.340645 321.721466
-967.384277 155.075363 403.652374
-865.477356 168.037231 828.511780
-766.638062 226.798706 826.631775
-999.078491 238.141739 657.447144
-1407.141235 16.065823 447.654724
-1399.170776 71.123291 330.634430
-1460.166748 389.741608 353.062958
-982.452942 212.076904 355.350006
-991.120056 262.149139 646.637207
-952.212830 88.030037 451.092010
-1454.802368 289.413147 483.857452
-1446.655640 263.618195 479.726105
-977.704468 240.934830 342.407013
-1445.239746 61.431938 526.638611
-639.103638 248.312607 868.913574
-977.686829 69.525764 743.302917
-831.681519 440.602966 463.773224
-675.499023 257.365356 862.267578
-790.487793 292.526733 788.589294
-952.595520 128.156525 436.541168
-925.072083 398.109283 449.045349
-978.669250 41.606358 431.686615
-1400.733765 -91.755318 561.345215
-984.692932 354.229797 554.159424
-1435.677612 228.320999 356.659790
-1427.069092 124.151871 599.644531
-1352.170410 380.359833 448.686798
-819.585388 452.114624 715.905334
-1413.321411 -63.486397 465.555878
-1447.283081 382.087494 609.006714
-1419.706543 118.658607 625.996521
-1450.306885 196.298630 395.449493
-892.492798 206.326157 807.324890
-971.367126 250.061920 345.957825
-819.080261 168.579147 833.754028
-1441.494385 411.343994 435.227570
-992.256042 311.439362 370.930450
-1457.731445 274.638184 391.725525
-1394.151489 266.553955 567.020752
-750.791138 170.604675 846.019348
-1376.350464 324.998352 497.753693
-981.225891 99.447929 619.133301
-1402.288574 132.606812 271.679962
-1440.243652 178.570084 264.025269
-961.033691 262.152740 383.440186
-662.844604 398.457764 801.251160
-847.437805 436.215271 713.961304
-963.576233 255.563950 453.674011
-1341.671631 -55.625713 590.456665
-1401.232422 -69.672668 482.553772
-980.174622 210.510300 352.667633
-980.059326 18.493856 454.761353
-1448.047729 257.844666 439.501373
-788.196533 368.091492 758.142822
-716.482849 314.822021 820.184265
-985.969971 185.899643 695.449890
-964.172974 229.862366 428.723236
-1448.993774 350.066040 361.289001
-973.396606 138.227173 452.660919
-1391.798462 125.780907 356.392487
-747.475159 424.804901 750.322632
-958.236633 211.502289 429.181885
-977.242188 313.263336 570.527710
-729.663757 437.372742 747.854736
-879.527893 321.934296 776.911621
-1401.507080 -120.204277 560.604492
-1450.090576 296.975555 447.091217
-1446.981323 342.896637 442.286896
-991.989929 396.757874 573.711548
-1488.008789 335.077087 639.166626
-1424.599609 -108.303909 588.294861
-936.991333 25.020426 481.784851
-1450.139893 226.586212 435.583923
-618.773499 336.063446 841.950806
-1428.901978 169.845703 278.616455
-954.482117 201.007187 549.196716
-958.159729 178.717484 412.021729
-982.583313 138.297577 390.404541
-1352.470703 40.441483 603.771179
-1451.341553 243.754135 520.296570
-800.997437 443.684875 435.799469
-1411.258179 51.164478 295.640808
-963.804382 156.130051 344.021942
-800.702820 249.463303 803.163208
-971.305969 188.712830 361.754547
-838.541565 182.911118 823.118103
-740.776245 163.286087 874.811218
-1378.048584 358.019684 488.045593
-810.517883 460.446960 483.747070
-954.431519 47.315910 540.873840
-1431.498291 62.509254 498.546265
-967.568298 177.517365 688.121216
-1396.642822 -27.587923 346.609375
-972.918213 309.689301 493.793396
-1457.834961 400.900635 397.247192
-991.802002 184.497284 735.750549
-952.608459 430.209442 556.162415
-1001.441833 296.540283 631.274963
-1454.313354 394.957947 421.707733
-1441.224854 331.969910 331.457031
-960.986755 217.151077 380.627045
-977.217224 48.588181 410.175049
-1397.516235 8.639108 312.587830
-1458.362671 365.625336 432.567871
-1424.135376 28.419718 580.030334
-1408.241577 -7.004902 635.414795
-1439.698975 69.059441 708.859924
-1474.241333 359.718536 649.153259
-975.545715 102.831146 585.578674
-1447.469604 246.666275 383.270966
-1452.679932 441.039398 472.016876
-765.649475 351.811890 785.367065
-818.716309 230.496628 804.319031
-961.610229 43.344971 431.136719
-947.659973 36.273945 503.803741
-895.592163 476.434723 692.040222
-1411.566895 22.321230 309.015350
-754.004333 458.139984 720.380432
-1430.470093 -46.185917 452.027008
-968.293518 58.882198 524.694153
-786.080200 392.180450 745.819946
-1436.127319 371.344574 549.414917
-981.541931 358.237732 512.760986
-1448.462158 373.466125 435.908630
-1454.583740 340.258301 408.483551
-846.365967 156.504868 833.408997
-890.086060 360.130096 744.675598
-895.704895 368.588196 721.754944
-1457.480713 445.284210 407.033478
-829.019714 162.582993 832.917786
-952.751465 104.323006 625.078857
-1433.257202 268.213531 477.345032
-960.428406 102.787865 419.609985
-1417.135498 145.743591 291.897583
-979.097839 200.324188 531.016235
-1407.664429 -50.589539 565.061035
-1394.187622 -63.537796 429.987427
-960.243469 318.095978 452.989868
-981.031494 401.005402 436.120819
-981.931335 329.953979 552.055115
-984.122437 125.177673 598.452515
-623.599426 349.538330 833.117676
-1449.029785 306.294373 406.037537
-634.245178 381.999054 837.393311
-1432.118042 53.308361 523.039612
-659.414429 455.652771 774.292786
-993.237366 388.527435 545.890808
-1439.641846 396.483093 482.022797
-906.335693 461.901703 692.008179
-994.913940 188.054916 757.334229
-1448.401611 232.681534 335.747955
-1446.580811 420.191620 403.415680
-1322.797729 209.624908 524.629333
-943.808777 43.865658 622.989563
-952.819031 109.238670 438.235626
-1425.079712 80.186798 424.660675
-983.941040 261.696228 406.130585
-1432.556152 65.729706 382.671082
-1003.802551 327.867249 371.634369
-700.707397 399.840088 771.007751
-812.471863 468.829773 560.966736
-977.806213 157.168381 399.975403
-967.108337 218.151901 467.152466
-1461.927734 330.526337 412.852905
-772.252808 300.601196 808.078552
-707.436707 333.287048 797.267029
-975.701843 331.096130 471.334167
-1395.532227 -110.363998 522.404785
-696.601196 454.318573 758.653259
-1375.125488 89.831802 349.415802
-1448.614746 193.072617 336.646637
-985.930847 15.071925 436.559204
-981.972717 313.610748 389.828278
-746.238037 249.370956 839.395020
-1453.261108 374.281281 562.855713
-1385.991089 103.451965 458.674530
-1435.331787 49.576523 591.836121
-1451.473389 257.630463 325.300720
-1454.985962 270.019623 441.357605
-1437.164673 386.227356 444.266418
-959.564209 122.994560 590.216003
-1407.653076 -115.624542 633.103577
-963.359680 195.090836 531.185486
-674.455017 245.825256 867.918030
-1440.048096 187.275894 341.715973
-1430.192017 61.431168 456.351898
-1422.130005 318.312988 582.318359
-747.871765 353.684631 800.119507
-1435.225220 109.411705 549.570374
-1428.902710 24.824255 595.002808
-690.263245 264.212585 846.552307
-1408.383179 325.140869 542.172729
-716.442932 314.140228 831.125732
-851.507507 345.039093 752.720032
-978.153931 280.727905 373.454834
-1418.716431 74.897369 406.681274
-1382.315063 167.205948 741.210571
-829.420105 143.486481 834.557922
-743.466431 445.850891 747.998352
-688.267578 346.430054 826.519714
-1392.547729 339.822662 816.156128
-658.290344 396.769073 806.138306
-954.352966 115.521416 416.396545
-994.733887 268.400848 691.262146
-1401.188843 364.530609 500.284180
-1433.850098 41.338734 328.896118
-1427.551758 66.292992 445.291016
-645.954224 276.941803 860.545654
-960.636169 237.389832 405.460724
-968.450439 40.433529 474.227844
-1438.580688 32.253750 436.062042
-981.605835 111.807961 591.568481
-695.053589 235.087311 861.632629
-788.855347 470.814636 733.999634
-1399.271851 59.012424 282.351776
-667.510193 390.036011 800.834961
-1458.078979 405.279022 746.537170
-1421.380371 -8.377558 472.880219
-1507.084595 436.412567 900.099182
-1444.585327 424.139465 443.330688
-1358.154297 133.523361 493.059784
-666.325439 374.366333 796.381165
-793.890686 380.296234 756.288330
-1448.213257 318.076447 393.455566
-809.205872 403.420044 742.075439
-1432.999756 60.941925 544.963013
-1480.219360 410.557617 904.146729
-1464.693726 423.210114 782.186523
-1458.257202 221.859451 467.409027
-656.766724 262.154541 851.053406
-783.477661 233.846802 819.417114
-1414.773560 77.533936 276.552673
-1412.341309 46.780769 557.318176
-899.013184 352.970306 733.897217
-811.450928 148.088501 840.692444
-952.941956 100.273094 545.006531
-854.061523 220.423965 822.930725
-1456.114380 224.754364 501.222076
-957.517761 222.595306 526.687134
-689.521362 441.601685 753.951111
-980.282043 267.612885 433.716278
-974.500061 41.866066 654.884155
-875.226868 245.550674 806.478638
-828.671265 151.316162 842.630249
-633.961853 295.968903 856.794678
-802.845215 146.767258 847.596497
-1410.873169 88.582245 237.471481
-973.244934 99.309517 393.123718
-644.424866 298.769958 848.541809
-1461.712646 242.572754 499.770721
-698.118958 385.414246 788.053406
-969.119934 233.840668 546.831665
-1403.784668 -29.530148 644.245178
-1454.079956 275.069611 494.111755
-777.569763 382.699890 755.744080
-978.198975 353.761475 470.129547
-957.025391 155.580795 587.447327
-1446.334839 323.935547 613.262756
-982.933472 165.544403 720.757568
-855.564453 418.093353 716.058472
-1438.027466 -2.902477 726.939575
-877.786194 303.798950 780.552551
-1425.777588 78.761093 459.708282
-1454.894043 396.354156 565.825806
-1449.081299 324.921661 415.030304
-996.655640 200.354599 353.548767
-981.126282 94.029594 390.104004
-997.106018 168.801025 710.220825
-955.947205 70.278290 543.298645
-908.878540 288.729340 779.960022
-988.011658 195.514359 674.154236
-982.471436 20.215862 446.681793
-1442.807861 49.956181 533.017700
-966.644287 70.855865 673.897949
-1457.727295 267.894226 378.403595
-986.538574 345.482391 604.850769
-1417.567505 -104.682022 528.220825
-1447.980835 296.678528 519.678101
-795.987122 174.116776 843.998230
-642.962341 280.817780 857.951538
-788.554688 378.072601 762.926392
-957.635132 104.603737 467.736389
-674.004211 351.697784 819.268250
-870.680481 209.252594 802.957642
-830.956726 270.998016 805.937988
-660.088318 372.409210 818.062805
-737.621277 329.311401 800.989441
-1440.807739 50.602642 375.735870
-792.607117 430.064575 729.138245
-1419.587646 348.853638 561.167419
-965.191895 -13.342505 458.338074
-1000.303711 187.581863 625.278992
-967.413269 59.429379 686.469666
-1010.855042 309.393311 635.565186
-844.081238 450.196869 712.736877
-1413.531250 254.846588 530.637573
-990.559082 243.340042 706.467590
-971.783936 84.485321 570.414429
-944.128113 47.705978 601.098755
-1394.365967 143.713257 396.321503
-983.738708 372.480499 541.597900
-800.287781 179.053986 832.593262
-876.735352 355.058044 761.837524
-1423.201782 55.527626 432.220032
-1432.024414 213.818222 334.651489
-998.809143 248.692825 343.160339
-1405.126465 0.674597 556.028503
-1458.300171 235.897766 441.795898
-943.983215 149.662216 429.890900
-822.659790 402.480072 736.638855
-1440.336304 375.289856 452.879395
-1002.872498 333.366821 607.576782
-714.931274 241.405319 841.639954
-964.988159 54.280640 514.803284
-710.697754 385.171692 796.533203
-1396.368286 403.112152 454.596161
-1400.364990 118.341606 314.245270
-773.335571 277.295471 800.427002
-1446.204712 213.536987 411.355927
-981.186462 271.251648 445.823975
-987.784729 293.134186 361.111938
-984.657349 328.287933 688.182922
-971.656677 131.423920 377.635071
-745.716125 485.174622 725.893005
-970.559692 227.751511 600.495239
-986.758667 324.367523 637.537781
-1412.678101 -85.942429 525.678833
-630.475464 398.908722 820.116394
-1457.770142 356.932648 649.459106
-960.596924 190.090424 463.728668
-1399.428101 115.569702 626.358215
-969.077576 191.747910 693.864685
-979.709961 137.627563 584.156799
-1454.303467 411.703735 494.630035
-986.143188 125.865105 387.374390
-975.446716 233.798706 471.429108
-1367.666504 269.581390 643.541199
-1423.947754 209.762131 338.055756
-958.881592 100.204460 699.900574
-972.717285 336.212585 397.812317
-974.160767 -16.474974 450.925659
-974.886719 105.452171 522.518555
-1474.593140 112.252625 748.847229
-1407.626831 129.106400 624.827515
-1424.996216 11.453897 360.891663
-654.439087 209.218369 872.546326
-1424.457153 211.281387 521.744141
-979.882446 365.841858 494.301239
-979.122131 161.880890 636.574951
-1434.292725 85.083992 742.308655
-1429.273315 212.333954 492.386871
-982.596313 222.622131 653.300415
-955.524963 53.719677 509.619385
-940.964966 88.314163 460.061951
-690.071960 347.889526 806.411011
-626.767334 292.695984 847.278259
-1392.295776 -61.498009 571.286987
-682.103821 312.413300 830.171204
-974.136169 316.662445 614.095032
-1460.274170 336.511780 384.102783
-1419.328857 312.368439 554.785889
-1422.017700 17.872663 598.747009
-1458.895996 268.343903 427.768433
-970.269470 230.252975 554.931702
-750.333252 459.557312 729.116943
-866.590271 339.994293 766.208679
-685.731384 379.069977 787.113220
-1417.855103 -73.919037 492.491943
-941.710083 37.694843 548.686646
-1475.996460 319.960175 681.668579
-1448.741699 297.630554 406.130676
-715.807495 402.616211 774.348206
-658.889282 273.959198 856.384827
-775.279907 453.968048 725.139221
-731.515137 214.263275 843.493530
-945.700989 117.797485 550.003784
-1338.201294 122.177231 582.112488
-966.168579 68.000664 671.769287
-1420.508789 62.890636 609.835205
-1472.106445 49.316368 764.142090
-1437.930664 207.526291 363.848663
-1418.370850 124.881775 740.955811
-1429.239136 285.616333 358.338928
-827.786926 262.448822 813.036743
-1447.800659 237.717163 440.300629
-980.102051 336.175995 453.733215
-650.552185 427.450287 784.660645
-969.363647 331.025391 417.021088
-705.820557 264.011963 847.160217
-1455.981323 344.834717 632.817322
-970.541138 225.399536 531.101196
-987.185608 129.433517 738.147339
-1430.697876 229.556946 520.110413
-946.951782 69.604408 589.353638
-1381.475708 87.451920 589.704651
-811.195984 245.043396 803.547058
-1405.760010 267.168274 603.972656
-1447.534546 294.897003 304.217743
-714.893738 222.986511 860.467346
-1492.361206 397.961365 898.961731
-749.807739 479.699799 721.843323
-834.305115 368.052155 763.086792
-1429.016113 101.878082 366.505829
-977.877380 -19.395546 469.683014
-899.289612 205.520065 808.994873
-953.969482 74.726608 569.625244
-1448.872192 323.128296 503.202423
-979.524414 35.551651 413.840881
-1426.724609 191.434021 483.135559
-1435.897827 67.784004 391.257904
-982.669250 161.746567 654.993652
-762.711670 400.765991 746.860168
-986.230042 268.743225 346.788452
-1438.208374 262.893433 510.601654
-969.848267 198.873215 696.758484
-737.801147 256.511993 836.009460
-1450.004883 250.326416 344.274902
-647.567627 390.095337 802.887939
-954.614380 104.856987 560.126770
-1433.491821 177.111053 484.383606
-853.527954 243.635101 786.135864
-820.460083 403.997284 732.824158
-1457.881104 354.516907 903.439941
-1302.534790 75.940742 563.322632
-867.212280 376.469604 732.279236
-873.034607 361.007935 751.098999
-991.667297 348.756927 405.621979
-865.408813 156.023560 832.499390
-980.873413 241.024094 625.795898
-1475.686890 323.857635 659.379883
-1419.965088 -49.389946 668.762329
-1298.522827 159.033966 567.313477
-654.719238 304.965179 833.415527
-1443.211670 266.324280 369.850494
-722.184448 240.151474 835.517578
-674.432373 400.415100 779.313416
-878.808411 209.044815 799.416077
-948.581726 114.198647 425.721619
-990.011780 312.756348 544.998474
-964.904114 208.524536 375.691620
-1010.425964 248.560303 671.145691
-964.729309 228.698334 378.736603
-850.053162 433.917297 716.437073
-883.768616 297.918640 766.840149
-1003.006287 181.473114 333.465790
-952.971802 117.805183 469.813629
-1419.427368 48.686291 420.652374
-1402.925415 -12.166649 434.514038
-902.861511 374.326904 712.357422
-774.828247 303.838318 804.640076
-975.889648 173.217468 352.930237
-1426.530151 27.134989 492.176910
-965.679810 79.106476 456.699127
-1448.383545 259.564911 360.379517
-773.726257 311.939270 801.031616
-1375.984131 123.586517 320.258453
-956.631042 34.033859 550.404663
-963.578857 133.441345 534.358765
-760.812683 286.323395 801.873962
-714.116699 453.825897 750.592224
-1404.351685 104.023567 373.291870
-1413.304077 17.815516 316.225800
-954.840515 82.687065 413.259125
-1420.851196 -6.581652 458.243500
-976.230164 74.323151 700.736877
-1454.852295 321.793030 506.703522
-960.222046 19.479322 422.489716
-1471.097046 462.515137 777.678772
-1438.275879 51.648556 447.472412
-992.416016 191.386505 349.208801
-1442.312134 75.597755 601.144409
-1406.048584 4.104951 452.877899
-1403.850952 128.244873 263.382233
-1441.287109 221.520874 290.139404
-665.055847 249.862030 862.374268
-1417.771362 258.165649 729.046448
-635.727417 272.696167 864.874268
-1420.405273 145.571594 268.305054
-982.637878 186.741455 613.566895
-669.762390 286.951141 830.137024
-1378.221558 311.172302 492.565308
-721.337463 231.427460 833.687683
-965.717224 280.493530 397.799561
-884.423523 397.169556 734.633972
-1411.026245 78.895401 278.525452
-1444.944214 190.201324 505.751068
-755.249634 289.508728 810.190308
-1418.631470 126.845894 258.642761
-981.421692 280.513672 438.467834
-940.171082 28.758022 510.618347
-866.162720 307.306061 770.218933
-901.324707 287.878662 782.152527
-975.736328 44.214378 544.435364
-651.491821 411.970795 796.000366
-757.880066 395.503326 766.185791
-1347.099121 224.993881 536.208984
-886.925781 217.624268 795.240234
-1448.578979 341.739410 368.857483
-993.590088 328.160553 578.334229
-1453.589844 251.138931 490.534576
-815.600342 424.263611 737.469421
-992.322327 335.310425 616.964661
-994.316040 211.764313 698.071899
-921.898743 425.540771 437.211853
-764.445007 154.565598 866.759277
-1399.336182 100.810959 417.493958
-989.844727 259.273743 347.811890
-994.532288 253.641556 587.201355
-965.543457 324.242310 492.426971
-986.353699 368.013733 508.058411
-1449.440918 41.767780 514.989136
-984.804688 209.419586 574.238342
-990.792542 318.962311 511.278320
-1452.769409 500.449890 412.737244
-1320.491333 151.512726 614.703857
-1000.950439 235.927322 749.935730
-784.494812 232.257339 824.425354
-1442.556152 89.478821 515.748108
-1412.343018 32.199810 324.120239
-948.795288 83.403244 410.136810
-971.451965 154.702271 364.084656
-745.664978 281.089874 836.521484
-1426.824219 210.844376 379.062866
-789.378235 373.343323 752.389832
-1435.244507 -18.673191 699.682861
-778.388367 211.612015 840.178894
-737.504761 438.129425 745.741577
-1398.926270 20.406481 609.149658
-1428.339966 200.976700 448.326691
-1409.078247 45.581261 289.868042
-1405.226440 -85.690392 559.412292
-1442.727051 78.005936 427.127197
-978.835388 252.231705 365.238525
-1008.417297 115.267311 732.823730
-1438.458862 274.063751 495.656067
-1397.799805 -82.868446 447.979065
-1457.981201 270.398315 520.845886
-1013.446899 197.328461 717.565369
-678.787659 175.656189 877.864807
-1438.159546 -7.766526 490.835480
-978.368347 262.128876 459.286804
-974.574707 49.852722 651.183777
-1452.624756 324.285034 313.423492
-989.892761 91.601067 672.467163
-1406.188599 -67.035889 604.249695
-1443.556030 402.555328 426.030945
-1431.584961 173.126877 275.133484
-820.471130 289.341461 802.966125
-992.498840 251.306854 721.578979
-958.639404 39.404408 596.114197
-947.174500 128.283691 522.728149
-1406.544922 135.143387 238.915543
-1456.802734 91.436172 807.906982
-728.250000 242.940811 837.458374
-1455.122803 409.125519 428.871857
-990.719910 113.720825 671.884888
-969.067871 73.970665 690.660095
-978.541870 174.479065 335.932953
-1342.022949 139.559921 352.453369
-1389.808838 -66.095436 514.280029
-666.182983 245.875610 852.450256
-683.498962 347.559082 809.438232
-879.423523 404.414398 728.828613
-975.032349 149.990646 373.640839
-921.473511 349.543091 759.363831
-1453.475830 266.761169 414.303558
-1405.550171 -8.389813 485.469299
-1448.594116 274.049469 309.650452
-1453.976685 73.248283 779.341858
-953.730530 225.584869 447.981506
-1468.416992 361.204742 570.226318
-957.253906 87.135223 447.833069
-948.332031 106.510406 427.989838
-1427.910645 266.756134 634.752563
-1398.432861 -50.277420 438.176636
-1437.436523 324.614044 440.711029
-1446.878052 277.975800 473.023712
-1469.916870 99.865059 820.405884
-1418.723999 -54.591675 500.729126
-794.291504 471.889282 720.605042
-989.703552 228.238068 657.158203
-1432.970703 288.711548 406.668884
-1476.296387 479.713013 857.874939
-1223.166870 138.059784 451.757477
-946.812500 324.857178 796.272949
-1420.709106 175.943726 377.487427
-1383.988281 116.177956 395.574432
-1449.084351 469.949982 409.375183
-808.861267 152.983459 842.311646
-1456.329712 320.305084 392.176300
-864.346680 287.646423 794.095825
-1426.032104 271.661316 524.141785
-1313.845825 203.795624 555.176819
-1419.985107 151.217789 240.205078
-675.324402 317.004608 838.326172
-1425.663330 -68.568253 686.947083
-1456.897095 383.250854 438.762909
-1407.111816 366.384521 497.340271
-1470.962402 276.799988 637.420959
-970.759338 262.098389 537.353333
-869.419678 331.838043 770.513489
-1423.835693 305.387543 305.264862
-860.869690 426.940887 717.906921
-1398.518066 182.170868 462.895966
-883.180908 168.125168 821.502197
-1393.816040 308.983612 689.402954
-961.453308 190.840668 491.838379
-986.081726 302.063660 547.504333
-1430.164063 154.928421 267.576141
-977.757568 14.633857 438.653137
-1434.668457 13.143412 417.309448
-1002.259155 279.019226 730.119751
-972.784119 287.535217 415.481079
-974.597839 242.237381 432.160919
-1416.769165 -119.310623 576.066223
-973.013367 139.902313 613.030701
-1445.741455 239.145447 466.450043
-984.900330 82.359367 730.305115
-983.464050 243.837280 446.501984
-1458.989014 430.416779 709.185608
-960.281372 139.285309 498.750732
-1418.184570 149.782059 482.734222
-1430.693726 79.205521 340.563599
-1440.750610 267.006256 348.416626
-978.100464 166.846603 498.393921
-970.856384 150.238800 505.479553
-661.088745 399.604950 786.686340
-668.703064 353.167267 804.553833
-664.265259 466.715485 777.798035
-1404.712402 72.770279 351.738129
-1423.604492 69.550156 289.891052
-983.908325 256.593201 632.936646
-955.453857 246.978470 444.996857
-979.812683 295.790558 479.603699
-777.185791 404.755493 755.250549
-895.077637 440.083069 695.992493
-888.724609 445.677216 727.308594
-611.824097 319.758759 866.040710
-859.392029 249.340149 805.878052
-1450.246948 237.071274 368.155060
-961.526123 93.269127 413.886658
-770.601929 184.115692 844.550171
-737.688599 250.139908 841.291138
-1003.207520 257.706543 608.196472
-961.035217 90.497719 564.428345
-1438.631958 199.599152 563.483459
-1439.320923 171.469711 278.361023
-871.925659 398.161469 430.497742
-1387.617676 115.296310 383.648956
-1397.543945 -51.222111 609.670471
-998.431641 98.643845 367.397095
-1423.368896 8.461597 474.446960
-801.211914 245.301651 811.685181
-1383.026001 -5.594362 661.989014
-963.048889 177.036011 385.982086
-755.501831 311.803345 796.714966
-1419.017212 154.976089 272.736023
-973.726990 101.867844 366.367371
-1436.455444 293.060272 298.767670
-1454.332886 438.389740 472.954498
-977.905396 374.845367 448.419220
-1426.482910 387.544617 516.691772
-729.499817 354.171600 792.128662
-941.018372 53.694283 467.927429
-889.927612 269.627014 790.070923
-1362.598022 135.995667 487.133545
-1418.866577 110.592598 475.328339
-1401.119751 248.687988 573.239868
-1427.823608 226.351151 276.686340
-955.245117 246.465317 416.893555
-1401.419434 66.891762 502.609558
-980.723083 257.854523 355.116943
-989.721741 420.477844 569.635376
-736.801147 180.619171 867.201416
-971.752930 303.655792 411.204590
-1428.758057 18.042761 342.571320
-782.845276 421.793640 739.911926
-1400.179199 9.462763 343.023865
-1442.142212 28.986599 561.045532
-636.025696 336.677032 823.304871
-830.458923 286.436340 800.186401
-861.153625 282.894958 783.563477
-816.183228 362.992767 762.338989
-971.745850 70.732605 566.764160
-946.052368 51.805435 435.915955
-1446.071411 59.590347 736.226807
-975.034912 178.006210 585.292786
-745.347900 459.207581 722.944763
-1000.003357 226.925064 753.015259
-675.753296 377.693085 803.595154
-978.092041 281.522736 382.801147
-1430.851074 170.774399 407.947662
-1436.656006 171.684143 352.630615
-1419.161621 134.709183 461.273102
-978.122559 263.363586 457.132019
-1429.007568 58.465885 488.120819
-1412.022949 12.679010 363.644714
-653.373169 362.425720 827.182922
-1467.164917 371.528809 711.257874
-1436.687134 88.056114 490.071289
-1365.484009 149.070740 666.283997
-661.896667 271.381866 839.630371
-1431.167236 75.582802 349.751801
-691.653381 315.771667 826.965210
-1451.883057 232.580383 497.496857
-986.136108 296.735260 708.130005
-793.144653 239.252838 811.786743
-1002.886841 262.804810 336.959076
-976.103943 249.402283 444.711945
-1458.882324 287.865601 466.985352
-759.622131 247.640518 847.659973
-713.368408 261.043610 838.433838
-1438.119751 432.531647 702.809753
-966.962036 180.378159 666.047546
-1397.816772 73.142960 379.593170
-1400.503174 -78.409103 515.536682
-1416.466431 76.544876 306.570435
-1412.619751 135.848343 358.820251
-1451.743286 109.843643 565.691956
-1410.577637 34.564171 562.413818
-828.581787 196.998779 828.874939
-1445.461670 58.672131 542.657410
-993.186646 191.379318 644.689270
-767.740967 400.838409 758.753906
-876.592712 276.870056 788.521790
-750.289612 179.126724 843.229187
-1436.559448 366.862488 653.198975
-1435.480103 363.375214 380.886871
-1396.604370 94.222389 274.282074
-1419.658081 168.572403 376.831482
-750.493042 450.513672 737.723145
-1429.493164 271.355682 371.218201
-989.596008 101.140625 762.903442
-728.867920 248.585953 860.748352
-956.019409 49.145393 500.452667
-973.033142 326.681946 391.982635
-1445.494995 387.300934 401.809937
-1404.984009 10.394398 655.138062
-976.620300 271.959229 348.617432
-1343.148438 -70.577888 562.624512
-1407.741455 87.459778 606.455688
-844.483582 351.093109 748.143250
-1443.083862 203.961380 373.723358
-1456.705811 217.409470 454.739105
-1472.838745 478.385834 419.285919
-973.484924 334.815369 573.906128
-1430.805908 44.428047 341.177094
-980.203247 214.094299 432.502686
-1439.128174 329.004395 603.532593
-1391.470459 62.988377 610.588379
-1427.765503 253.900940 372.973297
-1432.620850 -30.581434 457.942047
-955.733887 93.186111 516.657593
-985.776917 216.907455 576.261169
-785.112061 164.450180 844.485352
-1380.586304 14.833458 587.222900
-830.982117 410.325348 739.922058
-734.970520 305.211334 812.601624
-970.080566 256.832367 368.337067
-831.167236 392.849640 746.305115
-1457.317505 320.030029 423.477264
-700.530579 467.366455 759.064941
-985.870728 311.777954 722.139221
-1390.848633 127.213478 308.034912
-1413.254761 28.893259 320.026337
-1453.952393 328.957855 318.440216
-1426.149048 127.941116 420.784088
-989.179199 306.445557 639.525940
-1462.201294 355.682404 406.550507
-1445.664185 22.535463 461.655731
-995.772461 156.735977 673.764954
-1424.635864 162.657639 462.220184
-1003.673279 316.285156 336.671875
-999.060181 287.807037 684.482666
-1400.535645 -21.060278 419.440430
-940.141296 46.296024 593.762268
-1433.697754 260.543152 295.651398
-990.420898 299.997437 710.903015
-998.203857 182.651352 695.959534
-772.447632 396.590881 761.218384
-1422.880005 -26.729992 542.057312
-798.261536 456.229095 436.912567
-1411.301514 316.232452 504.983612
-829.699646 192.951767 835.400513
-980.221130 118.946472 521.015320
-1358.486328 174.881577 680.302307
-1432.748535 84.045998 583.451355
-1422.274048 114.322678 231.204086
-733.187683 140.195602 885.214233
-985.404846 366.515747 584.661987
-973.557739 96.698013 700.602661
-1457.822632 386.987091 702.289185
-1363.650635 -82.324982 552.830200
-970.183960 265.323425 431.711639
-1453.346802 316.160736 472.781860
-989.040710 293.938354 686.009277
-746.330200 309.010529 802.918457
-968.692810 268.579865 478.621216
-974.231262 49.551483 391.446564
-1422.676758 243.899368 518.401428
-1003.131226 310.755127 637.295044
-845.659546 343.348602 773.325623
-762.513977 461.392822 735.170898
-1447.464355 387.319366 359.687469
-1402.711792 -56.659500 612.231812
-1429.930664 6.273808 370.427094
-1435.973633 350.408752 678.675476
-1407.713013 127.575684 281.164490
-1436.674927 110.830345 589.125122
-792.724609 224.565033 820.729187
-1409.348511 127.754997 326.006317
-1436.800537 -1.297335 545.777222
-663.976868 323.362030 852.149170
-1444.667969 314.378571 664.848999
-1459.894775 456.696594 461.418091
-854.095459 193.848343 830.438538
-962.036194 108.512863 416.758026
-978.422241 353.424408 437.738831
-995.755188 264.323975 694.835693
-830.140930 342.107758 776.712036
-975.210876 293.353668 643.645813
-1455.490723 303.370514 335.165924
-674.902893 459.068817 759.785767
-1425.961670 328.702667 584.195374
-974.686157 243.526703 381.036896
-1406.984741 -96.514252 489.757324
-842.080444 427.073090 729.184875
-1400.490479 -1.457815 386.611359
-983.864990 106.387177 708.485229
-1000.315796 328.017548 544.215515
-729.682861 457.848297 745.664246
-1418.072021 130.512375 449.175598
-863.984375 219.618668 816.342712
-970.855347 114.021088 392.319794
-1340.440186 152.817154 508.674408
-862.289429 290.428467 790.752991
-1444.304077 20.913731 721.145752
-971.267090 197.162125 534.440369
-971.072876 159.359024 605.800781
-1407.301636 8.200698 338.321869
-1445.581787 248.172333 401.168976
-671.677612 350.061523 822.355042
-940.436584 341.194122 769.859192
-981.553528 322.504791 366.793274
-885.594971 420.421448 714.019470
-1019.614075 330.627930 726.008850
-981.570496 152.610977 588.145447
-1418.971802 359.563538 533.491821
-1447.248047 445.346466 410.603241
-1422.317383 -27.322012 399.122864
-1441.860840 216.325592 524.040466
-959.495850 151.055984 397.340271
-954.593933 141.445404 424.393585
-1412.341187 105.982498 599.675476
-955.951416 165.381454 567.703613
-963.773254 329.198669 464.149872
-1439.693237 105.585625 590.132629
-991.589172 367.010040 462.790802
-1480.016846 399.747162 682.281433
-959.678650 65.556488 609.749023
-1457.784668 347.446289 354.608215
-991.963745 294.887909 356.955933
-968.765503 304.176758 428.044464
-1446.127075 175.436035 337.976166
-850.260864 151.063766 837.830139
-1441.664429 226.990967 318.953247
-987.467896 221.100174 690.840210
-1388.428589 114.954079 473.942932
-1438.170166 -9.518240 762.295593
-791.402954 217.575943 836.103516
-975.686462 25.605165 549.081299
-1466.605957 469.440247 453.340271
-1418.138794 108.844643 376.905426
-783.238403 167.421143 844.942261
-978.758850 48.561802 673.842957
-951.622559 -4.621515 472.644897
-720.479492 346.242706 803.037903
-1415.010376 160.714661 538.721069
-963.128418 225.278473 474.353882
-1448.928223 298.747406 532.802673
-639.661072 374.687012 821.961853
-679.670166 245.694733 850.709167
-1422.599121 114.296776 595.360474
-750.404602 367.805573 765.361389
-958.433655 272.474670 420.244354
-791.311096 262.675018 808.478149
-976.772766 385.242340 470.738312
-1285.591064 156.369003 457.147247
-971.862122 36.922001 471.230560
-1005.003235 102.480240 723.760803
-952.592102 26.984610 448.233734
-948.186768 190.324249 415.894897
-963.243896 168.602966 362.587524
-748.011230 413.608337 755.530212
-1402.670044 96.423409 293.133148
-872.424194 417.392487 730.669189
-1420.443970 5.282417 449.844147
-998.202820 371.967682 572.968262
-657.550842 355.639557 811.066223
-1264.357300 198.690109 453.638031
-976.693176 408.503296 468.639282
-1380.527588 144.960022 383.893677
-1407.871704 78.902603 371.362488
-986.114014 326.070099 382.885345
-968.561584 273.885010 370.787933
-829.585632 325.234833 773.987549
-973.958984 310.086884 558.992310
-1420.567261 -0.458636 457.635406
-674.649780 399.742310 784.089844
-960.728943 168.674210 607.821838
-962.801147 213.539429 432.110565
-974.812073 252.406631 359.957520
-661.216064 388.189758 806.587402
-963.139038 40.415272 459.871674
-1412.891479 -52.176983 490.564697
-690.625061 272.918365 838.792419
-1423.769409 138.495178 260.586670
-1445.097168 455.834991 568.016174
-952.034363 92.721756 411.466736
-994.568481 218.841949 333.192627
-881.026428 323.010529 757.773926
-961.646362 245.112610 438.215698
-1443.689575 264.228485 388.704071
-1422.211914 169.560226 413.145752
-957.674622 143.071030 416.642456
-644.968933 359.826141 813.832581
-1425.854614 181.983109 314.324615
-1379.816284 138.617538 450.412109
-1309.811157 158.955582 507.090607
-959.435059 122.022812 662.870117
-642.473755 405.025146 819.025024
-1435.898682 103.777817 525.869568
-1404.508057 103.431259 326.336517
-766.800781 284.821289 808.849670
-1404.418213 14.093481 278.149475
-1413.532471 76.971840 348.152466
-967.642029 185.024506 515.101624
-1429.340820 354.559418 763.503113
-1489.757690 393.857269 881.766235
-1409.821533 128.036804 346.036774
-968.978699 130.930862 602.633057
-913.601685 286.284851 780.222961
-1424.721680 21.442343 563.816284
-951.460876 184.672775 431.916748
-1428.151733 87.172920 472.578796
-658.703308 405.067352 800.199341
-1397.777832 -8.351334 386.770721
-662.706543 365.843506 817.418579
-1399.708374 66.998337 278.741882
-953.089966 163.173752 570.913818
-1423.438110 403.815887 431.964874
-985.473328 275.299622 646.892700
-919.340698 292.388824 755.668030
-1391.206177 7.496122 607.472473
-975.977356 146.332199 371.116394
-1436.935425 267.007813 566.843201
-758.905396 197.292435 846.407349
-748.320923 195.078323 839.869446
-731.245789 281.674805 831.372925
-1427.959961 419.950867 458.616638
-1006.677856 255.338013 722.300720
-1415.581665 45.112782 365.179688
-1475.723389 86.412178 798.378906
-917.882141 322.163361 749.793518
-959.269714 99.807304 523.999634
-1430.757446 88.141479 261.033905
-958.933533 13.437515 462.192505
-827.779053 229.640305 801.923035
-988.381165 112.101807 745.215271
-792.845154 334.056091 788.745117
-950.978088 44.285946 486.582733
-1440.028564 189.776245 416.701202
-961.512451 72.391609 606.707947
-735.871643 363.386414 773.698425
-946.798218 133.155151 513.552002
-994.206726 374.204407 533.919922
-803.020264 453.771027 722.992493
-1408.842773 86.059792 347.993073
-996.310059 153.139633 770.589966
-1368.442993 332.325531 510.944366
-743.115845 407.677856 762.824707
-1428.901978 225.347336 284.172394
-1450.313354 278.789337 321.199188
-1456.705811 238.744965 386.082214
-971.955261 301.779694 383.411285
-1373.908691 129.032913 312.366852
-970.038574 91.342247 673.810120
-982.221619 170.684082 338.210876
-1432.942871 211.018585 307.663177
-997.603821 321.261688 604.117249
-1437.842773 183.778793 335.672150
-1390.897217 -50.146935 585.725342
-966.586914 121.536980 575.040710
-1449.588013 203.416672 432.994873
-947.073486 181.060577 421.941589
-1415.738037 -17.910870 465.369537
-976.398682 300.381256 538.943542
-954.192505 200.641708 386.773132
-1006.672913 352.182983 641.669312
-960.482361 167.050339 526.436768
-1456.764648 465.818756 422.809631
-1418.845337 355.037872 538.903931
-1434.378418 -24.410547 689.947754
-859.001648 335.085999 777.367126
-1415.187988 121.468666 672.073608
-976.583191 91.511162 388.796722
-1383.671997 98.049911 419.528473
-1431.342407 393.526093 414.507202
-978.945984 295.038849 368.373962
-1416.556396 124.349678 289.530334
-773.531738 432.361847 727.515747
-1403.451172 256.995209 603.624573
-996.562866 307.911682 599.620483
-967.089905 126.535362 396.126648
-955.877075 222.066315 384.926117
-962.832031 385.368347 462.165070
-1376.287964 294.371368 543.778687
-716.996094 175.140366 865.033325
-969.003296 262.602264 585.371155
-991.808533 136.179123 661.516663
-1442.023315 271.302307 681.288391
-995.265991 153.522034 683.895752
-1389.201050 317.479706 494.470856
-1200.380859 156.270340 499.119232
-1455.122437 309.335358 727.382507
-979.324768 280.012970 593.470581
-1407.196167 28.004448 286.105530
-741.047485 480.653198 724.277649
-1412.494263 156.060318 537.989197
-753.654358 142.466446 875.522278
-692.395203 397.851746 785.782410
-1456.593384 380.338318 713.183289
-1402.485718 295.331451 534.957947
-968.980835 159.794525 458.767853
-964.178284 229.710648 513.000244
-1424.119629 291.759583 553.287598
-1427.689819 23.879059 503.677185
-866.354736 409.815002 730.115417
-617.499451 284.436157 879.121216
-1476.310547 435.820068 761.493042
-784.990417 411.141205 746.915100
-955.579163 79.607605 530.924622
-958.670227 189.721786 462.947296
-975.496033 250.315201 561.079224
-982.991333 310.664734 507.563477
-1378.451416 115.841743 324.825867
-989.641968 389.797516 519.307190
-1399.627686 61.670071 369.855225
-1384.510986 -89.074585 554.758484
-1408.429077 -1.482309 511.351685
-1423.990601 7.932212 482.913910
-976.869812 117.333328 408.930908
-767.671997 248.348511 823.052368
-968.321960 51.556877 512.913879
-1439.614014 379.737427 460.630341
-956.640503 123.710434 415.519196
-1405.322754 420.659058 473.740906
-1458.674561 322.533936 385.452515
-779.519531 251.647751 827.088379
-911.576538 394.311493 731.076355
-1405.180420 -93.565971 536.518311
-726.156921 400.872559 763.867554
-909.059265 375.827240 735.051575
-974.503357 53.845695 697.006653
-982.932983 320.458710 618.116699
-1432.802490 257.209076 515.098022
-1417.002563 80.034660 635.812683
-968.718933 244.640533 403.744934
-998.607605 328.395569 661.838074
-651.978882 448.526337 793.726746
-952.555420 113.390099 466.871124
-967.099060 111.487396 398.675110
-1378.848511 116.191368 366.195251
-805.248596 443.060333 728.161682
-1407.981567 -100.752106 516.377136
-1415.730835 60.936111 552.782471
-975.824890 212.746475 737.925659
-821.966187 251.677536 809.777588
-912.424927 447.414307 733.208130
