ply
format ascii 1.0
element vertex 1365
property float x
property float y
property float z
end_header
995.355042 -426.899750 -991.871216
975.497070 29.094564 -653.652527
852.150269 -676.324158 -988.227661
881.364014 -196.100174 -771.685242
1287.898438 -219.665787 -1196.360962
658.330078 -254.725998 -773.057434
894.516663 -265.339752 -647.487793
967.128967 27.172049 -689.996033
973.358276 22.248184 -636.082947
916.953613 -247.778152 -664.230591
961.462341 -168.518845 -716.350708
874.617371 -703.375732 -954.592285
879.394775 -442.540344 -1179.083984
684.352356 -287.217896 -751.625916
878.246216 -664.653320 -986.920898
1009.513245 -22.131002 -621.642578
923.295776 26.798018 -740.021179
904.687195 -520.766724 -1136.696655
764.903320 -203.225327 -820.557251
776.487366 -455.945557 -1209.520874
746.380798 -422.789246 -1217.537598
748.700867 -308.377014 -709.231567
751.612061 -273.868896 -728.411072
788.463806 -246.128616 -761.636719
939.090637 -170.611572 -750.192383
783.391785 -339.959442 -651.787170
798.941467 -623.538940 -1056.935425
1049.312134 -493.445770 -997.908997
858.539551 -253.245987 -677.198975
715.430664 -233.638351 -766.232422
937.980225 -474.463837 -1122.049316
593.587708 -299.141510 -844.129517
950.252136 -601.227417 -994.206726
758.953064 -485.956970 -1211.085327
961.756958 -384.915192 -1155.688599
882.368164 89.434761 -793.366028
1173.113770 -593.723999 -894.934631
745.756226 -669.284790 -1038.941650
910.580383 -600.853271 -1027.696899
829.697021 -563.947327 -1135.705078
985.130005 44.023243 -614.867004
861.540344 -601.497986 -1020.715149
928.284790 10.380669 -821.241699
881.041809 -444.235229 -1169.603882
1178.299561 -605.923157 -898.896790
870.465027 -50.887421 -908.728088
877.032410 -455.984985 -1182.791260
703.343323 -341.125183 -707.294739
875.020325 -487.810486 -1184.029907
810.932983 -590.091064 -1045.950439
929.463196 133.601822 -619.714417
935.883728 109.006348 -605.740601
690.483521 -315.995026 -748.394348
753.402283 -439.624512 -1225.797974
609.912231 -266.634583 -810.112976
790.220520 -661.786072 -988.039185
816.653870 188.340652 -761.013245
835.888000 -393.224243 -1227.778809
822.825684 182.247208 -772.787170
861.808289 -640.600708 -996.120483
622.553772 -202.344986 -867.244080
1136.993896 -607.409729 -869.616272
938.082642 30.457792 -748.666199
1009.644104 -618.995667 -967.842651
824.165649 156.767319 -776.296082
964.834290 -115.041260 -799.719788
1006.612427 -679.882446 -925.404297
920.075012 75.216736 -693.225952
880.981567 -133.979523 -839.617371
854.036499 244.615051 -692.468323
701.690918 -354.162567 -726.587402
927.907532 -709.369751 -923.040283
1032.673218 -466.540894 -978.541809
829.856140 -518.272156 -1183.373047
1135.594360 -555.075134 -924.110229
877.507446 110.584099 -771.742310
928.665283 190.967743 -561.019348
863.495850 -443.424652 -1187.995605
744.436462 -454.366486 -1245.706543
895.608032 -528.573181 -1121.741821
843.379517 222.952560 -709.495667
796.785217 164.683243 -827.426636
1083.162720 -542.263000 -960.586487
910.918823 -516.507568 -1119.538696
780.229187 218.351379 -776.998718
802.986206 264.349670 -709.762817
675.221497 -188.335403 -873.809509
626.373291 -209.800125 -861.120605
868.058533 147.788254 -720.817017
919.753540 62.612411 -703.572815
876.986755 243.948471 -640.936584
958.541321 57.704014 -667.969788
683.092285 -211.595612 -815.679932
987.386108 -91.994133 -818.993164
913.525452 -689.985474 -957.962708
956.954529 106.572273 -580.679382
1164.389648 -386.402802 -1064.116943
1024.718384 -663.351990 -929.662048
683.470764 -258.861664 -803.025940
794.468018 210.291611 -754.997559
723.105652 -420.918152 -1238.445923
642.519287 -178.557312 -868.620789
866.274597 -88.572952 -878.527954
747.503723 -655.690186 -1048.707031
883.610352 -329.182953 -629.368652
1201.326050 -422.181641 -1054.282349
864.183655 182.320007 -694.525269
944.061157 -450.385376 -1148.168823
763.568787 -107.252159 -904.438782
1184.912720 -383.283386 -1094.609375
591.188599 -288.688049 -847.865906
802.060059 -366.444550 -658.013367
739.973755 -444.068542 -1277.534424
866.645081 -561.923279 -1070.525513
864.040588 163.257523 -716.127747
1085.453979 -594.722351 -932.692383
901.532104 -211.812943 -719.092896
786.748047 -319.864197 -691.207275
780.855469 -134.325745 -905.608032
888.310791 -255.694290 -684.939575
790.041931 -260.289978 -751.480530
1137.691040 -608.676392 -899.886536
953.992065 -543.846375 -1071.145142
854.128784 -159.575027 -805.585144
637.525635 -206.900482 -882.200806
1003.733032 -666.476807 -918.007751
613.673767 -209.797073 -848.003357
782.626038 -716.851563 -953.597961
1160.342651 -647.612732 -880.089539
930.630371 13.967513 -748.520813
1218.754272 -605.696655 -857.280029
708.752869 -327.218048 -695.804810
927.974792 126.579918 -641.519409
792.395569 -324.926575 -659.336121
973.725891 -685.740540 -914.955139
644.893188 -275.701660 -785.415649
730.349609 -596.072388 -1104.591309
842.789246 -515.469727 -1150.861572
855.691711 -665.629578 -973.139465
981.006714 15.176945 -657.919312
822.343689 195.862244 -745.828735
973.521851 68.266953 -603.990601
657.535034 -307.307159 -748.502258
1008.356812 -11.227382 -635.907654
1151.702881 -490.400238 -994.697815
935.322754 89.178207 -666.745178
841.679321 -99.937538 -850.565979
774.517578 -274.938019 -729.897156
840.875427 211.142807 -681.925415
883.983643 108.874603 -747.088928
737.271912 -560.954895 -1149.411743
896.424377 45.892738 -819.995117
986.586365 -324.067810 -1312.472778
924.013794 129.994781 -616.345703
712.873657 -323.970825 -705.199524
808.272644 -605.968201 -1080.401123
911.478210 -498.297302 -983.833740
1007.201965 -20.640863 -588.974121
703.034912 -349.692383 -708.030334
873.288818 -577.289063 -1079.280151
995.310425 -593.856384 -988.214294
944.313110 -324.134399 -1301.511719
805.294128 -230.777481 -751.827637
617.998657 -318.783661 -787.606201
868.601990 -533.191345 -1095.261108
814.836182 -371.673279 -636.326904
1020.250122 -404.562286 -1034.713379
1000.648071 32.564129 -605.420654
887.530701 -171.861160 -764.247742
828.945190 -185.268661 -762.073486
955.484497 -602.367126 -1014.794128
804.877930 -691.285828 -992.417419
631.204468 -202.507248 -857.618774
670.014282 -233.339371 -799.767883
971.398926 -126.988861 -801.409668
801.440063 -583.269836 -1135.201782
793.829590 -173.815826 -829.693970
695.111877 -162.688583 -863.519348
962.683105 45.834869 -683.257629
842.194214 -691.983826 -946.914795
971.264709 -6.689669 -699.024231
878.016785 -693.029114 -963.698120
816.055908 102.640053 -864.839233
997.721619 -29.282829 -690.204285
921.261108 108.213539 -662.452576
843.878235 -594.756470 -1061.543701
829.780579 -558.723694 -1061.058594
968.133545 -490.761322 -1057.658691
935.576477 123.617996 -626.178589
777.208801 -173.933426 -822.937683
816.587646 -518.852051 -963.992065
784.666992 -262.044830 -745.715942
922.682861 -697.637817 -943.455994
816.791870 -208.675369 -746.725098
792.460266 -460.537506 -1215.685547
1097.104980 -667.561707 -888.461914
654.949158 -219.212540 -827.408386
1213.173950 -436.130493 -1034.013916
1010.300293 -25.200388 -881.190125
874.909790 154.444092 -716.933594
869.069580 -491.012695 -1132.752075
593.801819 -258.744934 -823.340820
649.492249 -256.670380 -780.076172
812.734436 -109.052422 -872.843994
820.478699 -302.723663 -651.513794
869.112366 61.148838 -839.695129
723.672180 -685.975342 -1013.973694
910.558899 155.218353 -627.996155
811.960205 -164.561249 -822.401794
959.264709 -569.179565 -1048.722778
883.702454 -267.678070 -658.703613
804.924255 -150.726532 -836.152954
971.739197 87.723953 -600.739441
963.486877 -6.454303 -740.092957
925.434265 -668.975586 -975.867798
629.230652 -243.432892 -852.377808
1007.989502 -487.300903 -1034.141113
797.141357 -663.389160 -1030.248169
858.941345 -635.897766 -1024.395752
720.501770 -310.079285 -697.982910
747.670959 -673.381470 -1035.485474
1031.683716 -479.086700 -982.249695
1002.505005 -511.075134 -1064.324951
663.377136 -327.914124 -768.901978
723.789612 -327.385071 -692.973328
831.134644 -318.882935 -652.503784
944.590637 -586.957886 -1048.712402
841.432068 228.557220 -681.337830
941.706970 41.813469 -736.603516
1014.935852 -497.901428 -1044.464478
725.129761 -144.339645 -899.725281
1010.574524 -42.192150 -697.273132
894.773804 -387.996826 -1221.486328
983.440247 -349.004578 -1217.255371
933.397339 23.214134 -782.707458
842.548279 -55.047031 -893.870789
698.070068 -240.639359 -783.852417
1328.670166 -333.717743 -1080.036621
998.211548 -625.180603 -946.939453
836.906311 -110.637123 -891.845764
843.527710 -581.171753 -1046.359619
809.620728 -596.623596 -1109.003174
895.565735 190.666641 -622.309082
777.094116 -276.727081 -720.004944
1002.846558 -450.994843 -1015.176575
843.079834 173.589600 -754.346558
939.012085 106.913963 -633.370667
862.614502 -709.324402 -965.031982
765.141174 -336.388580 -666.291382
1067.425903 -646.721802 -890.945007
1059.610962 -644.028503 -917.178162
756.978577 -526.214966 -1183.613281
732.275024 -616.051941 -1104.790649
756.047852 -487.314514 -1207.079712
828.116577 -696.432617 -968.115112
1066.435181 -496.204346 -1019.123291
710.834839 -138.932602 -887.217896
943.495300 -358.410706 -1002.195251
998.395386 -330.995789 -1142.345581
706.019348 -385.343658 -676.995544
915.108093 81.892715 -735.011047
998.162231 -520.298035 -1056.820068
760.578186 -616.870605 -1088.633179
970.772217 -573.053711 -1046.260986
1092.109253 -616.138367 -925.942505
632.264771 -324.590210 -765.919250
1075.454834 -535.995056 -1002.988403
872.098145 132.407089 -716.313232
770.896484 -329.910767 -664.632935
693.785583 -189.458481 -876.280273
865.759155 139.283844 -750.177551
910.933594 97.341461 -702.260803
824.909973 -708.960022 -973.360291
710.452454 -290.906372 -755.872314
929.878418 -14.299954 -774.625732
753.269775 -440.039459 -1263.677490
1040.549927 -628.228516 -944.382996
991.199585 -685.613831 -920.867249
943.791199 98.844513 -618.447144
678.102539 -254.017334 -788.946472
597.371948 -195.552811 -886.123413
824.697693 -561.796814 -1072.779297
971.950928 -554.623230 -1032.663818
876.524841 150.594025 -710.158630
884.736145 223.314728 -619.292358
1121.856567 -667.816895 -880.131897
994.887329 -678.596985 -927.443909
1085.498169 -564.434875 -949.781494
971.710022 44.296101 -657.797913
896.251526 -190.803909 -511.114471
812.685425 255.767609 -737.872803
741.896423 -536.890137 -1171.089600
898.705627 -59.005718 -902.396729
828.844543 -570.252563 -1014.971863
1203.656372 -371.314117 -1088.849609
789.268250 -317.554443 -672.575989
668.752258 -218.546173 -827.643311
592.208313 -225.417999 -867.587097
1012.033752 6.406844 -622.377502
1009.209534 -518.297729 -1043.402100
863.760193 -549.241699 -1040.161621
750.869141 -620.360779 -1089.488281
943.187622 79.249184 -651.531128
661.457703 -283.742004 -763.058411
969.269897 -608.215637 -1022.434387
845.407227 128.233658 -773.595947
812.356506 -533.676392 -1167.866943
912.151123 -696.519531 -951.408142
1039.389648 -531.030701 -1045.158813
903.884399 202.651596 -609.682373
932.025208 -128.579880 -797.007141
1054.091064 -485.285858 -988.040283
649.322998 -324.493744 -752.218811
1097.434570 -658.089478 -877.792786
784.554138 229.477570 -779.362793
982.850281 -357.421661 -1110.905518
808.202209 202.309814 -765.587036
815.241821 -360.800537 -628.702515
897.158142 -678.810730 -970.129211
815.263123 -112.260727 -851.228027
1137.648804 -596.207397 -905.872620
834.223145 -188.286743 -778.856445
915.498657 202.452240 -574.606445
990.402222 -692.741455 -897.742004
771.116272 -283.256470 -722.926697
861.943115 -563.061646 -1114.118408
1029.934937 -397.608307 -1033.183472
933.112854 171.704132 -559.288940
905.094849 -501.902954 -1136.198608
984.312744 24.499758 -639.452698
1005.020325 -340.165161 -1288.190918
878.987976 113.006920 -733.136047
901.174500 -62.774338 -884.058228
828.837219 -560.765991 -994.962036
703.895874 -331.523315 -706.805847
958.335022 -194.819717 -713.870422
727.485840 -217.016037 -801.455078
933.679565 -706.452332 -933.326843
971.214478 -304.853729 -1306.650757
762.927551 -593.185486 -1113.253906
944.622314 -539.674438 -1062.888550
680.057007 -289.334351 -775.667297
990.707520 -495.915161 -1058.731079
979.512695 87.263779 -549.797485
708.139343 -345.058685 -698.053101
751.281616 -234.788818 -784.405090
833.335083 -421.641571 -1214.198242
981.828369 -589.614746 -990.447205
728.009216 -533.498779 -1185.124146
939.330017 -133.181183 -787.522217
707.082214 -607.259644 -1102.892212
885.848572 -709.899353 -946.102783
890.757385 -425.481323 -1164.445679
941.323608 -618.841614 -982.950989
927.594666 85.219933 -696.181152
1186.625244 -254.707504 -1101.006714
869.107544 -190.706268 -760.702515
746.385742 -531.825806 -1181.688110
987.283630 3.636920 -676.883667
968.808289 -122.093330 -808.749084
1028.410522 -683.350708 -907.340576
917.994568 198.895309 -620.758545
891.290100 27.134106 -805.121765
781.243408 -709.221130 -1001.334656
875.569763 205.603043 -637.170288
905.609985 -293.463409 -631.736206
914.988525 -135.748077 -808.274963
844.887512 -188.621658 -768.344604
799.015747 -303.971771 -677.069214
938.851074 -687.831787 -930.610718
758.595154 -307.196655 -696.157349
776.369568 -517.813293 -1183.489990
938.406555 -429.544373 -1172.174072
845.355713 168.314667 -758.392395
727.510132 -209.867004 -785.795837
738.216675 -447.482483 -1247.118530
583.464233 -284.950897 -852.993103
842.586609 -704.626099 -964.709351
784.272766 -652.908630 -1033.448608
798.367432 -160.856506 -831.989258
822.467834 243.500443 -723.651367
901.673279 142.723038 -651.119995
758.628784 -186.864166 -820.148438
878.674866 36.183258 -846.584900
969.320435 -190.378830 -730.765076
859.328857 136.827164 -771.364929
626.859497 -278.060669 -815.327148
991.492371 -361.737701 -1208.176147
1016.948914 -623.492371 -982.158813
875.339661 87.366486 -793.800171
931.036926 121.196205 -613.296448
901.088318 -429.848083 -1165.379761
1183.962036 -392.072083 -1089.811157
878.968506 133.705811 -715.500000
815.124695 -438.602142 -923.071533
1037.663208 -549.105957 -1024.322510
734.830872 -666.590820 -1043.106934
1072.412720 -476.132538 -992.856750
752.002014 -674.741455 -1005.885681
977.736023 -636.341492 -983.554382
924.189575 45.823570 -758.066101
843.908386 -595.682190 -1038.478516
883.166565 -532.901550 -1112.241211
984.345398 -89.267853 -822.815613
694.196106 -260.611450 -784.173218
698.371582 -215.592819 -808.048889
903.958984 32.563778 -842.108521
875.763794 -488.852753 -1126.481323
892.509583 124.020828 -729.025696
845.883118 -133.867645 -828.859009
901.499207 -547.340515 -1081.460327
939.173828 72.333275 -679.510010
1029.247559 -495.899628 -1078.701660
1133.291504 -433.055115 -1084.990845
1012.489075 -542.899719 -1020.007507
784.761353 -655.309570 -1030.647339
760.507446 -325.130463 -681.588928
928.962769 -654.206909 -979.653870
812.900757 -642.051575 -1046.085205
882.623474 53.388668 -829.498901
977.845886 35.280910 -648.492493
800.328735 132.778687 -861.872070
898.364136 43.916225 -824.326599
756.127380 -306.062531 -692.361877
973.254211 -686.158569 -921.148926
1020.649292 -23.336239 -901.795715
914.828430 -87.086365 -848.758667
1228.168213 -284.637909 -1089.588623
793.706970 -567.091797 -1140.501099
782.075195 -691.829407 -998.664368
963.636780 -158.143295 -735.026367
936.664063 191.293808 -594.033691
956.621277 45.570087 -672.025879
805.280029 -308.692200 -685.399109
755.154358 -471.089386 -1248.120361
802.204529 -278.034454 -683.730408
891.997986 -225.922897 -732.338257
871.655640 182.725845 -653.044739
805.788391 -188.383789 -774.976013
964.843994 39.481594 -670.014832
878.312439 -288.075165 -668.159363
787.414612 -725.673950 -957.269104
993.174744 -155.577911 -756.482849
946.128235 -79.541588 -850.116882
726.872437 -108.692665 -919.890747
718.054749 -361.475800 -690.304749
984.617981 38.455212 -625.558838
937.766663 -357.776398 -1247.851440
984.437378 -617.773560 -984.975586
687.547180 -130.057602 -914.944153
885.405029 209.123352 -621.448608
918.638367 -427.487213 -1078.429688
664.431213 -288.515564 -746.513977
1067.230347 -598.608154 -954.501770
700.554260 -337.422516 -715.813660
918.509521 -506.683289 -995.672974
1136.278320 -604.908081 -873.726746
1091.586182 -501.751129 -966.277588
883.873718 -665.841248 -959.441711
834.430603 -314.045502 -655.090637
858.470093 228.342819 -649.278076
684.391418 -225.365936 -827.448914
903.273865 94.575623 -720.579895
852.385071 -288.746826 -678.928772
813.423645 273.825012 -738.436951
625.981689 -335.338318 -793.426575
808.212280 -218.766693 -782.332581
856.091919 -284.615631 -671.173828
1176.075562 -446.927002 -1074.615112
766.322449 -265.673676 -724.835754
708.669861 -476.161316 -1240.923584
809.672607 250.576401 -748.366577
816.855225 -109.772186 -887.067383
966.549683 40.967571 -665.371399
802.447083 -74.676086 -894.944824
789.692932 -94.149666 -913.718689
997.088379 4.529497 -662.535828
933.463867 137.720291 -635.440857
1105.367798 -442.229004 -1120.612061
1223.594971 -393.524811 -1066.317383
834.774170 -503.450714 -1163.908936
959.509460 -157.849564 -742.825867
832.057739 63.500755 -876.898132
893.414001 43.975853 -832.096436
809.732605 98.727280 -867.320557
742.486023 -481.251923 -1221.504395
874.161865 -553.510376 -1027.767212
1143.204468 -469.560883 -996.750793
746.321777 -374.084991 -658.334839
926.737122 152.059494 -597.466858
1003.918396 -289.935944 -1292.115479
671.982422 -181.489166 -865.024963
889.395386 258.134094 -667.963745
962.339539 145.383911 -544.567566
786.926147 -448.709381 -1222.396851
803.388367 -316.967102 -664.086731
677.667297 -165.542847 -878.883728
890.765564 141.591278 -699.032715
753.338501 -511.198914 -1214.336060
791.610046 138.355225 -846.323975
887.969116 150.217636 -677.263306
692.339478 -180.353973 -855.318542
788.343201 -656.665649 -1005.838684
579.664001 -256.585144 -861.686829
642.921570 -142.306229 -918.724609
997.871460 22.779255 -607.976379
789.197205 -291.776428 -677.172485
895.964233 -524.999878 -1108.831177
1098.173340 -622.467957 -914.147156
915.445862 -73.582298 -905.610168
899.876221 -451.277527 -1190.264526
758.458069 -275.045959 -719.637573
958.507507 114.522636 -561.514343
763.604797 -373.657654 -662.524475
840.440735 -712.934937 -967.816223
1020.179565 -306.876160 -1159.074219
858.864563 209.858307 -716.946167
932.899719 35.496132 -762.487915
1094.068970 -567.589783 -965.249756
1127.202393 -653.070374 -867.668762
987.407837 82.239899 -571.266541
1003.766479 -125.490364 -769.050354
692.768799 -144.504471 -870.716736
846.250427 -624.248291 -1044.254395
792.092407 -657.358032 -1008.488770
792.712097 -628.433289 -1051.796387
882.027283 -430.985168 -1173.560791
1046.247559 -609.229248 -974.274292
852.324585 63.355610 -864.630981
819.404724 -460.680084 -1193.005737
862.044556 -573.396851 -1041.174683
852.507446 54.991119 -832.833130
773.774536 -665.283264 -1005.082703
827.673584 -492.628387 -1179.542236
912.461182 225.011932 -605.146301
1054.416504 -584.166504 -975.901123
1141.851685 -489.924835 -1007.233704
843.534790 -428.244507 -1198.772949
1007.268127 -24.077406 -694.136597
788.504211 199.300964 -795.218445
854.019897 211.531372 -686.909790
937.692688 -132.287766 -784.717957
679.646118 -360.151001 -724.947754
764.152405 -603.814880 -1077.317261
872.503662 -723.444824 -936.348328
785.956360 -324.907745 -662.602661
847.831787 -100.715706 -876.481567
778.765259 -392.107361 -672.350952
1138.475464 -416.562958 -1092.571655
833.907227 -324.725586 -648.217712
1058.551147 -579.046387 -988.946838
858.484314 -464.347870 -1162.401733
1075.939331 -541.027283 -1003.914490
821.526428 -291.582581 -694.322937
728.379089 -340.626740 -675.238708
1003.300354 -563.614380 -1030.284058
903.645996 -240.629684 -684.744080
871.426514 -307.455139 -635.024414
916.684082 126.632645 -654.714844
760.186157 -105.909019 -944.176270
728.897034 -237.441742 -779.227295
927.003845 -694.371033 -946.535156
784.629700 -306.918549 -666.593079
882.825500 -249.719543 -560.877930
782.095398 -94.480713 -904.215149
777.923035 -283.753906 -688.794495
948.123962 -629.486755 -967.733521
733.100220 -582.415710 -1139.179565
938.826660 43.946503 -712.001099
939.060425 62.891811 -717.650452
983.702087 -139.629059 -780.439331
978.871277 -135.164032 -530.884583
834.265930 -699.293640 -969.855713
907.104980 128.207962 -658.618896
883.183472 205.243011 -622.900452
977.017090 -322.591614 -1317.045532
1061.814209 -663.330017 -891.542114
909.749939 -431.806854 -1159.565918
984.998840 -639.674988 -958.555969
806.097778 -363.227112 -1305.329224
1197.861816 -587.070801 -914.917236
616.593262 -200.188019 -872.421448
810.485046 -646.955078 -1004.770813
699.302795 -134.118790 -899.154236
607.650574 -229.361526 -854.344971
1029.059692 -521.631592 -1054.332520
1179.143677 -368.753174 -1102.369629
979.247131 135.291046 -543.073120
993.285400 -538.983887 -1070.061646
1017.234009 -469.934357 -982.492432
818.977417 -427.315186 -1203.360962
1100.156982 -672.485535 -887.009705
943.263428 -402.773621 -1034.500977
991.711548 18.553232 -621.496216
872.065796 46.484329 -850.148315
625.384460 -313.160858 -799.833923
1168.814697 -626.607971 -862.919922
675.902527 -356.808899 -729.575012
898.171631 -220.093674 -745.587769
802.148438 -290.505676 -672.343384
997.477478 -569.218628 -1033.080933
756.051208 -613.076050 -1122.330566
757.164001 -554.092712 -1148.052856
1001.413635 -35.966183 -706.948120
1093.140869 -615.688721 -916.134033
853.700500 -152.503036 -807.485291
770.906006 -153.407913 -851.060669
797.890747 160.225616 -841.470520
959.449402 39.498001 -674.674561
932.313110 -412.244110 -1069.613037
812.336121 -485.907593 -1172.312866
933.921021 -690.124084 -927.741272
817.014832 -654.685608 -988.762085
854.644958 90.484322 -815.834351
1150.597168 -579.778748 -910.016113
923.322815 -125.850014 -828.258667
610.082336 -209.434250 -866.048401
858.242310 204.758713 -664.504517
835.243652 -453.160919 -1196.714966
791.527283 231.387695 -769.783325
819.139587 -564.608093 -1082.735474
961.740112 136.172119 -547.745911
966.883911 -372.110962 -1128.778809
631.426208 -242.920807 -813.266174
978.129150 67.099220 -588.881104
942.063782 -455.492554 -991.213501
961.849731 122.089104 -569.383667
900.571228 -54.371288 -894.862732
870.829956 208.111557 -644.012512
811.676575 -707.031250 -987.604980
1216.738159 -412.937286 -1078.393677
851.841980 -55.274990 -921.050842
806.801392 -596.653748 -1079.437744
787.023315 -307.105499 -702.701538
913.155579 119.189217 -644.127380
752.367310 -159.458023 -846.818787
827.249695 -83.443016 -924.321106
753.749390 -235.358780 -767.245850
1173.722534 -518.121765 -972.046387
778.113342 -670.717346 -1043.310059
802.758362 -252.357635 -708.719849
922.056580 -110.379662 -830.600281
841.986267 -522.873108 -1169.595825
958.579712 57.005318 -660.920776
877.977356 -433.578766 -1177.489868
851.717285 90.798241 -811.300293
698.962952 -131.616730 -907.692017
821.352478 -331.741547 -641.988647
934.837891 -678.339355 -916.399658
879.402222 -510.584167 -1148.375732
940.985535 52.410282 -698.995361
573.007996 23.727524 -842.685913
793.161682 -642.374268 -1034.820313
976.260498 -551.716370 -1041.976074
667.721741 -298.832184 -777.263489
839.813110 218.800583 -677.888916
1014.253357 -494.101715 -1050.984619
700.544006 -461.187561 -1247.657837
1394.754639 -292.855469 -1137.036255
906.893372 -343.529724 -1304.609863
716.931396 -262.238983 -757.155273
925.853577 170.873901 -592.139343
819.923157 -564.171875 -1113.619873
724.800293 -647.583374 -1047.626221
894.182678 -66.980125 -860.915833
673.577515 -202.354904 -871.648315
931.336914 129.427612 -620.323914
986.341858 -564.668884 -1014.563660
853.744873 -239.056244 -722.394043
755.890320 -651.016968 -1056.616577
1137.429688 -650.227905 -872.154663
630.045959 -183.552353 -864.279846
896.302551 149.540756 -705.492493
856.361389 224.274963 -691.049377
1016.318665 -13.549802 -660.688904
738.639404 -635.981201 -1079.595215
738.674683 -488.111237 -1244.517822
802.361450 -256.341614 -736.334778
956.291077 121.902336 -579.535461
681.914734 -203.020599 -833.741394
983.618164 -17.382162 -685.954590
924.876160 102.260582 -665.110901
951.037842 75.904503 -644.639832
741.310303 -687.616821 -1036.371094
686.540833 -267.383606 -747.659729
885.277832 170.441605 -669.243469
882.497925 -129.517349 -815.006592
1013.099182 -326.517334 -1226.042236
788.501831 -655.402832 -978.128784
743.842102 -283.067017 -718.669800
1201.476440 -371.497498 -1090.415039
943.625183 -216.704376 -701.199829
668.203735 -233.689957 -843.022400
704.369873 -562.490051 -1142.926392
851.527100 -555.407166 -1060.895386
1103.828003 -563.041260 -915.125244
910.493530 127.152809 -683.057678
979.477173 39.061176 -631.077271
879.012268 -405.168335 -953.857788
881.048035 164.481720 -695.181335
900.340271 -662.375427 -959.426270
772.624695 -95.892632 -920.955383
836.850403 -354.148651 -633.354492
755.119690 -647.332458 -1058.192993
893.753479 -514.070190 -1134.482788
736.460693 -623.573120 -1092.645508
1145.690430 -568.084229 -930.519043
999.985962 -638.350403 -928.342407
770.424316 -336.977020 -673.085754
960.120056 -684.682678 -901.921204
926.881836 34.197964 -752.708740
1016.321167 -482.929504 -1075.928955
848.313904 -491.772247 -1159.537720
862.630371 -348.987305 -639.230225
755.764465 -615.203186 -1106.676147
816.017944 179.189911 -766.750122
628.325317 -305.799561 -810.335876
921.322998 121.188187 -644.395264
816.736145 -274.588593 -675.512207
759.877625 -198.700058 -797.270691
851.789307 -528.747009 -1002.487122
898.229736 -268.033081 -640.334778
799.383789 -609.006104 -1090.532959
845.667297 -287.575012 -683.302734
1018.531250 -557.850891 -1027.255981
632.605896 -300.530029 -785.515747
1099.870728 -552.044556 -962.298279
970.737000 74.332726 -601.447021
914.132629 -542.639221 -1113.492310
825.931091 238.416931 -700.681946
531.202820 -32.213093 -838.317993
1058.294556 -482.635895 -1038.030884
978.121155 78.858849 -597.178772
954.330078 65.798119 -661.446777
951.841675 28.213886 -720.884155
973.185059 -652.821838 -951.952332
897.844360 17.699442 -796.636353
946.992065 -589.036499 -1035.470337
1089.990479 -498.693207 -999.209961
818.916199 -171.448807 -782.374329
740.045410 -520.310974 -1173.802246
787.481934 -276.347473 -727.973877
906.954956 -160.511368 -786.968567
1110.295776 -599.262634 -893.756042
850.133179 -370.567963 -1208.056763
919.102112 -108.896072 -810.884827
720.545471 -194.789917 -819.397522
864.369568 227.026184 -636.456238
960.846252 69.479408 -630.320435
782.939148 -182.900391 -834.562561
712.483582 -672.785828 -1030.783936
887.058838 -262.115234 -619.379272
830.502319 175.515564 -768.604980
1005.242859 -544.284424 -1023.963196
913.103638 70.587463 -760.308105
728.349670 -420.157837 -1210.142700
962.270447 -12.918973 -731.045105
1003.181274 -659.378967 -908.385193
805.607422 -724.865967 -962.616394
822.474731 269.420715 -722.751221
804.223816 -661.699463 -1048.055176
956.730408 -571.133606 -1023.886719
756.380127 -323.025574 -692.329285
934.797485 -556.120667 -1051.216797
1107.873901 -574.038208 -920.311707
1133.668091 -470.272186 -1041.638428
1156.947388 -472.864105 -1048.962769
917.159180 92.986649 -710.546082
1022.243286 -686.696045 -907.103210
578.506775 -221.375229 -881.732788
840.203552 -546.697449 -1157.056519
767.432434 -356.474304 -1247.493408
816.373596 204.099548 -760.180176
889.388855 51.609219 -809.300842
956.282532 47.131565 -666.948120
901.051392 231.299316 -636.717102
1064.834229 -482.241882 -1004.724915
780.188232 -226.963303 -763.170410
977.180237 -75.866806 -842.275940
900.502441 30.037300 -827.049927
1053.664429 -657.939209 -904.537659
657.654663 -270.247650 -785.065491
833.233826 -583.836670 -1122.041016
744.457458 -433.252136 -1278.587402
1176.067017 -405.752838 -1038.827271
872.698120 -57.910244 -918.604797
1118.004761 -513.975220 -958.417969
800.909729 -453.233337 -1232.280396
945.042175 -102.164856 -816.676331
836.757446 229.980240 -716.374634
754.196289 -351.988739 -670.274597
912.552307 108.318214 -661.339417
912.993958 135.412109 -661.003418
959.272827 -410.886963 -1105.863647
923.043518 128.825165 -617.492249
904.580688 -594.779541 -1024.113525
904.639038 -572.992432 -1017.732178
817.920837 -677.698303 -984.297119
911.954895 -643.648132 -1003.173645
832.329834 153.830521 -786.869629
612.511902 -255.565475 -831.905334
592.214050 -226.672440 -873.792969
812.774475 243.442719 -747.732117
940.727783 43.303017 -686.103333
933.397766 70.981224 -660.917603
640.828857 -231.479248 -808.929688
744.007202 -152.331375 -899.658875
1374.789185 -300.931915 -1137.804321
860.557251 52.730591 -890.923096
856.226685 -363.319275 -1306.735718
837.889526 -286.945160 -664.972595
818.089539 -173.239685 -838.802734
944.056091 20.088686 -735.835815
769.220215 -595.222229 -1104.559326
820.178833 247.983810 -704.677246
805.037598 -315.503052 -685.990112
939.641357 14.904020 -729.999756
724.209961 -277.716095 -717.640686
761.630432 -190.593506 -814.766907
1063.977539 -509.366394 -942.288208
853.443665 -137.658951 -834.402649
939.339478 -159.302902 -778.986877
605.742676 -263.887756 -809.547424
755.783325 -190.522415 -807.880432
907.513367 97.221863 -702.331848
698.608643 -369.807373 -675.964905
799.949402 -443.070374 -1203.476074
707.112549 -294.525940 -715.792053
860.137451 -584.924988 -1062.029175
714.719238 -162.653503 -869.716003
888.946106 -627.193665 -1007.180969
885.033142 59.648350 -818.453247
776.346924 -363.115417 -647.192078
828.250916 -348.312958 -629.545715
974.673584 -372.074554 -1198.969971
769.726379 -609.963928 -1113.102051
826.427673 -586.740967 -1112.017822
782.070374 -396.973602 -648.791809
1078.483521 -527.203491 -1037.020386
962.543152 126.975189 -572.817261
914.279602 -197.702713 -752.909119
953.064392 143.197021 -560.092896
734.874084 -584.485046 -1133.899658
922.338501 -508.068573 -1115.731079
832.275452 -167.319763 -819.910583
929.969421 68.522255 -721.258118
792.880798 -662.254883 -967.662598
920.961731 -240.456131 -658.137939
767.228943 -116.886627 -868.008545
918.591187 87.728020 -699.980469
768.322998 -218.740952 -801.836487
755.871155 -149.819641 -862.245117
808.444275 -294.036224 -698.372681
930.122314 79.341431 -717.605530
677.887512 -252.282394 -812.619629
1024.908203 -410.760223 -1023.652283
602.096313 -262.937073 -836.769592
928.007446 66.927879 -708.962219
1274.885254 -392.269897 -1056.816040
923.164612 -674.394409 -967.851013
688.220886 -183.670456 -832.985107
885.947266 -275.001862 -674.618408
861.333374 -350.800110 -1309.357056
683.965637 -227.697174 -788.069458
917.459412 91.637085 -713.476440
974.031189 7.775194 -700.990540
700.437561 -347.897125 -728.107910
726.587646 -359.613708 -690.481506
796.569092 266.988434 -759.188293
860.090759 -129.924088 -855.213684
983.730713 -16.218859 -737.524170
817.390686 216.473206 -746.360779
1012.214905 -530.869873 -1052.993774
740.675781 -502.688477 -1211.622314
767.849121 -421.461029 -1168.425659
960.289551 -640.851685 -970.478149
758.403198 -684.595825 -997.677795
808.761597 -482.413544 -1211.683350
669.160156 -262.201416 -812.600769
1156.891479 -596.439697 -915.496094
769.322815 -488.311035 -1189.242554
1189.608398 -555.950562 -930.447815
841.422974 -317.253296 -656.149902
753.578918 -128.440765 -862.151672
837.450989 152.702271 -770.212097
829.092346 -619.697144 -1017.171997
711.500916 -283.418457 -762.651001
839.833496 -444.532928 -1181.074585
1081.315186 -648.181946 -897.007019
1060.082642 -600.421997 -957.152466
730.985413 -284.390594 -723.148621
993.383362 -21.125364 -709.633301
938.663452 -365.977814 -1255.500488
827.737610 -216.204880 -747.419006
949.785034 13.224743 -737.106750
824.976257 237.504105 -690.560059
1280.495728 -337.854645 -1088.349243
1176.937500 -620.717896 -861.200378
827.424805 -510.076263 -1161.416260
842.613525 164.974106 -727.263733
1017.218140 -647.829468 -955.086243
1346.307495 -265.422852 -1139.051514
931.699036 37.658234 -780.227234
778.789795 -578.411011 -1115.432861
737.316711 -119.112915 -904.574280
873.670044 160.142075 -701.983643
1073.689819 -635.433350 -937.286743
1103.589355 -607.204773 -900.841675
820.906006 265.483276 -693.311035
946.303162 37.896492 -708.200073
985.110901 92.602829 -564.927612
929.118042 60.551067 -685.735962
623.767090 -277.578979 -802.020325
918.362854 -260.183533 -640.526123
809.829468 -443.206268 -1201.919067
766.659302 -477.232025 -1201.577759
785.472778 -503.342621 -1170.713989
686.684753 -352.361725 -719.916382
1039.642456 -634.780334 -954.360962
938.813477 22.146746 -742.640625
997.121399 8.619238 -640.754639
953.742065 107.390968 -602.073303
926.363586 -219.293686 -720.790283
786.871582 -410.866089 -1229.972778
1121.339600 -527.360413 -941.972412
1173.839844 -602.400085 -888.297241
1133.249512 -624.931396 -879.246460
824.176514 -655.456116 -962.939575
942.949890 90.075195 -641.999817
1001.097229 -649.566284 -938.606384
849.928955 99.186943 -835.702209
869.789490 -484.332977 -1168.973267
586.877747 -270.747467 -855.650513
643.579895 -354.414337 -758.734741
820.301453 -668.281372 -985.178406
936.932434 140.764771 -603.794495
739.649841 -346.800079 -675.056030
825.407104 -175.657181 -804.889771
934.866821 -634.930115 -999.679932
959.007690 63.089127 -655.906982
784.623352 -711.950867 -952.648743
673.611267 -284.004639 -754.969910
945.571167 -509.549133 -1061.053223
690.719543 -337.797668 -713.434448
886.904236 -155.357269 -775.640991
726.092102 -195.915009 -824.755005
653.206665 -251.963074 -791.043396
809.871277 -194.277985 -801.691406
957.965637 77.283310 -633.810364
707.229492 -316.386230 -712.198120
1027.177002 -379.521576 -1027.119751
1395.975830 -286.359894 -1092.339233
896.659363 100.737473 -726.169434
1082.555542 -621.805664 -919.910583
758.484741 -550.339966 -1153.385010
903.524109 -247.488358 -692.441345
774.069946 -694.214722 -995.449524
1091.148804 -562.742981 -943.167786
693.560242 -352.521362 -718.143738
777.779724 -670.448547 -1017.122986
985.806702 -686.507385 -906.924500
951.673218 72.397842 -658.171631
1102.503784 -612.419922 -928.633545
904.919434 -534.841797 -1042.675293
742.439636 -361.110962 -688.987488
818.517944 -179.929306 -777.437561
822.075623 -615.577454 -991.348999
814.540710 -530.952698 -1127.497681
856.281494 -377.569824 -1297.447754
875.028076 -438.606232 -1178.717163
627.561279 -268.879761 -789.577759
1121.364624 -439.193542 -1028.613403
833.542664 -345.545013 -640.032043
676.208984 -331.505920 -718.975830
832.635864 -88.313438 -911.990540
696.945984 -534.435669 -1174.282593
668.673645 -318.703217 -744.582031
1001.079285 -40.846794 -725.289673
658.532349 -203.984680 -844.171631
834.714233 -610.242920 -1048.406860
920.503906 1.608410 -793.827759
695.762024 -658.296448 -1050.146729
898.219788 142.832901 -647.252686
1009.215515 -563.035034 -1043.114746
823.932861 -549.560913 -1126.716064
831.264648 142.385391 -805.810974
1043.781616 -657.086060 -919.776550
916.034729 76.348267 -720.505127
849.554626 -460.905670 -975.482727
692.056091 -308.790314 -726.841492
767.571106 -509.973145 -1205.106445
1007.512817 -669.699036 -933.406250
975.754089 -124.332550 -775.277222
875.740173 63.800941 -803.327209
808.882324 212.416946 -738.846191
787.763916 -59.036190 -936.116089
802.699951 125.650024 -867.823547
1181.736084 -470.108978 -1012.285461
790.732422 -366.047699 -649.013855
1010.840027 -644.081970 -942.166199
857.881165 -592.994934 -1014.525024
704.991211 -297.833679 -729.898804
781.591187 -557.880981 -1114.822266
936.428894 -258.340912 -671.660828
854.142273 -707.879272 -924.802612
1155.959473 -306.157166 -1105.290527
826.540771 -569.229797 -1101.917603
906.945313 -353.824890 -1288.663208
878.063171 -379.917969 -1265.968750
876.780090 219.599625 -608.528198
1185.505005 -578.724304 -904.928772
1215.244629 -394.975403 -1069.636841
1107.602783 -402.083069 -1135.144287
863.972961 -423.450592 -1112.410034
869.343384 -540.524658 -1121.726318
766.836731 -155.998520 -826.986572
760.206299 -132.865036 -871.989319
768.627014 -508.105957 -1169.880127
792.414124 -563.782471 -1158.546753
820.462280 -499.358185 -968.975159
900.536865 -307.917664 -1117.587646
956.843018 177.339188 -556.108582
719.268921 -581.465576 -1117.381958
1037.213379 -573.519897 -996.030701
991.000183 24.241497 -642.219299
880.824158 172.666107 -694.907776
938.667419 -614.036682 -1031.630737
1029.062866 -679.550293 -888.982727
1146.927002 -598.744934 -912.543152
924.634399 86.942581 -671.689331
751.561096 -268.401825 -756.102356
985.390564 20.980446 -639.348267
1256.624756 -402.400513 -1062.988403
921.931030 220.338089 -592.602966
980.057007 8.454508 -668.815918
1056.431641 -535.652344 -1019.658813
1022.087830 -136.731155 -770.519226
859.501160 -519.625549 -1143.938965
965.750183 22.463507 -698.099915
984.315857 -461.087372 -1047.588501
973.384644 -9.085843 -779.329895
781.135437 -692.213013 -987.146790
691.675232 -312.052490 -737.064941
1065.115356 -442.820404 -1047.179199
1009.070190 -162.616623 -729.755920
829.902771 -555.727173 -959.445801
861.006897 211.348663 -652.469360
926.747070 140.463562 -609.319336
888.863892 -405.451569 -1205.133667
890.180969 195.235931 -617.530762
943.948242 95.552361 -631.633423
987.817200 -671.376770 -923.605530
796.575012 -473.422668 -1206.200684
859.810913 113.414894 -780.426941
846.904175 196.811081 -700.940552
917.735413 73.459267 -739.239502
833.122742 177.386551 -769.709473
975.018555 -658.209534 -960.314026
892.761169 -88.889236 -856.937683
1033.615601 -509.370758 -1017.073181
839.163513 -90.739700 -907.870850
1086.691162 -640.107910 -901.322388
947.098572 -636.345032 -980.962463
819.760376 -595.382690 -972.800110
1001.601440 -49.708294 -682.938599
1329.491699 -359.447296 -1072.409546
1296.101807 -356.598877 -1074.012207
931.138916 86.923096 -677.623901
1180.561157 -347.825317 -1047.053467
782.750610 -652.823120 -1027.202148
764.999939 -476.473999 -1205.404297
805.222778 -181.247528 -806.949707
1145.665039 -534.176758 -950.163513
936.615173 -393.063293 -1198.094360
761.760315 -498.977692 -1205.078369
837.783020 -478.400208 -1170.072876
784.034119 -488.751373 -1184.806396
802.550964 -506.879333 -1181.299927
988.497498 -462.381592 -1088.487793
921.286987 178.309235 -581.322144
931.229919 75.795212 -690.777954
856.274902 -142.146790 -813.690552
757.373291 -339.577240 -691.965576
929.866272 -186.903976 -750.138367
1181.051758 -545.388184 -941.395996
644.413940 -328.808014 -766.150757
1073.456299 -599.714355 -957.878174
891.199219 -656.468018 -983.141541
812.305969 -178.649963 -794.936584
805.301086 239.788406 -726.059326
1172.931152 -546.506653 -893.996216
738.434387 -641.530945 -1066.794434
796.770752 -588.903015 -1097.682983
1033.435791 -618.862549 -975.483093
899.720215 195.113556 -595.629517
818.442932 -686.000916 -980.444275
738.637085 -520.609131 -1200.711060
613.798584 -310.919281 -825.050354
586.648438 -302.651825 -830.873474
896.035522 210.074478 -610.183960
703.399231 -631.340759 -1074.126099
1101.755615 -652.188904 -887.432190
940.436035 92.188057 -639.562866
760.385132 -422.825378 -1226.221313
900.369385 -634.567322 -981.674988
900.082214 -280.077698 -646.624573
983.576599 -9.915734 -702.563965
772.755066 -543.310425 -1154.661987
946.028687 142.123138 -573.997437
980.427246 25.593140 -667.179016
696.166748 -142.044037 -895.686523
880.245361 -181.899857 -751.410767
652.439331 -211.962967 -834.011597
887.092163 252.842773 -619.364014
1044.603149 -519.517578 -1047.882446
756.661499 -96.043983 -923.044006
1079.111328 -534.588623 -976.516235
1383.515381 -297.610504 -1087.842896
919.371582 158.487991 -602.019531
772.738831 -270.966339 -719.575317
686.352539 -176.818832 -863.575195
747.229797 -616.017029 -1094.317505
900.643372 174.655930 -616.267517
1024.256348 -59.022701 -615.947327
779.965576 -682.059143 -980.337402
657.374390 -170.439163 -883.454834
870.329041 -603.394043 -1000.612854
696.858398 -322.676178 -740.644348
972.999207 92.357277 -589.527588
898.950806 160.556854 -668.509521
843.889160 182.980301 -725.632813
830.742371 -220.187439 -740.438660
1038.529663 -612.114319 -958.821167
803.333252 -36.982910 -963.350647
790.674194 -144.471130 -824.934326
742.227600 -484.629272 -1203.912231
884.050720 -481.989075 -1183.575806
918.798828 -237.641907 -690.242432
714.191895 -339.993774 -696.113831
980.764038 -667.197998 -931.676392
802.486267 -66.253609 -902.786316
836.701477 243.416321 -692.081604
715.929565 -91.824753 -941.441406
1047.681396 -605.134460 -962.549744
738.771301 -697.921753 -1007.224854
1011.577942 -35.166622 -647.743530
973.581970 -391.575775 -1139.192871
915.842041 195.729828 -569.521545
917.477905 177.877258 -578.864929
943.924622 33.944286 -686.928711
706.847229 -328.857727 -704.768311
1050.258545 -546.565369 -1028.496826
1069.917969 -475.796906 -1015.500977
916.762451 -239.308395 -678.534241
701.798523 -290.162903 -735.272522
981.165527 -649.619141 -973.287537
622.327820 -322.587219 -816.533386
804.914124 -441.797485 -1158.691772
1033.572388 -625.498535 -950.517639
1005.714355 -676.230164 -921.306519
688.559998 -321.708099 -720.766846
837.680481 240.386749 -671.612915
590.912720 -263.551666 -847.822693
771.016296 -506.952789 -1192.734375
954.637573 -167.515427 -733.911682
1071.287842 -511.196136 -959.272522
851.060547 -270.864105 -682.234619
959.494690 32.354126 -679.966003
1146.258423 -464.512726 -1079.416626
904.238220 162.183807 -633.376343
700.934509 -188.808594 -842.897644
822.378845 -482.269684 -1174.591309
968.058472 115.814804 -570.748901
786.617798 -474.176910 -1196.357666
599.892883 -263.258820 -829.338013
676.856445 -251.352539 -765.088745
808.081970 -301.369385 -659.870728
917.466125 133.951416 -615.723755
755.327942 -118.595612 -892.509155
966.983765 -675.054077 -928.861328
877.154114 -228.561050 -693.878479
936.747009 135.672379 -580.957825
920.659180 171.466415 -579.087646
853.359375 -128.498108 -860.652222
830.708191 -166.340347 -800.913818
1040.936157 -618.641052 -952.459900
1087.961670 -516.127197 -955.009033
608.037415 -266.767761 -856.966370
1080.523560 -582.004822 -954.755920
1046.805420 -676.752686 -905.842834
857.043640 113.938805 -765.205688
756.752014 -320.796783 -706.833557
992.058350 -470.665955 -1024.337524
775.592651 -518.584534 -1197.092529
1048.160767 -618.980591 -957.217346
682.345703 -288.709320 -747.151489
716.917053 -170.826935 -853.976013
1037.543579 -559.604675 -1004.351501
759.419617 -357.922211 -1251.313110
1149.175659 -475.232025 -1058.053711
907.774109 -231.987534 -692.629456
1030.534668 -34.217812 -661.732849
790.122375 -340.377655 -648.271179
845.222168 -113.913002 -860.514465
1181.223877 -310.719086 -1092.103149
919.333557 120.350121 -665.880798
891.895813 -487.783508 -1172.647583
908.627258 -63.139145 -858.315918
1157.381348 -389.099182 -1102.791748
875.438965 241.004944 -619.319946
1048.434692 -494.066650 -1065.050415
1125.614502 -469.876740 -1006.353394
1018.952148 -517.598511 -1068.139038
871.923157 -163.640305 -787.678467
792.002930 -621.270020 -1084.087402
880.457581 184.683670 -640.915894
996.242737 -675.728516 -912.953430
905.147522 -706.673706 -906.225952
905.553467 145.537857 -690.923950
874.548279 -127.408485 -830.108398
1093.781616 -601.882019 -946.440552
799.420837 167.818100 -801.879395
894.283081 -667.519836 -968.640259
948.856201 -153.236481 -773.031067
902.071167 -492.919647 -1151.752441
860.797791 -306.486633 -649.757751
968.313171 -425.882507 -1003.321716
769.942810 -340.235291 -659.875671
630.591675 -304.162415 -794.563171
871.602844 204.343506 -638.321899
692.132141 -348.255615 -717.091614
1020.791138 -474.988037 -987.863586
1325.106201 -308.894806 -1131.810425
1157.976685 -558.385620 -897.270142
785.154541 -179.476181 -817.323792
876.690308 38.130207 -853.648682
1147.842651 -429.143890 -1094.596680
856.651306 -547.470703 -1057.033203
901.309875 -257.112091 -665.058350
885.133118 103.876556 -767.469666
877.590820 -536.940430 -1138.050049
1069.609009 -454.124634 -1040.860596
873.262390 226.761139 -622.322754
673.787048 -285.942871 -757.596619
932.997131 -229.613510 -588.301453
963.088562 97.228699 -578.716248
1099.986816 -581.121338 -921.930969
817.907104 -35.580082 -955.437073
976.604004 33.416630 -642.139038
928.321533 -141.941818 -765.663208
797.913696 -175.555527 -787.242432
1153.386475 -522.014709 -971.070679
873.884216 88.070419 -782.718140
944.163147 -414.777618 -1161.992920
1165.606201 -593.005249 -905.618774
985.130371 63.040966 -582.701233
891.905823 203.881973 -620.228577
931.086609 75.407722 -681.552856
612.211060 -280.660431 -810.881592
801.818970 -621.164185 -1055.129272
725.495544 -339.599274 -687.730469
713.463074 -222.119919 -795.850037
942.281250 56.959728 -687.811218
871.254639 -212.625259 -744.812988
789.886658 -231.371872 -746.136841
823.672180 -231.383560 -728.354187
652.757874 -257.784119 -794.609680
734.224365 -343.793091 -680.404663
1022.254028 -31.688097 -673.363892
1080.476440 -514.531250 -962.974670
961.011536 -0.982993 -712.838806
866.284119 144.351624 -734.369934
1042.419556 -481.597137 -961.539368
941.691406 -669.618164 -946.795715
903.550964 155.097153 -618.769226
1244.533813 -361.689423 -1074.295898
1083.856201 -503.852966 -977.294250
1075.581299 -524.715820 -949.403381
887.132874 -548.880005 -1088.111328
675.515442 -363.229309 -728.403198
886.566711 -640.792480 -1007.182129
1244.336914 -401.784332 -1048.567749
1358.623535 -299.472961 -1099.992432
685.697632 -308.027771 -732.223022
970.407410 -356.378937 -1111.245605
818.395752 -255.536102 -736.042664
1013.812195 11.328293 -631.643860
811.747925 -566.781494 -1117.036621
849.050598 137.891937 -768.115173
894.058716 188.485184 -618.169495
862.585510 78.053413 -809.847778
869.673157 161.377640 -692.430847
1321.789795 -281.500641 -1165.302979
752.854980 -690.193848 -1013.012268
675.779907 -143.426331 -906.796387
808.515747 -573.682251 -1076.961914
812.535278 -634.651978 -996.426575
1089.911621 -520.876648 -935.929260
897.321350 -504.703125 -998.493530
1185.330811 -586.761536 -873.544312
891.400635 -680.779419 -959.069153
900.416931 162.559555 -629.222168
1109.582397 -544.491394 -942.697327
761.850830 -591.981995 -1126.089966
819.567078 -639.624146 -996.121338
1002.663818 -585.221436 -1019.083862
939.725342 100.915863 -625.732666
1178.691650 -372.819061 -1116.741455
872.378296 226.997726 -629.268677
794.374390 -340.140411 -650.223816
891.605713 170.867584 -638.327332
767.089722 -225.285477 -762.854431
794.358521 -626.579468 -1073.959717
883.421509 -463.307556 -1159.976074
957.307800 110.388802 -592.385742
811.565063 -578.960693 -979.336243
810.496826 94.961563 -888.896423
904.286255 -405.885834 -1023.979309
787.261719 -161.600937 -807.414246
921.283081 121.389236 -635.951416
878.230225 -133.987411 -855.618286
946.279846 -357.691376 -1025.320190
855.836304 -229.592377 -720.053345
1196.819946 -376.195404 -1117.415161
823.504517 -498.979340 -1178.778687
867.362976 -354.659149 -1302.200073
716.326050 -252.497330 -791.991150
1045.226318 -568.885437 -1000.637634
750.385803 -377.643250 -653.406799
977.627869 110.561462 -541.847290
827.296143 118.894310 -826.436768
873.832825 113.435654 -755.291748
897.213745 70.818939 -787.716736
976.067688 -134.769455 -791.143860
930.110901 -4.997709 -758.461731
761.463684 -281.281036 -736.776367
803.340515 -641.392517 -1012.135803
989.459534 26.060888 -616.801880
865.171204 117.785179 -784.183228
1104.453125 -564.988770 -972.462402
648.638611 -202.861786 -857.375061
995.064087 -17.092232 -686.280579
846.655212 -116.374237 -873.282349
824.152405 -237.693802 -745.972839
939.217346 -237.533813 -689.198792
1028.931274 -345.048035 -1237.388184
622.179871 -202.557755 -868.233093
774.496948 -500.075714 -1200.999023
808.784058 -450.540619 -1166.177368
938.296692 -421.869446 -1005.629150
1097.257324 -658.152344 -896.234741
1059.903809 -512.451538 -1011.859802
841.934814 -703.588196 -962.877869
923.292175 -240.711899 -690.777710
768.127502 -526.531006 -1195.564087
798.643372 -329.534973 -676.730286
923.151306 173.765167 -596.880737
935.244202 -248.223648 -682.160645
878.392151 -569.669495 -1049.515137
1350.480957 -323.832611 -1078.912598
774.121277 -452.242188 -1194.715210
647.720337 -338.615936 -752.282288
743.352417 -339.936646 -676.146973
925.224915 100.183746 -640.501038
872.402771 -166.380417 -769.631348
