ply
format ascii 1.0
element vertex 1356
property float x
property float y
property float z
end_header
-246.325027 -841.714844 794.401550
-878.104736 -1078.399780 688.138672
-379.360168 -976.064758 539.349243
-436.859375 -891.306458 581.293030
-784.034912 -1179.486572 823.787903
-81.792732 -837.718262 732.583130
-408.853455 -962.954346 488.809082
-493.106079 -818.336548 517.121216
-710.247009 -1227.840332 413.189026
-820.245850 -1206.339722 372.504608
-848.124939 -1033.632324 515.068542
-916.813904 -1043.208740 665.320007
-950.141479 -989.132507 585.581360
-10.672862 -916.820557 627.976379
-840.311584 -1083.366699 540.983948
-463.840149 -861.517456 527.026672
-869.306091 -1105.610107 545.841797
-663.445679 -1315.405762 994.300293
-90.901398 -973.891663 620.897766
-439.495544 -899.648621 645.927124
-539.330750 -740.278259 629.483643
-353.804474 -1022.577209 596.399048
-912.403748 -1069.940186 412.446472
-686.992310 -1317.097290 930.646606
-769.061584 -1183.347778 550.017029
-730.495911 -1215.810791 813.216736
-523.982849 -769.080322 566.041870
-768.577515 -1141.254761 546.782654
-928.375305 -980.702332 737.483765
-730.134155 -1005.575684 511.257599
-443.028107 -872.825745 623.370728
-519.552734 -809.602051 440.817383
-738.327332 -1247.910767 487.005768
-46.768669 -810.779358 753.848938
14.712372 -873.899597 702.304932
-120.605042 -952.265747 656.335327
-819.156067 -1092.493896 776.507202
-345.698761 -1045.186157 432.506775
5.056500 -867.520935 707.440613
-386.130127 -998.881409 494.545258
-471.687866 -855.361572 462.487762
-546.045105 -752.745667 649.317932
-945.947937 -993.703186 422.681549
-645.383850 -1346.241577 624.779968
-321.857819 -866.034363 812.099060
-129.087250 -920.021606 700.205261
-526.761475 -776.635559 476.845123
-449.938507 -894.857300 372.785034
-553.511841 -763.649536 483.621368
-168.041031 -766.324768 815.828003
-382.061035 -985.366821 362.790741
-367.796356 -998.270752 576.411255
-39.477074 -951.256165 623.504028
-922.798035 -1032.427856 510.077240
-471.342041 -837.557617 596.237915
-876.080505 -1097.157471 680.004700
-886.976990 -1059.351074 545.334412
-469.826477 -870.865967 343.497986
-788.901062 -1122.459106 692.132385
-123.908318 -948.574158 636.598389
-701.292358 -1370.084106 619.899048
-392.492737 -619.513428 697.119507
-853.298828 -1012.837524 762.913086
-7.378245 -947.644653 601.969299
-810.972168 -1145.309204 624.169250
-898.971619 -1023.035828 811.515198
-465.728088 -855.733521 491.046051
-823.088989 -1075.266357 759.061523
-677.200256 -1377.575928 439.443146
-745.703552 -1053.630127 520.888977
-928.839966 -981.639038 721.788696
-596.833008 -765.094238 473.585846
-7.216984 -848.543762 695.466370
-656.105286 -1362.554443 889.135376
-9.659272 -842.130920 704.171692
-486.266815 -889.261841 312.732208
-21.372618 -857.668457 709.635437
-929.783386 -998.582581 415.870148
-66.019890 -869.605347 721.710449
-91.944855 -962.334290 649.875244
-362.027191 -628.902344 720.449036
-953.344971 -996.593018 412.649109
-492.248932 -901.039612 308.290985
-63.461933 -877.480286 679.488647
-473.687408 -842.752075 708.275574
-450.443207 -901.817871 349.399811
-861.815674 -1056.142578 782.270142
-375.349304 -963.695923 457.810547
-683.587952 -1358.769531 487.375671
-935.453430 -1013.335205 483.716888
-836.110962 -1124.656982 635.160522
-216.071884 -920.262512 715.955200
-881.339111 -1126.480103 414.132935
-938.286255 -990.493103 836.027283
-486.416504 -817.507385 563.355774
-82.253380 -971.480347 603.847778
-349.455048 -1037.571045 539.472839
-355.727173 -990.683472 537.078003
-422.789429 -911.729065 478.547394
-837.000427 -1054.117188 752.410278
15.100108 -845.777283 712.000122
-858.918152 -1081.107300 744.642090
-557.508911 -776.071045 486.465820
-603.205872 -735.733948 523.051758
-63.526527 -965.128113 601.206787
-853.600891 -1175.791626 391.646545
-445.504517 -881.294922 768.439453
-534.654053 -800.325867 466.860229
-836.536499 -1165.195557 457.758026
-842.844299 -1125.778320 604.504944
-697.953735 -1309.201782 514.635620
-330.461731 -709.049072 763.308533
-11.129360 -932.193909 627.845581
-936.169861 -984.169250 654.849976
-493.833557 -832.866821 422.700958
-880.157349 -1108.178101 639.177673
-478.367859 -843.600220 424.998352
-881.637329 -1034.928955 447.611816
-702.547668 -1098.329468 557.067017
-753.941772 -1211.385254 842.115601
-897.170410 -1061.772705 423.361267
-728.832153 -1156.659180 629.610168
-459.131927 -843.625183 497.778809
-670.940308 -1311.053589 927.121216
-706.189392 -1240.833618 439.736206
-362.971954 -1006.547180 586.224365
-556.520996 -755.552551 482.231323
10.329024 -858.439331 715.593140
-72.190147 -918.562439 656.501892
-543.326050 -757.677551 644.188232
-168.989838 -1051.992432 573.372620
-200.638184 -833.719971 783.905273
-456.571259 -866.274414 480.755737
-896.482788 -1073.537720 397.683990
-782.736145 -1112.083618 531.393982
-870.237793 -1117.666626 344.744476
-591.296814 -746.343994 489.647705
-930.014587 -1026.663330 699.914734
-118.478989 -979.147339 610.686157
-146.950378 -969.119934 651.895081
-372.038757 -998.562622 474.913116
-908.843445 -1043.972046 647.948792
-438.013275 -882.333191 743.169983
-266.451416 -963.495728 679.237427
-435.847107 -848.864502 748.223145
-67.725227 -863.594727 727.669556
-913.258728 -1015.609802 673.625610
-352.254578 -1015.549744 419.853851
-629.959534 -1346.935791 877.904114
-556.678406 -756.572754 578.538330
-841.171204 -1020.065430 492.306549
-443.296753 -888.760315 340.883362
13.861862 -928.609314 614.465881
-734.253052 -1226.802856 882.068848
-107.153656 -921.841797 676.425659
-782.400696 -1183.307739 809.962891
-318.890015 -1070.717529 594.291260
-475.217560 -891.708923 299.069977
-750.986572 -1035.133301 507.657104
-814.709473 -1195.958496 410.629639
-296.324219 -824.475525 818.740417
-88.383896 -884.396790 690.556885
-479.040894 -846.328918 660.895020
-504.786407 -859.432068 350.053253
-801.608948 -1189.938354 542.774414
-499.717773 -839.200439 415.597168
-898.065979 -1069.885620 562.772705
-268.497925 -976.732910 709.070923
-867.190552 -1109.475830 434.038513
-221.779572 -820.557190 786.046448
-45.704079 -889.789429 681.834106
-781.118469 -1080.439697 557.759644
-411.755798 -925.045227 612.997925
-67.856087 -796.565735 801.578552
-448.081085 -884.257202 553.091370
-327.829773 -1073.291626 500.706360
-934.918762 -1021.080200 597.363281
-536.558838 -748.991943 604.440430
-221.113785 -949.215332 701.339966
-891.803162 -1104.937988 390.578583
-402.489410 -952.828918 450.051331
-648.308838 -1280.876465 878.891846
-428.596375 -898.480835 577.273193
-131.534958 -957.705811 650.554016
-948.433533 -982.224731 707.103210
-511.812927 -781.899902 614.848633
-65.641136 -884.822388 694.499756
-75.517731 -969.265747 602.792236
-274.059723 -796.327698 813.679810
-196.384537 -917.185486 698.768005
-518.801331 -804.094543 473.768066
-375.815033 -975.857788 595.190369
-704.705505 -1260.274658 540.843323
-847.170532 -1149.155396 479.499573
-909.906738 -1029.379395 420.540222
-74.637482 -924.802124 664.037292
-17.970102 -890.160400 681.506470
-93.984764 -986.129456 613.454102
-757.807495 -1253.846558 408.664581
-719.214172 -1147.442261 576.940430
-483.575867 -849.586121 392.254425
-770.560120 -1234.768066 501.949707
-404.981659 -936.789978 322.632782
-755.858032 -1253.028320 459.792847
-17.168341 -937.975281 609.202148
-756.439636 -1254.005127 372.263824
-888.924011 -1031.257202 477.151245
-795.228210 -1234.024780 402.926025
-183.944641 -995.732605 631.503540
6.671378 -869.237915 695.852051
-205.233185 -791.407104 803.391174
-498.819672 -799.624084 617.462097
-97.758919 -822.915588 756.816589
-480.301544 -891.365479 334.154755
-470.614746 -825.863220 485.328247
-328.486176 -1055.830322 448.593475
-577.448425 -734.575684 612.343628
-954.196350 -1014.207458 554.798584
-832.454712 -1155.719360 656.816589
-430.541504 -905.349609 484.957947
-65.485168 -832.077454 740.552734
-114.983185 -947.634949 636.635437
-732.055786 -1261.308960 390.251007
-51.266109 -899.463989 668.106750
-105.320625 -1029.165283 558.670227
-443.315033 -832.076111 739.543335
-874.194763 -1106.515747 605.352722
-709.260376 -1189.768799 494.586273
-427.012909 -949.837769 536.744263
-779.538452 -1119.966919 648.266174
-814.247375 -1151.422607 598.731506
-435.709961 -933.596741 368.935364
-272.832855 -901.696533 769.507202
-421.420868 -910.517334 549.224976
-911.763672 -1017.634888 591.115173
-893.741516 -1054.722656 508.378204
-493.525818 -827.937744 628.954590
-451.538544 -900.287170 440.310547
-249.850830 -834.353455 817.492310
-48.684261 -946.628052 609.092957
-756.269897 -1231.553833 747.457947
-376.365967 -989.962158 537.091492
-794.410522 -1167.658813 572.320313
-352.506836 -1052.741943 538.833984
-26.130701 -911.933533 652.838745
-897.440186 -1075.059204 649.883850
-500.079834 -809.079895 512.332764
-791.317932 -1241.169189 477.388580
-479.551636 -853.711487 389.654480
-71.623322 -846.364624 726.233948
-406.140503 -922.041016 685.748901
-427.565308 -885.092590 580.743469
-816.060303 -1153.857178 581.130005
-241.958923 -981.944397 696.870422
-888.149780 -1056.516846 592.357300
-748.016357 -1248.669800 337.333954
-436.510681 -888.822754 386.049774
-949.088257 -995.854004 523.623047
-511.021851 -799.996887 638.994446
-461.638397 -890.210022 405.880890
-246.092712 -823.361206 819.691345
-547.709900 -778.759521 451.904602
-409.227386 -616.177551 710.046265
-894.898682 -1005.076111 781.294312
-344.146027 -1029.711792 525.386902
-501.080231 -854.281494 408.460480
-440.357300 -880.881287 572.259583
-905.422668 -1038.529419 471.796661
-88.282310 -863.531189 709.649414
-262.128632 -936.103638 709.915100
-751.850464 -1216.114990 809.057800
-920.228577 -1026.388794 672.335144
-670.820374 -1248.224976 853.739929
-726.212158 -1257.900269 763.618408
-119.734192 -981.185974 606.697083
-439.902161 -911.865417 523.615540
-882.635864 -1100.821655 399.874481
-237.422348 -871.647278 774.796997
-915.573914 -1052.917480 541.596252
-436.295380 -707.082336 720.057007
-855.188049 -1081.649170 829.287964
-430.544373 -933.074158 442.824402
-342.417236 -1014.942078 687.772095
-897.272278 -1072.856567 405.404602
-203.918167 -889.871460 724.066345
-894.719604 -1087.288086 637.929749
-449.235260 -871.140869 521.712341
-837.876770 -1167.673584 374.175781
-883.582581 -1107.845215 465.016907
-707.094788 -1223.883423 415.205536
-877.797363 -1103.330200 624.924011
-751.567383 -1176.366699 639.087708
-696.356873 -1290.257935 980.748047
-902.343323 -1040.793945 533.030151
-49.472378 -867.954773 690.460388
-731.433655 -1146.528442 576.085327
-909.184814 -1021.479431 437.870514
-485.875824 -846.599609 406.812683
-437.554504 -927.474976 320.261780
-862.531433 -1047.555664 473.089142
-499.587402 -819.646484 424.429474
-306.479645 -871.623230 775.224426
-566.156128 -755.604248 575.321411
-948.916626 -995.285767 486.196533
-118.209732 -937.661804 651.786804
-371.281189 -1026.542114 677.909668
-955.721558 -1002.394104 497.317322
-122.713326 -972.609497 636.632507
-909.828735 -1027.195313 572.454102
-457.281067 -857.721741 557.950256
-912.690674 -1042.515259 717.862488
-858.830811 -1016.624390 473.528381
-959.956848 -997.952393 476.734619
-130.879288 -1043.930908 571.910889
-845.724365 -1112.932251 604.431946
-880.583801 -1060.469116 457.683105
-487.471191 -754.614075 655.671875
-515.471924 -769.125916 623.505310
-500.980225 -847.415283 349.239960
-781.256836 -1161.013672 574.973389
-391.319489 -984.605469 357.076752
-453.778351 -867.914551 369.424500
-412.989746 -941.976013 397.711548
-947.968567 -1001.888245 450.639709
-915.337219 -995.720886 756.052551
-868.149353 -1086.571899 726.283569
-741.957214 -1259.226318 353.067352
-764.187927 -1218.359619 855.961304
-694.942017 -1118.849609 602.873657
-554.730713 -767.938599 495.753571
-94.358688 -769.520630 819.295715
-887.766663 -1072.501587 361.878540
-950.382996 -973.503784 453.082458
-89.520271 -793.051758 783.638855
-722.931580 -1236.460815 493.994476
-342.339172 -1045.706909 569.135315
-489.225555 -869.938477 335.597687
-742.279236 -1269.552246 385.654053
-112.102287 -828.393738 758.430725
-700.885132 -1324.787720 437.917480
-672.524780 -1188.152588 419.679840
-410.546265 -916.900879 518.076355
-98.271523 -798.010376 778.449097
-483.375580 -749.901184 686.751160
-351.890656 -991.038513 594.704102
-424.666199 -951.579468 558.372742
-195.241943 -841.862671 761.247742
-230.018570 -864.851746 769.184082
-937.961914 -1017.100952 378.936737
-398.636536 -934.010803 665.042969
-951.070984 -989.916809 442.747589
-780.701538 -1236.176270 325.448425
-463.812378 -868.578369 605.530640
-737.405334 -1241.741455 360.899109
-516.167969 -771.217773 511.349274
-495.314819 -795.585999 682.875916
-812.967529 -1197.905884 356.742706
-665.094971 -1354.212158 602.054688
-896.536621 -1065.619873 628.008606
-195.430847 -931.220215 695.614319
-467.328430 -903.546448 394.164917
-477.155975 -864.080444 638.339844
-797.149414 -1190.281372 473.877625
-925.413635 -1008.511292 719.574646
-929.899231 -1026.693481 478.827942
-939.348328 -983.005859 740.017944
-12.668785 -899.297180 663.853516
-715.125244 -1244.441406 502.928375
-116.425270 -829.546631 746.844116
-53.625301 -873.799988 679.132080
-812.626648 -1144.215576 633.771606
-802.452576 -1168.110474 740.530518
-875.863953 -1099.577759 655.051453
-943.521667 -1011.331543 657.615784
-526.530029 -836.141418 399.457275
-77.044678 -989.723572 569.639954
-910.778687 -1032.643066 419.974915
-24.591257 -969.639893 584.962402
-234.809631 -968.924377 691.645935
-122.001175 -861.446106 727.306152
-917.959839 -1020.001404 716.228638
-522.361267 -765.563293 639.508240
-210.287857 -869.610474 756.315552
-306.236206 -1048.543457 590.894226
-718.163757 -1260.350586 812.847778
-873.558105 -1046.636108 460.688019
-49.657200 -846.635620 708.224365
-484.501678 -841.267334 549.905273
-528.564636 -800.670044 513.059448
-467.561401 -804.953979 740.344055
-435.812561 -893.703430 500.447021
-376.283997 -989.631958 486.527557
-721.994629 -1262.323975 913.545715
-954.422791 -991.488892 479.916626
-824.627625 -1108.089600 571.224182
-433.592621 -907.803345 715.061096
-414.003815 -933.965759 456.421265
-884.872986 -1003.892578 784.933289
-498.509399 -804.314819 610.294006
-359.022125 -1022.441772 504.741241
-740.633240 -1277.699585 462.290588
-835.827942 -1135.796875 616.079163
-390.748199 -943.387085 700.232361
-359.945465 -973.875549 693.720764
-57.993576 -989.348755 573.854370
-516.605713 -803.932861 631.373413
-570.012146 -744.853699 541.891907
-487.176971 -828.991943 689.329102
-917.156738 -1039.722534 542.926208
-419.255676 -930.412415 454.929535
-225.280502 -995.467285 645.662109
8.316038 -876.224426 666.133057
-725.261414 -1257.359863 772.369019
-959.621277 -982.284912 419.166016
-534.228271 -758.037109 663.871948
-771.972717 -1235.163574 303.869751
-272.218781 -911.278870 751.708496
-509.160095 -764.750732 637.172546
-752.391052 -1257.289917 397.130707
-923.299683 -1000.711548 421.485901
-115.046730 -899.267090 690.439636
-521.357300 -750.891663 727.422119
-708.810730 -1308.183716 951.155151
-868.368774 -1044.496704 759.829285
-162.476944 -844.070618 763.995667
-110.743240 -965.797302 631.763000
-487.283173 -849.496704 346.140533
-534.124878 -752.773682 592.842102
-98.160286 -867.062805 702.080627
-944.983276 -1016.408630 581.579224
-767.483093 -1172.450317 626.283447
-894.167847 -1020.831726 866.287659
-858.893494 -1110.434448 313.768921
-942.808167 -1023.985352 541.232544
-630.807434 -1272.783325 818.707825
-476.711731 -850.810608 406.501709
-261.802643 -955.695129 727.133850
-281.306885 -923.217590 762.902527
-709.501648 -1239.949219 890.345947
-401.681030 -954.477356 420.042542
-884.572449 -1086.714233 678.290771
-309.112152 -1073.009033 600.642944
-489.410217 -827.372131 499.883270
-403.341370 -911.079834 669.778320
-21.014404 -862.513916 711.601868
-881.973083 -1056.124146 461.283691
-551.835510 -776.797668 442.386810
-580.456360 -757.722839 503.276917
-847.376648 -1080.999268 714.437439
-683.004456 -1248.814575 419.422638
-822.424866 -1157.473145 459.628571
-76.474777 -955.785156 631.500183
-725.853516 -1177.453003 637.368713
-693.863647 -1287.466797 566.413452
-255.124710 -953.202271 689.290710
-761.161987 -1207.012817 811.622314
-923.121155 -1023.602417 655.227966
-354.080627 -1015.954590 599.848755
-387.818359 -975.416016 446.970032
-862.976074 -1163.601685 434.858154
-460.794098 -828.358093 696.950256
-785.722168 -1192.217896 827.859131
-852.664063 -1039.976685 823.194641
-935.948242 -1007.413086 753.610779
-121.303192 -953.813782 629.653442
-81.764992 -875.536987 695.574036
-798.915894 -1205.375000 482.072998
38.252636 -894.637207 648.655884
-766.255432 -1251.174072 353.600311
-570.180664 -750.124878 558.177490
-91.939232 -775.844055 788.989075
-508.467529 -804.518250 464.506317
-757.556274 -1224.595703 576.343384
-365.217346 -977.666687 705.671387
-496.715698 -725.281494 699.977112
-20.990812 -953.686829 602.186462
-670.669189 -1289.245361 377.717529
-712.255249 -1114.140991 552.771301
-413.670166 -910.820679 482.598114
-727.329224 -1266.926025 424.398743
-526.352783 -806.352844 430.094879
-130.269394 -985.930969 623.172729
-740.529053 -1257.776489 761.363892
-142.748764 -902.691162 700.889343
-503.074921 -782.212769 565.478088
-949.217346 -990.912354 810.389282
-697.078186 -1279.275024 475.313904
-965.182068 -974.371277 590.668701
-640.431824 -1289.337646 880.385559
-707.853638 -1248.655029 847.293884
-437.566681 -885.802612 539.521179
-762.384460 -1253.990112 454.975372
-80.330200 -793.992432 774.699402
-229.339493 -925.248291 726.951721
-565.760254 -779.892334 430.825043
-335.676453 -1083.720093 607.574280
-352.753204 -1013.846191 712.679810
-382.113495 -942.487366 681.629700
-936.515076 -1013.142090 525.537476
-385.700897 -998.432495 521.724731
-526.572021 -823.736572 369.024475
-745.206299 -1135.844360 698.925659
-698.701111 -1310.630615 590.376343
-849.589050 -1144.383423 477.004639
-801.735718 -1082.106201 765.856018
-830.895813 -1022.075562 755.473633
-956.381348 -997.420532 425.929962
-880.498657 -1087.683228 693.867554
-803.744446 -1201.659180 449.469940
-743.829346 -1286.383789 361.222534
-182.225220 -1035.746582 596.728271
-186.931946 -1003.362976 635.485901
-464.573944 -832.545776 617.740173
-521.709167 -797.503052 500.466919
-442.827789 -878.376343 580.220642
-188.875992 -832.162415 780.932068
-367.939728 -1011.430664 658.193542
-966.563293 -973.032837 546.007141
-867.408691 -1062.039795 815.946350
-524.054749 -848.809753 378.233215
-411.473877 -932.010864 695.292358
-24.644484 -1000.083374 564.484253
-904.609863 -1029.273071 427.121490
-478.154755 -817.049133 712.360718
-457.904297 -804.031677 724.862122
-213.100464 -824.051941 791.684387
-396.602814 -970.397278 664.125244
-524.415222 -777.523499 464.582733
-972.802917 -968.346130 487.529022
-435.441437 -897.769653 453.776337
-885.750366 -1078.531006 691.578613
-918.662170 -1013.269043 528.627441
-926.670288 -1014.772949 479.450134
-344.631653 -1015.283142 708.215942
-297.178558 -868.357727 809.908997
-401.428833 -923.545654 479.480194
-140.921158 -938.989441 654.673157
-897.178040 -1084.896240 358.605042
-146.689957 -1020.443359 585.122864
-541.598267 -787.817993 439.590668
-885.320190 -1036.302612 851.397827
-94.560890 -814.595886 761.130310
-847.570313 -1055.448364 741.651550
-874.184692 -1078.775879 717.255493
-914.367737 -1032.929810 668.737915
-227.521805 -800.699829 817.410645
-146.116257 -780.629089 807.304993
-190.905487 -860.591614 762.043274
-844.412231 -1171.669800 436.791107
-876.307739 -1135.929688 381.155029
-705.707947 -1311.385010 398.413330
-936.761780 -979.854248 596.774963
-547.123413 -764.653381 655.482422
-702.925964 -1335.450684 338.581177
-490.014954 -838.652405 392.536316
-38.373158 -841.580872 711.961609
-780.733704 -1162.664795 636.034302
-542.918945 -752.159180 716.182617
-855.807800 -1128.932861 563.834717
-506.029907 -802.632751 500.682129
-862.798462 -1114.686890 560.275940
-83.037758 -903.151794 673.604004
-361.764496 -1030.625000 580.557251
-732.189026 -1310.547852 318.912292
-185.998093 -882.707642 735.216919
-357.084351 -988.965393 518.126709
-562.622681 -751.734985 634.171509
-715.989990 -1254.665405 915.489563
-890.160706 -1100.574951 554.623108
-825.689514 -1197.453613 360.447327
-798.564026 -1171.422852 654.574768
-497.780426 -805.453552 439.170166
-783.879822 -1233.497559 379.856781
-739.591064 -1319.917236 330.460388
-923.380798 -1010.851990 508.201477
-765.391846 -1200.245972 841.744385
-875.672302 -1071.381836 743.800903
-377.699860 -1001.879395 727.734253
-926.120728 -993.255615 620.862915
-142.128830 -1009.833069 604.950928
-558.880005 -762.045898 475.903992
-935.249512 -987.415527 830.565063
-903.007507 -1063.295532 547.976868
-209.260849 -870.067505 754.926392
-360.327301 -1007.123840 684.632202
-848.986938 -1022.493408 834.846924
-469.674225 -858.585754 406.683960
-893.927429 -1063.273193 365.929657
-438.715851 -930.393372 544.954407
-899.360840 -1060.841187 530.081848
-105.835892 -797.641724 774.218628
-506.256409 -789.729797 474.132813
-217.513351 -914.238464 722.203918
-169.150635 -922.921509 698.551086
-299.159393 -1067.432007 591.049805
-94.799248 -944.901794 650.719482
-667.144287 -1135.402710 578.120911
-273.629120 -904.510376 757.446594
-920.417969 -1015.539185 428.872284
-279.148621 -970.513184 696.865051
-719.114441 -1265.073608 585.809143
-665.675476 -1242.811890 644.246826
-386.345825 -976.345703 410.946869
-326.922028 -1018.187622 628.010132
-470.071838 -858.576172 407.482666
-673.753723 -1402.609863 501.806061
-953.363953 -993.119202 535.199341
-834.102539 -1142.248657 671.434204
-317.524841 -1084.964722 564.166931
-408.560059 -968.213684 646.193848
-932.915344 -1035.858643 570.022644
-100.873985 -958.793518 641.189758
-944.103210 -987.154419 767.026245
-946.346680 -999.714905 433.687286
-848.733154 -1135.348022 483.690460
-896.927612 -1071.510010 551.136292
-70.308975 -834.914429 731.206116
-488.915161 -811.025208 565.575989
-917.084778 -1043.429565 712.093201
-11.160078 -924.426941 642.529602
-354.401794 -1029.645874 585.660767
-929.390808 -992.134705 643.152222
-710.338623 -1272.494385 818.632324
-975.994202 -975.858459 446.834106
-863.856995 -1136.532715 487.309784
-973.889343 -972.633301 606.903625
-463.862732 -841.528931 452.737701
-778.654297 -1248.137695 375.658142
-111.024597 -832.720825 748.276489
-228.467255 -843.091309 785.621094
-696.108704 -1140.840576 515.380493
-929.008972 -1009.389709 704.867676
-694.831238 -1228.234619 582.166199
-904.422852 -1021.446960 662.660034
-893.468323 -1065.405273 356.075226
-136.492020 -930.191956 677.915710
-202.962051 -882.925110 743.517883
-1.176234 -892.775146 650.974548
-427.545319 -913.758118 637.805969
-203.776169 -935.541138 715.954590
-152.495255 -844.093140 746.772339
-896.557251 -1062.561523 660.270813
-209.519882 -852.214722 770.852173
-788.011536 -1120.202148 654.300537
-809.120972 -1050.034180 756.812195
-821.756165 -1118.453979 680.820435
-648.779724 -1265.778442 639.167603
-887.885803 -1009.891541 421.245636
-374.870300 -964.084961 465.193695
-568.953247 -743.316650 453.335022
-842.804016 -1129.811768 700.912720
-778.628723 -1216.385986 360.727539
-850.696350 -1170.509155 430.193909
-555.495972 -750.823303 533.172424
-22.353598 -821.609192 762.070251
-3.044293 -882.767517 662.761780
-904.942261 -1022.410889 646.806030
-548.883423 -809.356934 381.965088
-861.769592 -1128.776123 346.032959
21.298735 -905.230286 645.111877
-844.328003 -1189.444458 447.695740
-16.913864 -818.693970 761.011169
-428.658203 -901.075806 539.607361
-486.956421 -793.522339 619.829102
-921.711975 -1037.821045 489.328949
-540.341309 -765.340820 473.519318
-382.800995 -971.661621 611.630615
-168.924698 -906.188110 710.893188
-481.552094 -826.966064 411.862091
-880.484314 -1012.091492 801.259521
-591.398926 -732.661987 574.012634
-447.356018 -888.759094 471.705383
-439.954041 -884.516968 630.061646
-515.700012 -773.866150 697.214966
-135.562149 -790.007202 786.515869
-684.486572 -1310.180542 1004.693604
-211.175491 -967.942139 686.785950
-428.845520 -908.909180 428.575653
-860.129395 -1097.387817 557.231384
-494.871796 -815.085754 655.130615
-304.812592 -926.155823 783.040771
-745.972473 -1220.584961 762.640808
-666.829529 -1140.020630 642.929199
-757.156677 -1219.711548 799.150635
-928.168640 -1045.144531 599.954529
-814.154663 -1191.296631 486.644379
-361.156921 -979.686829 669.798645
-910.406555 -1065.708984 433.657196
-295.610413 -1073.749268 498.705658
-409.414612 -980.356323 520.435547
-937.285156 -1021.867920 597.121338
14.792923 -871.040405 674.965515
-827.945435 -1135.475830 714.533264
-895.894409 -1040.599487 600.320190
-574.832275 -748.307739 445.928772
-899.528198 -1038.042847 449.929993
-774.566101 -1154.887695 763.578186
-926.749268 -1040.347534 652.037903
-910.068665 -993.891602 729.722900
-406.166962 -948.416382 458.433594
-753.442322 -1180.977295 525.184937
-846.146301 -1132.818237 488.712799
-105.208672 -919.640076 668.016602
-431.827911 -913.837280 424.828979
-933.143188 -1007.693054 660.695251
-541.183777 -825.898254 408.009338
-425.737579 -921.815735 431.389374
-526.435364 -768.341431 490.322815
-933.796997 -998.377441 730.206726
-918.631958 -1058.827271 621.759888
-271.984192 -872.541321 787.952698
-825.612000 -1118.951416 706.800110
-487.165680 -815.281494 591.094543
-473.078125 -829.631592 626.436462
-540.209167 -788.537476 507.969849
-36.852097 -919.596191 623.893616
-70.092224 -830.093689 723.395386
-748.242676 -1071.422485 565.914307
-491.836426 -827.276306 607.480774
-416.126740 -914.521667 469.764801
-185.381088 -867.422485 755.704102
-522.032837 -799.328857 434.398560
-549.034668 -758.135315 651.391296
-842.630432 -1156.051392 328.283020
-200.012878 -902.499451 728.427185
-904.013428 -1066.725586 612.393982
-270.695618 -823.140747 827.091064
-841.088928 -1132.590576 402.481598
-139.814713 -790.159607 797.949341
-463.299927 -863.460938 422.394897
-876.709900 -1058.620239 674.229675
-878.946899 -1096.333374 523.416138
-455.320801 -887.526245 630.335815
-140.710190 -893.349121 705.400330
-926.696716 -1009.425049 733.659119
-92.900749 -781.695313 814.286438
-465.114044 -846.996094 708.420959
-324.471466 -1032.755737 444.093018
-96.275871 -856.632935 724.014587
5.636923 -935.863281 606.344666
-754.384338 -1251.037476 488.218903
-143.974701 -1012.334106 590.726746
-543.168213 -746.827942 583.250549
-675.377563 -1284.378174 340.842651
-568.393433 -776.326721 419.717987
-555.558105 -740.716370 542.100830
-805.665710 -1184.259644 758.906555
-837.671997 -1166.952881 336.360046
-492.841400 -788.076843 689.331299
-506.531616 -816.785583 492.969299
-475.892700 -873.019592 534.174072
-472.046143 -891.892273 374.244476
-367.843964 -987.937073 597.988281
-344.214752 -1028.554199 624.884277
-462.678131 -738.831604 683.125000
-539.567322 -801.263489 421.641602
-480.421539 -846.692749 438.532562
-881.038818 -1063.370728 614.850708
-406.990845 -976.335999 601.731140
-3.935624 -851.679138 699.157959
-51.451138 -816.227356 739.338074
-198.945267 -830.761475 791.041687
-703.013672 -1166.868408 692.291870
-965.169250 -957.142456 517.611389
-24.529854 -984.305725 570.864685
-191.649551 -814.954773 796.998657
-595.010315 -737.605164 545.174866
-702.545593 -1298.629395 925.111511
-414.546387 -945.599731 351.706757
-122.652458 -1002.308105 585.658691
-171.005524 -929.103516 701.351685
-938.793518 -1004.003357 726.911987
-485.678345 -871.886780 345.354889
-144.350159 -916.810547 688.401794
-450.875977 -879.214905 496.927032
-485.891144 -832.251465 640.436523
-395.960144 -1004.265747 459.406433
-85.411407 -880.098694 694.124695
-956.619507 -995.760559 409.913239
-824.931213 -1207.340698 447.086426
-823.126709 -1155.655396 481.397522
-245.131363 -883.811523 760.067749
-704.500854 -1299.143188 405.271576
-331.831451 -1070.030029 581.061829
-203.386978 -1001.924744 648.284302
-903.606323 -1028.340942 796.045349
-141.388138 -838.262390 768.567566
-737.113647 -1245.804932 510.071747
12.139799 -899.874512 642.628662
-12.762164 -870.550659 684.252869
-566.968262 -768.350891 471.448700
-721.384338 -1287.181885 363.517273
-57.955921 -905.940247 666.026123
-119.540802 -932.014282 661.650146
-504.649475 -758.531921 683.780212
-517.994141 -775.717468 561.780518
-354.577820 -1014.060303 626.359741
-440.011322 -911.928345 316.977814
-117.442787 -794.741150 778.718262
-377.415955 -1012.835266 517.018250
-837.012329 -1114.667725 645.922363
-203.062225 -999.842773 624.518066
-476.097626 -840.293457 616.092834
-82.515343 -854.071045 715.261780
-793.819763 -1088.146973 714.505188
-834.976990 -1155.677246 648.950256
-577.894897 -740.873474 592.479370
-69.604507 -988.615295 589.348389
-890.820557 -1043.489380 463.049255
-453.370300 -880.290955 470.900879
-352.926880 -1018.085022 475.144226
-103.113846 -789.548523 790.313049
-378.574249 -958.376526 406.522949
-430.986420 -907.947327 483.732758
-496.697083 -794.567505 510.726379
-808.552246 -1197.824097 348.672791
-237.816544 -1031.596924 643.672119
-485.194733 -839.828918 378.028809
-212.570450 -836.633728 793.800537
-513.987793 -808.065918 471.856689
-111.732819 -807.786804 773.526367
-763.629272 -1206.412109 777.909668
-842.327148 -1088.027588 706.175842
-733.093445 -1259.738525 353.091827
-804.869202 -1082.119263 733.994568
-406.235687 -923.354797 662.051392
-883.006226 -1101.536621 580.590454
-350.184662 -1026.947021 593.894592
-269.967407 -863.231140 778.757813
-748.299500 -1229.503540 859.583008
-943.439880 -1006.736572 650.895569
-938.978027 -1026.099365 575.828247
-730.422729 -1245.346191 847.972656
-43.786598 -959.199402 599.572754
-847.499207 -1047.974121 744.462830
-379.882660 -954.702759 384.821747
-374.115051 -995.412231 371.278473
-868.360779 -1080.565063 839.488220
-882.429871 -1069.609985 521.557007
2.689508 -849.034363 713.402954
-32.291302 -812.550476 739.960144
-432.255737 -908.523315 547.724121
-509.492828 -804.680664 532.067200
-807.040833 -1205.198730 340.414063
-965.679688 -989.565857 516.276917
-168.589355 -819.221069 782.379150
-49.410461 -917.231384 646.971436
-900.918396 -999.681091 779.813293
-257.293579 -896.789001 755.394409
-895.610840 -1080.543945 655.784851
-393.058289 -979.890381 619.698608
-937.126831 -1000.378357 688.283386
-19.794172 -832.088318 741.373718
-957.150818 -1006.539124 578.272339
-723.711182 -1068.302734 540.426941
-942.722778 -974.855225 565.958740
-531.022400 -775.962646 579.936890
-923.250061 -1014.460144 531.805847
-45.869164 -890.262024 661.434753
-10.620795 -927.615845 620.581177
-830.290405 -1154.531982 499.800110
-829.618469 -1097.338135 498.286255
-55.692902 -821.318542 737.134033
-847.991699 -1116.551514 546.786621
-778.628174 -1220.815186 368.749817
-527.539063 -837.953735 392.826660
-928.162292 -1033.725464 685.402893
-868.711609 -1037.942139 744.105713
-904.031860 -1027.332520 465.734985
-158.402710 -834.393616 766.955933
-760.201965 -1250.676880 526.311096
-924.562378 -1016.691650 829.009460
-889.520264 -1091.306396 660.562378
-226.663864 -952.065918 692.263977
-931.376221 -1001.496094 728.098145
-931.320374 -1002.582825 399.444000
-530.682434 -751.197083 603.778992
-700.023071 -1321.018921 984.923096
-141.529892 -844.203308 737.298828
-928.885803 -988.586914 795.358337
-861.229797 -1111.079712 682.287476
-76.624565 -900.113098 664.588623
-812.835571 -1104.076660 530.378052
-353.512817 -1016.111145 612.311768
-790.132385 -1180.581665 776.402100
-215.927460 -853.603882 772.449463
-193.856628 -959.586731 659.280945
-700.881714 -1269.500122 971.066467
-502.372345 -796.609131 460.595001
-39.633961 -824.064087 735.262085
-53.944511 -823.837891 725.946533
-552.560974 -788.817322 399.942322
-204.579102 -835.383423 781.605957
-722.230164 -1217.890015 726.129028
-431.075470 -929.798889 465.402344
-862.053467 -1042.454224 744.481323
-105.206848 -870.527161 717.195374
-825.797363 -1173.854004 414.564789
-111.311127 -847.874390 729.100647
-82.648254 -830.446289 739.428955
-198.941010 -918.130920 727.003052
-539.743408 -756.945923 658.574646
-702.875488 -1090.123169 563.246216
-861.005981 -1084.457275 643.719849
-432.279877 -945.460327 376.986633
-933.324097 -1036.044800 630.663574
-479.598572 -837.904541 594.081177
-18.766129 -874.789490 676.027832
-808.201721 -1156.672729 739.085938
-171.142807 -913.751831 713.214905
-817.524048 -1103.486206 473.048492
-826.628540 -1059.468994 736.803284
-72.561310 -925.024719 649.966492
-359.742798 -1024.932251 657.737061
-423.539581 -920.706055 672.979492
-752.125122 -1142.958740 675.980408
-797.116333 -1199.917114 351.571320
-261.230530 -870.141296 779.503723
-470.713043 -813.628113 691.394775
-230.961670 -863.269958 781.341309
-542.481628 -776.102905 407.910858
-568.644897 -751.510986 485.136017
-543.841125 -799.579346 422.463989
-460.366882 -852.521423 532.994324
-515.290222 -805.495789 502.650146
-725.538940 -1145.157959 664.365051
-101.873589 -851.620300 723.650513
-411.282532 -916.559998 447.779572
-348.294067 -1039.655518 522.616211
-122.217743 -895.500732 705.436707
-195.693481 -827.877930 787.674866
-931.889282 -1035.474487 646.281738
-949.134277 -985.149475 641.262146
-949.270996 -978.502869 701.654297
-377.043823 -980.055664 438.258667
-265.698914 -835.669983 801.746521
-168.598633 -971.074768 655.484741
-795.747681 -1191.173218 437.867706
-889.221924 -1092.159424 657.544495
-919.239014 -1015.212646 802.008240
-923.021362 -1019.180847 469.222870
-735.358276 -1194.100952 569.807312
-485.913086 -865.110718 391.510742
-327.835449 -1061.319336 502.411377
-523.940857 -776.944580 571.435425
-899.999390 -1023.268127 784.669556
-511.662659 -852.296936 364.571136
-936.458679 -1002.898193 834.744568
-164.040085 -1017.903625 589.548218
-744.449524 -1228.866699 567.030518
-867.652405 -1097.623779 715.142700
-889.911865 -1076.859741 664.030029
-78.980736 -864.831970 696.754456
-245.949753 -877.097961 765.843445
-946.124207 -1015.705811 384.488983
-887.249329 -1090.964844 622.212585
-79.657310 -914.158752 650.647583
-77.400352 -906.693970 682.603027
-325.371338 -1031.441895 542.859741
-915.568298 -1057.242676 388.285614
-516.297607 -761.284973 616.846802
-500.137421 -872.747681 338.688477
-183.775726 -905.949585 712.882690
-862.993652 -1100.972534 369.630554
-149.140869 -943.249512 654.294861
-521.057373 -807.586243 531.971680
-875.062012 -1094.060669 464.598053
-175.222504 -798.470459 805.732666
-844.254822 -1032.353027 734.509216
-425.224152 -904.507935 697.652710
-488.950012 -850.410095 576.460632
-946.730530 -1007.495667 389.307526
-859.533691 -1085.803345 729.183899
-913.074524 -1064.202759 543.333252
-770.217957 -1133.751099 561.195557
-188.146332 -962.462708 678.143677
-25.671423 -918.354248 646.674255
-877.369690 -1039.132690 736.747681
-468.503937 -857.829285 409.938538
-63.509018 -953.616821 622.529602
-404.953552 -921.282959 422.102905
-414.881470 -918.448303 637.522949
-927.695923 -1017.417786 443.600983
-518.158691 -819.868286 390.521942
-896.070313 -1040.817749 592.352783
-839.704773 -1072.544922 826.166016
-797.759521 -1238.494995 342.970856
-324.322205 -1075.244873 587.500366
-378.086182 -986.522827 472.653534
-180.338974 -900.884399 718.551270
-534.328674 -741.698975 648.719055
-411.454407 -979.798096 439.968658
-466.240326 -862.618530 433.954071
-361.838501 -997.208557 401.866180
-796.954285 -1222.446777 394.827179
-92.873573 -923.029480 671.477905
-156.400681 -892.185791 725.433044
-404.485321 -941.532043 681.313171
-403.641022 -922.181030 443.514374
-429.895508 -887.046326 701.444458
-550.985291 -735.410828 616.126587
-707.827393 -1321.813354 942.288879
-222.994705 -996.156128 651.335571
-846.253601 -1114.132202 734.350830
-566.847168 -778.469116 438.020782
-782.765869 -1137.492065 523.894470
-422.683319 -894.122620 660.050964
-82.376282 -919.309998 658.413757
-877.835144 -1094.306274 514.578735
-823.872314 -1017.039856 494.785858
-438.932800 -616.653259 692.050110
-44.985004 -871.866150 703.568115
12.401455 -864.815247 715.528259
-660.664429 -1324.797241 948.328064
-121.905182 -817.020935 778.206848
-30.197622 -876.777832 675.247314
-591.951843 -715.586121 557.987366
-763.267273 -1237.440308 808.829651
-491.113831 -816.997559 492.999695
-841.190308 -1041.825195 796.104126
-693.863647 -1282.845093 921.331482
-780.215637 -1220.347534 552.770325
-778.574585 -1201.955566 831.033936
-974.461731 -977.613586 497.110046
-437.759613 -905.664185 330.968323
-392.609344 -990.492249 462.958862
-830.518372 -1064.528687 729.621460
-938.008362 -1002.471558 478.841461
-399.646088 -952.700439 753.594116
-138.031281 -857.317566 745.241516
-146.557449 -994.467896 614.366882
-394.808105 -936.060608 542.185364
-440.868225 -869.010071 507.879608
-930.262939 -1012.867310 364.477570
-428.443726 -892.090820 669.003723
-740.240967 -1278.035400 449.540833
-488.438843 -819.317688 540.136597
-396.316193 -962.254517 434.844788
-875.310486 -1067.603271 433.850098
-852.687927 -1013.169250 474.783417
-427.919128 -886.189026 602.895996
-879.322693 -1060.671753 466.762909
-939.256775 -1001.697266 476.994354
-180.003082 -1005.551270 616.859924
-530.167358 -761.617798 503.543579
-77.936440 -913.987671 678.541809
-492.637604 -857.218018 390.003540
-212.322464 -1000.082336 618.343323
-607.184998 -719.415344 553.594604
-21.448938 -883.760681 675.829590
-815.051819 -1165.865234 413.983826
-463.062836 -862.259888 533.553711
-459.792725 -843.189636 491.314728
-876.093140 -1075.321411 545.739014
-942.928711 -1014.598694 508.846832
-762.453979 -1163.396729 706.296814
-403.632324 -938.258850 593.560852
-77.598663 -870.183350 707.167419
-765.501160 -1212.014404 851.246399
-359.405670 -1016.297180 430.124084
-360.384735 -1023.567810 649.365723
-395.628784 -975.791016 615.155090
-489.579346 -821.723877 473.023529
-873.548279 -1052.659668 785.574646
-18.126146 -836.845398 767.000549
-562.686646 -741.151306 599.542297
-446.954926 -901.755249 513.126892
-171.779465 -790.822388 806.560181
-956.122620 -998.913635 655.247437
-792.728271 -1151.583618 585.662964
-168.669617 -812.800415 787.718384
-889.200500 -1073.212524 339.349335
-260.710999 -837.214172 802.800415
-864.735413 -1139.001221 426.594299
-412.599548 -958.891846 668.240356
-562.897461 -750.263184 496.631683
-826.765686 -1121.672974 627.295715
-924.741760 -1036.912476 442.178833
-813.654358 -1040.944580 727.616089
-449.352997 -883.954773 503.588654
-37.730740 -888.987793 678.257080
-809.894775 -1167.554077 750.067200
-701.485718 -1131.056152 584.719849
-33.353737 -873.477905 683.524902
-761.312134 -1113.910156 639.283630
-779.025696 -1232.576416 487.378357
8.417548 -863.846313 680.159180
-856.317383 -1114.850830 543.452820
-108.452400 -943.878967 637.804688
-66.303886 -893.310120 685.827454
-940.757385 -1020.678345 662.375244
-396.516327 -921.321655 671.152893
-37.012783 -864.948303 694.750854
-490.916473 -801.470886 530.199524
-712.877747 -1278.204468 717.066406
-155.852585 -1023.526184 587.195618
-799.121399 -1217.853027 398.374756
-383.830719 -965.940308 568.933838
-96.345840 -785.049255 796.466125
-414.664185 -906.899170 530.971619
-889.310486 -1011.541382 769.718384
-417.187408 -947.647827 517.047302
-258.536041 -877.284241 764.868896
-374.883331 -968.333008 716.071350
-407.273071 -938.768860 410.166199
-857.278503 -1070.275146 794.091431
-349.968689 -1042.695435 627.301697
-448.169373 -900.416199 377.341827
-254.098541 -862.859375 784.708923
-556.214355 -751.143860 570.205200
-806.077515 -1164.544800 671.725769
-834.737000 -1148.943604 706.840759
-32.314339 -830.444824 720.548523
-787.569946 -1130.659180 794.975342
-144.403793 -851.039246 748.320618
-877.932983 -1141.604736 373.251495
-113.379982 -847.616272 730.355408
-210.121063 -938.748413 305.411926
-819.786194 -1128.355835 710.295349
-392.959717 -979.227600 385.744446
-488.650604 -829.069092 392.514740
-15.697408 -903.824463 642.016296
-134.010422 -1008.760742 591.347900
-521.668030 -776.432800 561.094849
-386.832428 -1019.190613 480.446014
-927.676147 -1019.208557 598.869385
-883.508667 -1071.516235 434.771515
-96.258522 -883.931152 699.012451
-727.032043 -1130.885010 572.228516
-862.593079 -1135.648560 352.983032
-931.077271 -1048.637817 431.016907
-368.160126 -976.558960 488.338409
-374.207703 -962.214661 611.649292
-239.657257 -847.414368 806.452271
-58.019764 -956.207642 625.819214
-161.000885 -801.733215 795.077332
-162.497406 -1018.563171 595.281555
-55.158321 -782.047485 773.441895
-909.686768 -1008.900330 803.351746
-59.382923 -798.490540 756.576965
-935.901611 -1055.895874 388.641296
-535.848145 -760.599670 605.085632
-476.935303 -803.412903 722.088379
-160.541977 -802.745667 781.158142
-843.856201 -1152.304321 413.644348
-931.573914 -986.725952 604.899658
-156.911133 -981.646179 649.232605
-709.971863 -1254.070313 734.595032
-458.453339 -867.404968 573.039612
-453.173859 -892.120911 393.616028
-904.626587 -1036.612183 443.759705
-13.400848 -878.931519 690.473633
-957.788086 -989.044739 543.024170
-388.040588 -674.211914 731.201965
-559.369751 -748.259094 501.453094
-447.857269 -850.370422 624.133545
-783.266724 -1230.838257 453.334869
-543.763062 -766.287903 592.941040
-588.336243 -752.737305 564.946106
-514.883972 -789.096863 497.609833
-880.657593 -1106.520752 360.295563
-492.874817 -883.100281 327.248993
-828.847839 -1113.881836 817.961670
-825.261719 -1175.859619 483.486938
-526.631836 -795.118530 585.287537
-517.255066 -826.609314 394.043152
-912.587280 -1052.027466 370.660156
-576.202881 -736.539734 483.978271
-195.706696 -861.478455 760.437561
-65.074280 -905.190613 669.917358
-761.220764 -1155.688232 641.791870
-907.448425 -1020.072144 771.699646
-178.512375 -789.803589 819.025330
22.245224 -900.723999 644.386780
-265.580719 -975.578430 677.423950
-873.271179 -1059.938965 700.468872
-73.185448 -895.209473 686.750488
-851.226685 -1127.006958 614.844788
-82.147896 -904.636292 671.028442
-734.325439 -1270.502686 373.982025
-60.709007 -912.013550 644.322144
-870.445923 -1113.689575 609.891968
-231.292557 -991.881775 671.979309
-727.911316 -1039.492188 504.977417
-63.356743 -928.908447 633.668030
-781.946838 -1188.727539 546.825928
-587.734436 -758.352722 500.208710
-415.357880 -914.941772 638.513306
-444.585754 -875.375916 644.934021
-920.328735 -1003.525696 686.954285
-308.217560 -1092.753052 599.515259
-124.239418 -855.113281 738.899536
-435.348633 -909.026001 643.201111
-829.815735 -1164.902710 458.114319
-549.289429 -761.025146 483.968445
-528.497559 -862.679504 357.369934
-792.060608 -1197.355835 430.136414
-844.844055 -1146.703735 445.883118
-549.319153 -789.561584 441.827087
-496.934479 -823.860962 431.396912
-553.307251 -816.287354 415.160980
-135.977478 -937.268616 666.938110
-953.448303 -1000.970642 644.263367
-509.007751 -777.242615 613.761169
-507.572113 -821.008667 462.586700
-577.187561 -799.490723 436.112762
-754.092224 -1250.547363 298.492981
-762.521973 -1241.707153 543.163879
-253.263885 -936.864685 702.165710
-935.853882 -1011.565308 515.647522
-171.661850 -877.527649 733.302368
-897.898621 -1033.550171 663.193970
-230.800964 -844.408203 787.580994
-406.803253 -933.216003 530.779724
-913.320923 -1033.709595 841.406128
-545.337463 -750.805664 520.955322
-48.712486 -1020.218994 566.790649
-452.677612 -864.489807 383.014404
-684.597290 -1353.881714 459.851746
-498.019653 -785.483643 607.095764
-415.606049 -894.306580 689.933838
-906.904236 -1018.608887 856.810120
-803.741699 -1195.800415 512.529114
-397.538910 -935.541199 458.667725
-129.262283 -1011.721375 579.236084
-689.302856 -1325.433105 574.007629
-434.135986 -927.441040 545.277771
-756.145081 -1117.439087 633.600525
-160.816269 -1012.401489 608.480591
-362.968842 -1010.415894 577.214172
-99.282181 -770.184753 800.294250
-132.743484 -877.707520 721.580872
-500.019257 -888.614258 343.869720
-486.296844 -916.510071 325.936646
-153.426575 -839.141418 758.898682
-878.452637 -1041.994629 729.131958
-743.274231 -1231.388916 863.225037
-84.061378 -910.308533 657.970764
-841.562439 -1119.734253 516.218506
-200.762573 -804.598450 804.930054
-187.879593 -928.096497 714.583191
-369.302673 -987.645386 679.668518
-672.304871 -1306.422729 329.093536
-61.697823 -914.860657 679.380554
-856.958984 -1152.145752 394.061707
-218.978088 -986.717468 680.734375
-841.324341 -1141.474365 321.165070
-526.627747 -751.526672 709.414490
-89.054390 -950.263428 636.694763
-841.326477 -1038.371460 521.451050
-580.232971 -732.057129 516.600830
-781.860718 -1217.313110 547.500488
-837.332886 -1133.963745 625.276733
-916.401123 -1030.343262 820.086426
-945.800415 -980.950134 430.470367
-705.282654 -1312.522339 389.319031
-169.276428 -828.180481 771.885315
-920.246582 -982.307922 850.109558
-211.670700 -1031.107300 613.368286
-185.443390 -974.887207 670.599304
-159.412338 -789.154968 812.345520
-483.121918 -833.419312 453.650299
-722.814941 -1213.059570 837.372253
-461.730438 -852.042969 587.130981
-885.469421 -1053.077881 685.174866
-22.047220 -900.533020 652.491821
-505.197540 -809.390259 601.433716
-497.836273 -801.888123 610.122864
-71.676529 -807.989685 755.429199
-388.125793 -939.830261 662.896179
-102.270943 -857.662903 730.172058
-71.159653 -948.023865 638.436523
-99.768173 -785.826843 816.884521
-773.737976 -1177.811401 486.613342
-307.405548 -906.508972 814.173889
-813.029663 -1196.709717 404.454193
-537.422729 -761.800049 500.223480
-192.661804 -986.873657 656.590515
-449.732300 -877.459473 460.667633
-882.591858 -1079.663452 360.249115
-826.132813 -1116.821655 757.981934
-922.646667 -1045.278564 503.952606
-424.738678 -936.144653 514.112793
-457.801941 -887.712646 593.240540
-255.160507 -821.243103 826.539551
-118.428490 -830.322266 767.560425
-871.714600 -1122.874268 568.769104
-797.979126 -1167.771240 793.456604
-940.906311 -1012.791199 702.923035
-403.805756 -940.113647 542.583740
-329.323792 -1081.843384 515.987915
-467.125610 -833.076050 520.843811
-484.110138 -737.838257 664.014954
-664.264343 -1413.242310 598.652893
-554.513672 -778.556396 451.900787
-886.944275 -1067.441040 689.613159
-791.895203 -1244.137695 429.887451
-411.386719 -900.106873 646.064819
-329.417175 -1048.574097 521.000061
-504.296051 -851.205383 363.050995
-105.896812 -783.714905 791.483459
-808.083984 -1205.296997 366.677795
-944.098755 -1008.206360 664.572754
-867.509033 -1091.493774 401.755096
-820.900330 -1165.658813 684.575378
-499.874603 -801.768616 471.821716
-602.409485 -739.128296 516.713257
-727.704163 -1255.608765 767.534485
-790.922913 -1066.376465 716.391663
-777.733582 -1125.783325 751.019775
-745.743225 -1241.630371 487.264252
-486.346069 -833.286377 479.557343
-817.675476 -1188.763550 426.620392
-791.912964 -1225.266113 368.167450
-573.198792 -789.568542 447.022491
-667.555786 -1198.073486 621.922913
-477.888702 -851.778870 376.697784
-734.813416 -1103.032104 638.690247
-117.701180 -966.721558 631.547852
-582.311890 -749.616455 596.347656
-737.696777 -1265.257568 498.825104
-369.632141 -995.772034 586.539734
-847.409424 -1110.983032 741.442993
-815.754822 -1179.948608 506.773926
-849.805664 -1060.056763 784.667358
-255.626816 -945.493530 714.046631
-404.090637 -950.781921 628.143250
-652.907227 -1388.392212 470.515259
-764.113892 -1238.742676 573.331360
-343.761261 -1028.572632 557.834656
-52.073517 -851.817078 721.712952
-880.987549 -1017.826050 834.267761
-857.286682 -995.596558 783.607483
-72.420586 -794.609741 767.905396
-412.094635 -922.655518 386.121521
-468.791626 -904.916748 316.431549
-20.464277 -927.286804 633.948730
-724.370605 -1171.468506 588.632996
-969.835815 -968.637268 426.422302
-194.824203 -897.115356 725.787292
-491.591156 -851.696228 468.338562
-572.268066 -739.227417 551.104187
-902.375671 -1068.262207 392.027771
-695.780212 -1297.961914 986.242859
-827.740601 -1173.375000 330.127289
-117.506363 -846.973694 743.459412
-842.006897 -1122.633789 521.993347
-359.593262 -999.794006 617.140015
-823.855652 -1182.115845 378.819122
-905.091919 -1072.899536 533.410278
-494.847046 -835.618835 480.957794
-416.712097 -890.702332 667.028320
-892.394897 -1013.790405 773.791504
-764.157898 -1247.075806 362.267059
-428.477997 -884.877502 464.967743
-410.786743 -931.460083 532.774109
