ply
format ascii 1.0
element vertex 1396
property float x
property float y
property float z
end_header
1382.971558 288.387634 -315.969849
1364.134521 602.975586 -380.990967
916.017395 422.955170 -358.478271
1378.944336 508.709106 -457.911011
1402.342041 639.020691 -153.066101
851.155029 836.422485 -68.802559
1379.189575 641.077271 -504.641571
1411.559570 671.731018 -156.029846
905.876099 440.416351 -344.879059
1465.516235 643.049011 -12.681026
799.084290 825.062805 -196.586243
646.728943 847.424683 -354.211365
1430.510010 645.849854 -113.860443
1379.383179 419.742493 -428.660034
1440.788574 626.174438 -19.819790
815.307190 844.133972 -53.261250
619.426147 901.755310 -177.594254
1421.824585 769.234741 -233.747818
1457.341675 734.782715 -247.287170
1336.623413 508.254517 -454.075165
944.919556 454.276001 -232.670334
1371.456299 411.317963 -463.518799
1365.143921 484.486664 -475.935822
1436.977661 432.707153 -128.610016
963.859192 754.401550 -306.416443
963.621582 457.078156 -182.981659
855.507568 826.399170 -170.003815
973.197754 648.414246 -137.153763
1349.407349 422.816467 -567.519165
686.089294 867.429260 -194.517075
792.197754 826.434265 -317.976959
678.540894 888.979858 -105.711006
1414.057007 568.241150 -256.665985
1436.250854 403.422272 -133.642578
1428.560059 524.109009 -248.846359
791.138855 836.215942 -223.472580
981.920593 635.928894 -74.603531
1373.799316 327.622406 -271.800720
701.296875 848.920837 -262.490326
1417.846069 380.908234 -96.032349
1385.550903 295.088226 -273.638611
954.277466 442.151825 -152.452271
998.739258 528.394653 -27.374538
1388.999512 391.125793 -248.473709
916.236511 552.768982 -426.160522
1403.503174 307.717865 -209.807373
890.448364 800.039490 -172.484695
942.695923 668.289612 -357.591339
776.504089 808.714722 -344.786499
869.429077 829.858093 -229.656296
1327.190552 402.579285 -589.550293
1382.702393 348.683197 -266.974335
1381.773071 413.460846 -416.284027
1387.312500 352.362122 -353.905975
1444.850586 455.624023 -137.161469
1395.104370 613.051270 -125.410057
743.561707 859.216736 -120.286598
935.273560 453.475128 -220.289978
816.052490 845.504822 -149.538162
636.691345 892.038147 -220.545059
1443.046753 490.270142 -127.076973
957.694092 445.475311 -212.980728
625.439880 852.778137 -356.692169
1416.728516 515.575684 -220.381683
940.821228 618.261719 -326.759033
1367.528320 491.411285 -492.580658
1365.207031 372.519867 -489.347473
1430.083130 495.647736 -215.356598
897.415771 827.252197 -233.550644
1360.989624 561.895325 -481.739990
981.078613 476.551453 -65.130638
1395.503906 291.090790 -201.692383
771.576660 855.452820 -113.152672
1455.435669 485.247772 -117.102524
935.887512 570.145203 -286.111237
1368.039795 273.125916 -333.316498
955.133240 407.608978 -157.247116
967.742554 551.473633 -201.927109
1476.097534 555.581787 -6.264170
961.648865 648.489624 -218.544037
985.588501 487.162720 -79.983345
1330.476685 595.176636 -237.155106
1395.895386 304.250763 -312.188049
1392.558350 583.269836 -190.583282
1379.318848 322.612915 -263.853973
1412.516479 759.957214 -284.405548
946.044678 702.621094 -368.227264
1389.537109 407.631744 -389.462250
1386.299561 377.835999 -360.959900
1409.364502 886.455200 -236.140869
1324.260010 550.341614 -457.027557
710.172974 869.560425 -129.455063
978.534668 546.493469 -16.607346
634.638123 876.013367 -281.837616
1436.577271 510.778320 -81.752373
949.510071 568.050415 -252.564240
1355.865601 446.328583 -491.022888
929.185364 540.535950 -345.529633
1369.767456 412.925537 -467.595123
821.039551 850.880615 -97.136406
1427.293457 543.974365 -165.061234
616.727295 860.105042 -341.537537
831.171082 805.635254 -374.744110
931.699036 591.917358 -398.253998
713.905090 834.010498 -341.507660
978.734375 460.000702 -73.697929
975.450134 677.995605 -263.821503
626.087463 878.131592 -221.008041
1426.511719 605.171143 -179.125748
987.329590 811.353455 -260.988220
1416.359741 327.716156 -165.551376
1403.219849 599.080200 -135.587723
1441.454346 624.281860 -227.209991
961.825317 507.754059 -105.282616
961.831909 583.004272 -148.472961
1395.236816 323.739197 -211.453598
1426.399048 677.632263 -113.518066
1414.892944 311.844330 -205.583084
1354.805786 420.189575 -555.274292
941.414490 403.368591 -199.568512
1434.873657 629.311462 -81.839897
683.176270 849.008179 -252.913589
846.731628 835.672852 -77.778908
905.434570 828.965637 -200.524597
1390.121338 404.534760 -429.389069
798.684570 820.974304 -317.977570
1357.123169 578.090088 -457.034515
956.620728 618.820984 -281.741425
952.770813 389.647522 -140.812241
985.456787 619.783203 -23.494762
1376.948486 412.219269 -275.141418
1449.525146 478.356323 -152.384247
953.181213 661.660767 -30.606663
978.277222 392.571472 -140.440018
1383.364014 618.848572 -547.451233
1427.957275 562.460205 -40.060513
1443.728027 703.438232 -188.608932
812.552734 788.551758 -402.220642
841.799011 825.450317 -274.104706
1404.801147 412.208435 -283.484528
891.419800 531.828491 -413.596313
807.026978 832.502563 -193.296295
715.388245 852.419739 -155.941971
963.005005 626.307068 -108.317291
1329.257080 435.438599 -598.245422
954.026794 452.243958 -105.230362
1370.699463 603.380859 -162.715012
986.088928 703.959229 -281.387726
989.035339 458.401703 -52.205303
843.265442 820.349854 -284.985657
901.222534 457.111359 -347.977142
1440.764404 615.858521 -189.275467
636.125732 880.622681 -200.566956
737.970398 818.405945 -357.188751
965.202393 713.721375 -240.492294
1428.939697 430.648468 -182.692001
824.611145 796.798706 -341.282532
1373.797119 701.800232 -266.251953
907.687012 499.172943 -354.498077
939.686218 465.055573 -295.160400
1431.333496 569.634033 -93.470718
1458.737793 567.031372 -48.994919
839.773804 822.920593 -153.433838
949.917542 705.594299 -390.425262
809.119995 820.064758 -300.555115
866.503662 819.884277 -272.529083
1367.293579 573.639038 -396.698334
775.980042 819.087524 -352.612823
1440.214478 600.772522 -73.116760
726.383362 847.800903 -217.650558
1389.236450 273.531799 -254.260254
769.778015 845.025635 -70.053375
1429.478760 439.261230 -228.629639
1386.485596 427.255859 -218.155411
1391.982910 398.069397 -231.624817
1353.908569 318.598755 -430.710327
1350.892334 496.735992 -499.792633
776.923218 806.673584 -344.096436
651.025818 885.467102 -141.952316
1404.963989 266.030762 -273.018036
1444.858398 649.633911 -128.798340
958.601501 661.058777 -165.256622
939.185608 426.273529 -288.863037
724.287415 538.522766 -440.246399
675.961609 832.109558 -398.232880
945.788269 530.972229 -227.975464
962.838806 557.264465 -240.786087
971.358704 592.772400 -91.544868
963.227905 519.043030 -92.318268
1396.841431 654.415039 -524.310059
782.351257 838.943359 -125.740639
1467.109619 621.278320 18.414974
759.558105 816.377258 -329.195770
624.818665 884.036926 -221.809677
941.123718 478.085510 -277.242035
1438.285156 451.863403 -131.999710
1383.740234 286.143311 -227.168793
957.881836 619.676819 -183.092056
1337.278931 431.945648 -554.629883
849.359680 746.892700 14.993998
1425.082764 450.396637 -107.307587
968.568115 456.131592 -71.719231
929.363586 634.673157 -403.432343
1387.585449 432.170502 -265.618164
971.645874 426.833008 -105.140099
1366.336426 354.049316 -466.565887
920.433533 366.237671 -343.214569
1429.200806 579.742981 -83.428581
1448.014404 785.572632 -208.473236
1397.837280 283.587494 -170.252151
1412.415771 546.046997 -252.991196
1396.160889 598.916138 -271.835358
886.853210 798.624634 -250.926544
917.547607 452.771790 -330.202454
793.883362 650.697815 58.138355
984.809937 699.865173 -63.815910
993.225159 584.884888 -36.930557
1397.151855 511.914551 -305.937042
858.797791 805.686707 -239.624344
690.196960 830.525940 -334.074524
718.582947 863.173218 -260.262360
963.838074 632.929626 -85.045212
665.573120 882.784058 -107.136429
815.581238 628.413208 59.103340
1417.358643 618.116089 -114.901855
1470.423462 690.830383 -20.843594
914.270020 841.125610 -124.099426
1412.157959 598.964905 -101.178680
934.574707 498.347565 -188.651413
1002.030029 800.350586 -209.702499
1414.357056 326.685822 -275.507721
923.946716 549.889526 -359.482025
839.438538 818.269775 -186.116241
962.642456 515.559875 -114.937622
967.383240 395.163208 -136.889282
967.837219 379.482422 -155.095108
1366.056274 342.416626 -372.244232
1384.794556 690.312439 -513.833557
958.945801 379.216766 -254.961716
927.733887 532.801331 -349.296295
956.127075 529.063660 -133.044067
736.190430 847.955688 -217.279434
657.370117 867.378540 -243.474518
645.196106 874.964233 -245.231644
931.973694 550.602905 -314.234497
1422.367065 598.703186 -80.233406
1433.413818 727.290955 -479.202423
931.739685 390.990753 -354.550842
782.693604 832.714844 -187.186295
936.111755 572.982239 -311.891968
624.046326 899.906616 -124.115646
961.225891 658.506775 -232.893417
954.254761 751.041809 -339.727875
982.546753 734.084290 -255.341080
1440.484131 601.193542 -190.828171
1446.431519 413.907593 -94.416679
940.307861 493.208405 -167.548508
925.631531 533.010254 -352.315338
976.762451 715.188782 -156.463684
659.585388 893.733459 -91.227280
682.387207 868.437378 -172.773438
952.770874 515.591370 -145.417221
1382.719360 321.204315 -338.188354
979.895447 721.355835 -264.576935
1417.689941 678.750671 -152.285538
1463.124878 656.639099 -44.238338
794.259766 801.774414 -355.697113
977.418823 757.299988 -326.126190
1402.067505 344.978119 -169.996643
675.992493 864.944824 -258.641479
1438.868042 532.970642 -84.753586
911.669983 449.940704 -388.513031
940.806030 511.494904 -317.950714
925.734497 606.087341 -333.839996
779.866333 845.688660 -156.656174
1413.778687 635.194092 -73.663467
1436.886353 445.250702 -131.501724
1361.821167 604.410217 -360.871765
1410.377808 385.420563 -148.369507
978.216431 649.176392 -222.391678
775.555664 838.129761 -159.913635
1433.288330 325.597168 -159.752945
979.879089 415.631256 -131.987640
674.806335 840.872253 -297.206177
961.089172 679.707092 -231.595367
1479.151855 632.053162 28.809147
858.818298 833.252441 -152.449295
1311.701294 428.843262 -517.179688
930.169128 585.128540 -273.317200
1401.410034 572.448181 -349.513092
944.675293 543.876953 -219.345398
1434.512817 533.150452 -251.207825
934.057129 490.045837 -246.464523
1393.375244 371.939026 -447.017578
1462.584839 644.819336 -36.477440
940.503235 465.513062 -193.444000
829.227234 822.855774 -171.082428
1392.971069 382.324066 -315.587769
1468.281738 622.528931 -0.526773
1426.222046 556.062866 -165.318817
949.531738 442.709778 -134.549393
1361.874146 420.207825 -497.609985
933.370422 599.101868 -357.707916
987.867188 706.541809 -195.026199
982.178162 668.324097 -178.963821
615.137512 894.376892 -155.322784
959.725830 632.029663 -323.337585
1365.308716 390.666626 -419.333405
1380.402100 324.903839 -358.735016
908.906006 411.266052 -348.048309
1469.294189 660.195862 -9.556559
711.386719 837.625244 -293.421967
803.016235 831.823181 -142.768463
636.164551 877.072449 -180.713501
1436.896851 591.646729 -50.458321
778.904663 819.382263 -315.167419
1449.341919 541.554626 -94.177834
1367.295288 243.624771 -295.242523
1446.031616 524.516663 -194.398148
937.291077 414.972565 -343.135895
1331.777222 551.294006 -307.474701
830.654297 609.928528 33.501091
648.039795 905.675659 -163.793732
1426.826538 788.264893 -256.353485
930.528625 524.154175 -229.403397
796.131409 790.067871 -410.103516
794.013672 815.226990 -353.627258
1443.513306 373.987091 -125.211006
1389.432251 264.680298 -271.303406
1400.578613 509.832428 -368.877655
1407.440918 487.662933 -263.568115
1394.150757 276.043182 -185.050644
924.748474 507.100433 -251.163223
966.484314 523.018372 -210.429291
941.546326 643.169312 -386.547546
980.823792 456.298859 -102.589516
733.771912 820.354187 -383.250549
960.964600 509.408356 -105.539879
1426.496094 435.614502 -237.057663
1397.666138 449.392731 -274.883423
1358.368286 328.551147 -238.391296
627.602844 886.383423 -157.956482
728.545410 878.776123 -74.192223
1452.109863 576.176025 -109.424164
995.362976 748.064880 -182.360641
1366.830078 297.109009 -333.859924
953.848389 378.053284 -206.919144
950.329224 415.548706 -256.513153
858.733887 833.405945 -137.273849
954.482971 527.968079 -152.546844
944.213196 576.227661 -358.794556
636.622009 862.798218 -274.173645
981.627747 723.669373 -121.287819
1444.262695 462.381256 -89.191132
1463.742676 513.041382 -73.452705
1433.821899 498.763123 -91.750984
869.406555 786.793030 -322.232208
930.183105 367.957092 -322.967224
1449.188599 482.088867 -175.531830
638.442932 853.932678 -347.070068
988.039978 504.562042 -34.959534
967.596619 429.575409 -156.776901
1415.692505 561.616882 -233.070740
1390.399536 293.372681 -225.239777
823.018616 838.431519 -221.417770
1397.969604 868.151245 -262.086060
1401.292969 306.164795 -327.535919
1446.067383 440.898468 -61.833576
872.943176 814.027100 -284.737762
1470.082642 710.527466 -254.392548
944.273987 471.446808 -202.425308
610.399231 862.836975 -345.266479
721.298218 836.481201 -304.414246
866.144958 809.035950 -188.590775
982.800293 368.979126 -152.294449
1456.824097 669.148987 -214.956924
763.479614 817.540283 -306.667297
1384.856445 289.135406 -322.469269
878.905457 817.113770 -136.972961
959.166626 649.029541 -221.485062
1004.018005 450.084473 -38.920013
994.936340 765.142151 -145.444504
1411.226929 488.531403 -236.526520
965.549500 695.490540 -32.925453
971.276489 637.259033 -236.303177
963.280396 695.936523 -170.636978
821.389954 832.413330 -230.991852
1451.103638 428.112610 -104.096939
1433.987183 321.132233 -152.767502
935.675598 391.192871 -365.907318
973.445435 773.656006 -269.726379
1465.313110 797.780701 -178.069656
673.013245 871.157959 -127.666054
1414.688354 369.741913 -214.417023
1433.429932 492.053009 -123.378708
1412.907104 492.057861 -266.771973
1487.434082 581.713318 24.250996
946.815979 404.759216 -220.467163
1393.149292 618.165161 -99.112617
1421.892944 484.294281 -261.696930
964.361450 511.608856 -188.518753
1428.037964 505.586853 -134.119110
978.931152 591.089050 -93.924583
1437.841797 512.010620 -190.562088
1430.348511 492.781311 -108.270805
1475.504639 946.781677 -226.971817
646.319275 840.474976 -380.302246
950.365662 599.659241 -231.017319
804.411621 834.096008 -88.602432
724.060852 874.726746 -85.660454
850.436035 844.700867 -70.607460
717.062500 876.116089 -79.161186
764.565491 794.002869 -407.144440
1389.081909 454.788116 -246.072006
766.112000 822.117249 -267.021729
1365.325684 504.960785 -449.461975
1370.202026 374.095734 -275.678253
1415.797852 562.432068 -260.712616
717.526062 868.403137 -103.105980
692.275208 833.967957 -330.304413
1383.418091 337.803558 -247.313553
961.782410 374.105957 -309.629944
962.299683 468.657745 -138.166977
932.125610 428.515808 -212.006058
938.214417 408.281250 -252.219543
1397.695801 672.563049 -503.637848
1390.035156 359.899200 -405.517914
851.282654 797.940857 -361.787262
930.836060 378.823975 -231.823090
685.341614 847.058472 -300.971924
1415.724365 306.766388 -212.085068
966.582520 666.645325 -119.883636
1395.368652 325.240875 -348.136810
1468.532837 555.930847 5.253539
1446.341187 502.552490 -112.261925
950.454041 635.608032 -216.960266
962.495239 430.290253 -102.118294
1457.630615 926.251282 -212.379547
1366.207886 367.781738 -488.554352
1336.590332 452.185852 -567.798645
1453.177246 474.635315 -114.079453
935.963806 394.596832 -229.692764
783.555603 846.279480 -124.331093
1400.445557 390.611481 -294.518494
865.671692 556.684509 54.121799
1327.121216 577.349731 -274.107208
690.093384 827.765930 -395.760132
1317.911621 458.887421 -526.451111
1379.909912 344.697571 -369.087006
936.441223 420.991852 -184.733688
958.853821 702.390991 -333.528107
961.681335 576.755981 -100.257950
935.378052 618.140564 -288.793762
959.814087 672.374146 -197.544540
987.686401 645.740234 -35.367287
1376.435181 317.068939 -277.398438
1411.247192 579.067383 -89.634880
950.145935 444.284515 -159.668549
814.374817 646.998535 26.493204
955.818237 699.865784 -348.604523
1194.769531 551.347412 -266.174744
1349.121704 561.426392 -300.602448
976.772156 638.065674 -100.722885
952.215576 645.239380 -262.226715
848.205811 830.877441 -197.285034
845.628784 842.519531 -110.728600
1457.068970 432.338867 -59.555691
693.010437 847.698669 -316.987183
629.794189 904.550171 -227.015350
947.737061 708.861206 -363.116638
938.640381 398.927338 -214.621674
1397.387329 653.694763 -231.678665
1369.981201 460.340332 -488.236786
967.523499 569.653076 -80.587837
1415.523438 307.577789 -172.196243
942.544617 600.332458 -282.257782
1437.583374 598.077209 -134.577454
959.322754 568.486694 -86.690331
943.148499 517.342346 -205.099762
776.849243 808.280762 -400.607513
983.342102 551.061462 -25.123447
994.162964 747.530334 -191.696899
961.294495 416.907166 -147.920425
1464.463013 888.929504 -214.305237
799.369080 842.584717 -153.124725
1368.233521 400.078186 -474.806610
951.151611 599.031067 -176.424225
1347.293335 436.272034 -514.777527
1229.408325 560.873840 -210.771088
798.637390 841.652100 -239.421570
666.758606 886.952087 -133.798279
814.572144 593.867249 61.940536
1392.998657 299.481781 -249.691360
626.114197 889.140564 -195.642365
923.342957 445.293365 -299.059906
1416.881348 506.140900 -281.402435
1449.041748 482.958588 -128.496872
1450.874023 475.050049 -163.642395
936.693604 464.523560 -228.323425
939.732361 700.522461 -321.045776
1453.854980 820.595642 -182.638901
752.354004 852.250366 -182.029495
967.099915 436.466278 -128.296219
764.149963 815.051147 -344.381592
1380.682495 430.452850 -250.459961
1429.738647 436.489410 -171.878311
1362.307251 262.924469 -337.445160
942.308838 656.508362 -396.842743
785.300171 800.542053 -363.675201
1378.187012 379.184418 -411.558929
1437.566040 601.924377 -180.070221
954.754211 394.125702 -170.395157
799.842346 823.764221 -292.205017
940.528259 581.389771 -221.131363
1354.444824 430.397278 -489.431610
798.548157 845.698975 -105.811699
1480.530884 615.897888 19.245087
804.521851 825.643250 -279.469421
1386.744873 397.958099 -282.249390
1420.152954 324.998199 -183.737015
927.838867 406.318115 -235.726013
1392.642090 376.847321 -248.150238
1397.441040 666.347168 -541.104309
708.978394 854.804321 -266.281677
972.846680 674.376099 -210.910126
1343.732910 613.864075 -229.764694
1393.224365 493.137970 -408.698029
1410.484131 729.763733 -464.199493
868.187927 834.302124 -142.778549
1474.127686 695.939270 -195.129654
714.930237 813.129272 -406.246918
1431.816406 430.659882 -163.020721
949.440369 443.384186 -192.187912
768.351929 858.315430 -160.664124
690.313721 838.263855 -350.576599
949.961670 602.350342 -227.361023
999.750061 588.304871 -16.391087
1433.719727 449.939392 -162.826309
1463.758667 697.912598 -168.966232
998.419800 765.244751 -262.218109
973.308044 383.373291 -220.421600
1472.150146 500.315582 -19.799438
1414.134888 343.982544 -199.316742
909.011230 459.120575 -367.835266
961.132446 522.062622 -126.876160
710.506836 861.591125 -155.825073
1419.866455 471.891541 -238.941360
759.559570 854.092102 -171.176285
916.422668 597.257141 -369.587616
1418.874268 344.078552 -197.706421
1420.037598 298.697723 -164.362274
1362.536987 487.412872 -442.844604
1380.092896 471.589752 -478.158478
1380.116333 284.387390 -256.986420
621.669983 897.892456 -166.820007
988.910950 475.780731 -50.811806
1389.494507 295.903442 -296.665588
1451.989014 584.182007 -112.864716
745.451233 841.077637 -259.780670
972.148010 602.586182 -99.625488
809.613586 825.282654 -165.684402
952.283447 651.949524 -305.346008
635.466614 912.810913 -184.008713
759.017944 855.898682 -112.127983
1342.337524 524.864136 -515.639282
1464.387329 962.703613 -194.198563
1465.726440 820.080017 -179.309418
868.039001 820.113159 -217.377197
905.427490 823.277039 -259.827698
821.608765 824.543030 -252.225815
1452.434448 634.661560 4.088959
971.841309 699.499207 -206.771820
850.116333 802.503113 -351.041168
1446.280884 477.229187 -86.541634
972.446594 376.805389 -246.619537
1007.411499 425.518829 -76.645699
918.283386 824.862427 -97.480423
982.928101 769.029724 -174.976242
1405.595825 274.879852 -179.910355
979.422058 508.139679 -53.585182
1368.629761 580.379822 -435.101746
1436.660400 548.776001 -232.029007
1356.604004 504.145325 -481.370575
931.471802 441.719269 -270.748749
1369.012939 390.122681 -479.158173
759.236328 826.757019 -285.912720
818.085266 714.630371 30.518095
785.264221 854.482178 -85.226372
1448.188354 532.515991 -215.560837
698.357727 862.177490 -130.505341
956.977234 576.373047 -158.797836
744.627319 863.595764 -81.905624
1442.933716 542.710693 -161.630142
1385.481567 255.203384 -255.510742
1447.012207 628.461365 -73.448051
665.285950 874.429199 -128.091339
1346.331909 470.434784 -522.769348
1353.652344 396.781250 -504.509338
935.388245 597.276062 -25.503344
1467.685669 535.829468 -29.489180
1448.863770 456.970093 -165.291275
808.729309 828.297180 -291.706818
1334.480225 482.635254 -545.202271
992.132874 593.731323 -26.781525
930.768921 523.714478 -322.142731
1457.108154 804.028320 -267.130737
1386.608521 332.720703 -329.290833
796.067139 729.368042 49.156895
1363.574463 435.147369 -261.860992
973.127075 363.250488 -227.391327
896.084106 840.467285 -71.362579
870.811890 789.201904 -313.431763
1409.833496 440.315186 -255.881332
1386.786255 642.143066 -548.093994
1398.182373 372.213562 -217.265106
831.744507 796.009460 -364.499847
808.122681 846.010803 -70.821907
726.574646 860.754822 -259.956665
957.129089 643.940247 -234.358276
1460.141113 532.063660 -110.092621
933.145935 506.698761 -262.871185
933.426758 664.920105 -420.695648
1393.152710 381.062195 -253.211578
1429.305054 410.898834 -164.097839
961.331055 440.022614 -102.277145
866.284851 801.401123 -325.854309
1440.368774 588.323547 -125.607628
919.617615 520.571472 -391.151917
839.140320 573.682251 70.784096
1422.587158 432.394836 -224.362915
922.979431 597.136169 -411.206390
688.881470 871.155518 -128.565872
1400.816406 512.476074 -362.925598
647.345398 862.799072 -321.495300
979.628906 393.905365 -173.623032
1397.113159 407.753479 -405.468903
1404.118774 399.150909 -224.222137
955.545044 389.327301 -198.381363
969.658386 492.554718 -135.978958
1395.795044 651.581909 -383.773865
1397.678345 419.190674 -354.845673
1443.603516 417.014862 -150.901947
959.214050 570.588989 -170.684967
972.901062 541.520447 -124.846062
863.881531 640.384583 28.923254
1394.373291 255.511673 -255.104034
687.810547 862.107178 -177.870956
996.501526 525.019043 -30.073145
755.958557 844.286438 -190.726013
753.649170 819.552185 -314.706512
1375.307007 358.014771 -241.243896
1436.331177 593.337646 -13.015041
1440.364502 392.978363 -90.232491
1391.765991 556.259827 -406.404541
1377.727051 282.893860 -340.430237
1376.928589 655.997803 -227.115814
1384.985474 598.171509 -129.913498
1388.983887 681.977356 -557.923767
962.055481 638.966675 -322.807770
1386.720215 661.498108 -477.306854
964.744385 369.237122 -182.137802
1321.601074 356.834595 -230.936386
942.541260 442.493805 -191.573166
765.135681 856.387817 -87.936005
1377.631348 431.023376 -471.790527
638.930847 881.000916 -244.118958
1384.357666 308.177734 -345.262909
692.172302 867.582886 -176.942719
1357.621582 729.346924 -355.453033
960.500061 634.606628 -157.562332
966.842407 515.257141 -171.665527
1410.793091 306.486542 -249.500381
730.005554 852.331665 -241.068222
1444.707886 391.994232 -81.723511
1439.058960 737.145691 -258.959778
1360.453979 382.013855 -215.889038
1456.265625 675.542236 -194.629242
964.133667 550.099548 -148.722534
598.066101 869.473022 -305.491150
965.761780 572.778992 -64.080246
982.373901 407.125488 -111.931885
752.929749 804.128052 -394.810730
1381.470093 375.756256 -390.523315
1446.685303 582.528076 -137.825912
1359.784058 546.475403 -487.198334
668.948486 859.625732 -281.509308
1403.919922 717.580933 -515.740173
966.390137 733.843384 -284.470428
929.419922 522.487244 -218.513901
937.431763 426.268951 -222.407532
1473.300415 793.231689 -189.414551
1420.625122 363.998718 -101.436195
702.032166 856.514038 -263.083862
778.743286 843.933838 -218.103577
1371.099609 361.124542 -357.904327
1379.902344 263.920593 -311.835541
1345.832520 644.179443 -352.559021
1445.671387 505.586273 -207.907532
1414.627319 380.301697 -319.578888
1388.492310 365.949799 -364.545990
946.759460 592.726379 -21.350281
752.302490 842.703857 -242.378296
933.312683 534.325195 -382.885193
914.578369 549.036499 -388.729370
971.892883 571.568237 -68.201904
930.906982 419.687683 -255.046555
1398.790161 447.640717 -375.456512
667.947388 844.064331 -303.507599
712.596436 852.276794 -243.900314
1378.391357 327.235168 -372.089996
1280.350830 582.370300 -294.920563
989.543823 654.347107 -143.205307
1401.600586 439.367126 -346.808868
1391.487305 479.200836 -420.747894
944.393005 427.871063 -282.726227
1443.462402 424.140564 -73.187599
902.712708 509.274719 -385.417358
1435.543091 592.384155 -249.791534
1398.541748 323.601593 -238.612518
932.481628 491.575958 -287.468384
798.329834 806.807312 -350.937714
1372.128296 572.586975 -451.838257
1433.202393 729.836182 -468.666504
1386.960449 563.608337 -293.595947
932.752869 422.433044 -245.922592
843.712952 797.860596 -292.664185
1443.562012 817.258179 -204.878387
824.055603 835.979614 -137.875351
1384.208618 476.989532 -279.761322
1359.562866 425.937408 -266.996460
963.948975 374.437347 -215.635376
1455.376465 858.869141 -188.481659
927.838318 511.897339 -255.153152
669.154968 872.513672 -173.808151
967.729370 443.099182 -87.411911
733.411133 856.107117 -162.661240
1459.487305 474.389771 -67.590172
722.712524 839.381226 -267.522461
963.442139 398.155090 -134.801025
972.685608 450.804169 -85.103233
989.366028 712.910828 -190.682175
1382.872559 339.418945 -355.530579
1386.729004 354.000885 -234.869583
957.918274 435.236298 -209.119110
955.281616 663.928162 -274.339600
985.768066 605.410217 -162.261353
785.474915 804.431885 -381.297577
958.985962 570.224060 -35.734810
952.880554 454.210205 -138.067032
939.982544 557.188965 -261.525024
979.393982 673.219666 -207.857208
974.002380 764.050354 -268.534393
939.645203 655.507141 -294.160461
706.904480 847.587891 -278.540131
927.049927 634.149658 -423.040619
1367.351196 347.907806 -227.117508
1359.847534 486.672577 -578.970154
973.497620 530.412415 -47.569126
951.135132 382.829010 -300.450195
958.427551 658.421753 -248.565994
1412.210449 639.113953 -72.461929
947.238342 502.827881 -206.194946
855.241150 851.793701 -89.139786
945.060486 360.571655 -290.828247
1445.052612 375.257233 -113.737465
985.352051 736.243469 -187.108124
1450.847046 938.556824 -248.579926
916.223267 457.898010 -356.991913
1401.843262 621.229126 -184.240250
966.030945 625.488098 -284.883972
940.792542 521.223206 -326.932037
919.944702 445.371826 -359.064850
913.648560 410.391205 -397.435760
1321.113281 597.079041 -288.482971
1405.374268 283.041870 -306.381470
974.009766 500.449036 -56.263027
709.531311 869.436157 -234.180420
1436.506592 475.430145 -160.224991
982.262207 583.145020 -121.911209
976.818298 585.485840 -131.885727
711.276428 838.333984 -306.307556
709.755188 861.167542 -187.420212
1391.363770 317.086945 -303.435577
963.458069 508.360168 -112.378777
1450.406494 483.875519 -119.008942
1448.601563 559.414429 -184.438324
1423.887695 334.087921 -141.544525
862.344177 834.840637 -176.330734
836.710876 855.215759 -87.598022
679.475159 881.068542 -78.450996
944.865417 543.970276 -397.644318
1404.191406 383.172302 -307.863007
926.807373 523.820068 -253.566406
1415.028442 691.883423 -530.711914
1398.834229 458.173737 -343.278839
903.399963 537.629761 -393.217255
984.180969 680.473633 -86.254768
1468.579224 634.382507 17.081446
1481.697266 612.710388 34.167732
1469.512695 556.157166 -4.151911
1449.432007 433.140839 -91.483498
961.809998 532.272949 -189.544312
1386.252563 585.212036 -196.107269
973.446228 718.893738 -219.720673
964.478699 465.877686 -108.473900
775.990662 835.242493 -285.875488
982.070007 602.272156 -7.041880
1439.680054 525.393799 -160.366318
942.212341 376.445129 -240.470291
960.624451 758.166443 -384.804474
769.716919 798.488647 -393.007904
1403.427979 587.499939 -250.297653
1418.468872 293.855652 -177.232361
1312.379028 569.086975 -370.243622
944.145752 485.268738 -263.241241
1386.898071 628.530212 -217.852585
971.403137 589.129639 -91.142448
1420.450684 481.265594 -166.310532
955.177612 540.828491 -164.455673
836.880066 840.817566 -103.528999
1435.465454 398.040466 -87.028587
1448.990967 393.472046 -100.798073
953.379761 616.481262 -260.891144
972.676514 550.816589 -52.579788
1405.075073 283.489685 -228.873871
1446.514404 601.922424 -58.051220
919.332947 490.191620 -273.469177
1306.702881 494.541534 -480.879059
921.918091 527.634705 -268.954193
1449.636597 644.734497 -81.034744
1373.033813 353.425323 -362.121033
1388.138062 412.169098 -455.553528
1410.916016 279.418854 -205.682434
1414.534912 442.626495 -391.242218
946.404907 474.750275 -285.775543
772.872437 805.844055 -371.846313
1366.536499 416.357727 -465.319275
1404.704224 393.810944 -189.364166
1412.105713 533.196960 -390.198639
618.981812 854.521057 -346.489746
1439.866943 567.835876 -41.227306
1413.673340 426.901245 -301.021210
654.956238 916.896790 -90.543900
1418.243896 633.338806 -107.401497
1462.913574 700.746826 -66.363441
631.794556 888.514465 -229.375839
1372.860596 475.401550 -504.056610
610.877625 905.785583 -180.831940
730.262695 832.299011 -312.164001
1458.581055 488.682495 -64.053551
940.294250 347.403870 -262.201813
778.147705 811.532227 -363.665649
1474.936523 635.120667 -35.868935
904.437256 433.413696 -386.637756
823.486633 833.021606 -198.137024
1489.120239 620.714844 -17.050545
780.780212 846.895813 -137.582169
699.528320 851.961731 -294.032288
1459.651489 575.794312 -104.803543
1474.602783 586.377441 5.974024
944.015686 618.108459 -272.088043
906.719971 461.313660 -341.555298
635.702637 901.105591 -172.688477
1349.936157 492.477264 -435.014893
662.431091 858.824341 -257.169708
1429.514160 586.577209 -144.296432
746.616638 857.198608 -121.457596
1398.505615 332.961243 -225.359482
630.312805 890.226196 -133.921112
972.083435 617.967590 -287.650482
1326.168701 551.224548 -390.177246
750.781982 826.627930 -346.204254
959.179871 496.774109 -77.220741
1401.742676 295.895996 -200.556259
1403.081177 482.278290 -279.817719
976.516602 419.537323 -106.484940
878.272095 840.670105 -79.378143
940.555237 458.970612 -310.891174
1394.117188 339.198547 -310.921234
1467.791626 549.794617 -8.149927
705.765747 854.617981 -164.072296
692.125183 884.912476 -87.509071
1446.789429 594.857056 -134.611526
1428.655762 673.696167 -106.526772
969.483704 537.482056 -73.002289
1463.580200 951.901367 -268.264740
1436.715454 703.637024 -145.586823
974.630737 506.833466 -91.843163
1422.862915 453.420105 -142.609695
946.574951 538.323792 -215.723679
977.292236 497.086395 -48.049637
971.274170 649.842834 -92.078033
792.889160 846.024048 -122.745857
1409.185425 308.524078 -191.564011
1357.027222 440.538544 -567.380249
981.098694 493.424835 -38.382065
820.552429 811.138672 -325.884064
1384.044189 631.156555 -573.816406
993.072083 545.203491 -28.598791
1428.503784 492.915527 -120.055656
1438.250366 454.147827 -134.800034
1388.294434 564.234314 -393.458771
1400.122192 444.770935 -409.117798
933.403625 513.511780 -254.656174
778.367737 824.644836 -297.947510
933.849426 679.813477 -407.614288
874.643066 849.644226 -98.074928
1441.254639 475.872162 -208.759872
766.953247 846.460999 -266.922760
1358.504639 272.473816 -365.432465
1438.868408 390.964355 -145.384033
1351.567017 413.916138 -554.472229
1438.301147 519.660767 -180.325165
936.795166 536.360291 -265.140625
1445.312134 532.891846 -180.000595
1412.089966 305.996582 -167.256561
1380.889526 609.819214 -214.093201
1416.262207 550.478943 -228.523132
695.618103 869.759705 -142.290421
943.656616 412.494965 -183.094650
854.690857 829.044678 -148.890701
965.091736 545.999817 -43.853909
624.369202 879.966675 -224.081635
1401.353271 268.320648 -199.202881
1412.170166 385.666229 -136.778519
922.736328 477.725067 -304.465790
1389.954834 613.727295 -149.260132
1391.215332 532.398254 -402.086914
761.950684 839.455566 -231.871994
1455.820679 510.989807 -129.849884
939.170349 564.254211 -285.903137
1422.926392 469.359283 -152.676758
1373.702026 293.692993 -288.972076
969.702698 731.894775 -270.462036
923.458557 384.851685 -274.857208
654.600830 846.751404 -356.507202
985.655334 591.319702 -79.088280
952.563782 694.737671 -358.802887
979.771484 679.486938 -187.362701
941.400574 621.958618 -370.651245
1378.380981 538.067566 -315.948059
1422.928345 739.583984 -448.158691
751.096741 818.679382 -329.381470
1384.862061 617.752380 -115.738464
1001.772705 589.892090 13.701938
950.673828 355.207153 -290.244110
965.623413 633.072327 -189.295456
1451.940063 454.588348 -75.399139
1389.512329 400.680695 -376.310852
1415.627197 306.241150 -198.581787
1441.825073 452.561310 -88.334305
1425.839478 744.169312 -324.203644
1365.217529 505.570892 -455.805847
1424.376831 439.410583 -223.570099
935.935425 478.734161 -165.500366
1422.711548 472.141296 -179.597809
844.858643 834.963379 -113.919922
1453.994629 530.947815 -62.911304
977.534973 674.893738 -330.487244
914.047668 467.005127 -376.910522
1396.707886 628.404907 -91.131195
952.892456 600.690430 -347.864624
1408.866577 432.457947 -206.196915
930.313354 621.667603 -431.802673
1410.366821 343.447998 -335.298553
1372.003784 397.575287 -459.555298
1358.118286 395.291840 -477.266541
1374.160767 401.924225 -376.021973
1476.258545 610.499451 28.854523
692.097900 871.554138 -106.364464
1427.709229 420.660767 -181.374908
726.345642 868.031372 -106.398239
1377.581177 664.395630 -259.059143
923.818115 475.406219 -236.149246
1407.903198 374.288605 -338.394684
717.989929 874.389160 -128.179199
932.771301 476.437500 -356.695892
979.301514 763.936646 -231.188629
734.474609 859.133667 -106.443550
1448.755127 516.040100 -200.388931
723.245422 864.997192 -63.286705
1475.634766 933.067810 -239.367157
929.213806 383.377075 -277.985138
1402.056519 304.308655 -260.139404
1391.979370 616.055725 -194.465225
1424.616943 427.201813 -193.569901
963.950256 392.880096 -174.662918
757.109619 802.137146 -380.047699
1415.333374 432.380920 -157.172256
1375.738281 565.465637 -289.810791
957.503052 448.193665 -101.063026
915.333008 446.903961 -353.570892
964.077209 678.674683 -222.724731
928.705261 526.559631 -258.575592
941.346924 358.766144 -217.387131
1368.962036 360.442780 -380.848846
1388.983032 593.748108 -138.104950
883.784302 557.198608 72.374489
978.877563 664.944824 -27.145498
946.638428 503.248840 -136.421219
1453.193115 563.628479 -66.283020
644.024353 868.195679 -238.620483
934.725769 477.493286 -265.536316
911.985107 507.017059 -310.315918
942.988464 568.036987 -242.218155
1445.011475 430.215454 -69.266273
835.962036 575.261536 66.708542
996.307434 654.820923 -147.110962
1468.161621 697.747009 -29.878550
1427.461182 540.691284 -226.170486
651.263184 865.832153 -323.584778
957.665955 455.261688 -120.181091
1478.186279 636.086914 7.077344
1431.489868 427.780060 -163.397812
1356.566040 453.029083 -506.133362
1427.700439 708.333008 -510.388184
948.233215 599.525879 -257.509735
1381.686035 686.023193 -481.851257
1356.238892 515.976685 -438.216248
1462.978027 623.726196 -16.515059
955.597046 552.403320 -98.803650
954.199341 374.298309 -189.074722
972.561646 724.673523 -256.985718
882.804688 828.472473 -188.692551
773.726685 837.632996 -277.052612
1402.492554 338.343079 -372.750671
1438.249268 450.961060 -136.569290
972.725586 625.249390 -45.361069
672.238159 869.240784 -147.533661
1348.421387 511.427429 -578.716797
1359.376709 485.130859 -588.885620
953.119629 613.791199 -237.439850
966.225220 711.523193 -283.850342
940.551208 518.488586 -224.186707
922.199829 823.021057 -142.885773
768.062012 843.797241 -197.833191
1385.201294 276.143646 -213.454849
1323.312256 457.369019 -522.282654
682.949341 886.362244 -87.092613
990.328491 666.176941 -100.654114
1441.756104 495.492004 -149.240280
958.746155 427.542053 -156.469452
1433.571899 484.238464 -214.002411
712.300171 858.251526 -183.899460
1370.848877 300.030701 -332.392822
988.316223 699.185181 -176.050583
1369.193481 368.263245 -440.341675
1304.023438 455.208557 -519.779175
717.029175 826.686401 -327.558411
1386.982544 442.733551 -465.766205
763.394836 807.268982 -371.669922
1408.876343 315.092438 -198.146332
1398.471191 470.316620 -354.268982
950.584656 663.848145 -221.392624
971.808777 603.810608 -267.236816
1412.490356 707.431763 -503.510284
1440.992432 597.547424 -6.292757
968.528809 774.772644 -296.669861
713.861938 873.985962 -172.423630
961.741760 729.913208 -285.561523
942.369995 454.067261 -329.457916
1444.414795 457.205414 -169.906006
1375.831055 438.182007 -402.233032
953.803711 549.507324 -261.928040
1408.955933 282.222626 -164.879364
987.558044 711.911621 -103.017136
1363.966919 565.805664 -472.956238
954.997314 609.888672 -195.110382
653.748474 858.472290 -345.764679
934.855469 543.587280 -278.831116
993.658630 670.063171 -108.918739
1371.932373 345.002686 -419.664154
773.569519 815.938049 -298.697784
1357.336426 588.440125 -260.534271
1397.523071 301.017792 -313.032715
1411.214722 451.016083 -206.122482
1410.473267 349.674774 -143.610931
940.747925 586.640930 -306.522247
1398.734497 573.145142 -375.837341
1392.411865 318.432220 -231.174744
1375.166382 459.559113 -395.841125
1428.988403 574.417480 -99.430138
1406.609985 487.823242 -254.996750
925.845032 487.434143 -297.810211
1407.695313 388.628479 -203.557068
949.149597 466.501801 -160.973450
1395.977417 506.353699 -387.609924
944.940979 358.281158 -314.973022
913.956238 407.237213 -351.650726
934.328979 488.394562 -247.769913
945.109741 706.945007 -368.015594
1344.257324 441.785645 -511.383545
822.496582 830.789063 -216.798264
1454.719116 807.067383 -204.359558
1337.609863 683.683472 -366.510864
1394.979614 251.679382 -219.797455
1367.403442 405.240967 -462.125641
1328.389404 558.575684 -244.901794
648.358948 903.880127 -116.344353
1384.933228 295.802063 -264.611572
1354.058594 536.690796 -572.858521
933.079956 524.476074 -309.898926
1444.539795 506.801086 -207.590164
1318.057495 593.776306 -333.531067
753.781067 865.257202 -95.261436
886.867432 820.437622 -190.878174
979.107666 424.037598 -120.994453
956.689209 484.831299 -187.535431
1383.231812 517.297607 -441.007507
593.138916 897.565308 -213.535095
1455.503418 552.625122 -2.466182
786.116699 828.547119 -300.825989
1369.634766 354.706940 -439.383820
636.264587 866.105286 -337.701416
1452.166260 660.673157 -96.222466
910.046875 413.638336 -372.156372
1381.244995 590.550110 -193.220352
967.376343 692.020447 -145.958420
755.134216 799.915222 -402.765839
1407.816528 427.964630 -395.005493
1300.919556 508.337982 -562.065674
1450.518433 824.273804 -170.601669
969.924255 608.432312 -26.147575
1388.051270 393.684326 -225.399506
806.914856 821.483337 -304.924438
1332.732666 409.316467 -553.245361
1353.793091 427.777649 -300.520691
1357.709595 589.611267 -230.138367
1438.764282 405.680328 -80.762451
974.887756 666.662964 -249.931580
606.181274 924.794922 -248.549438
857.982056 558.665100 63.717697
978.418030 424.137146 -85.471703
1480.421509 639.849670 -0.372215
1424.477539 341.520660 -170.507538
765.917053 499.741943 -441.564209
771.275024 869.297852 -68.601761
1387.714966 275.180603 -290.070404
1396.452515 251.306610 -193.938354
1481.111084 645.386536 -33.409302
971.349731 378.792023 -164.083054
1384.339355 456.544647 -437.984985
1442.806396 550.036133 -183.317932
1401.962646 448.881104 -354.238495
1365.283691 613.835266 -207.245102
821.070435 795.145691 -365.170898
944.867798 599.010864 -211.450211
1482.865112 612.125183 -18.801741
1432.124268 581.173157 -135.557220
1369.956543 389.625458 -463.860870
1400.832275 570.753601 -267.140747
768.704712 842.239868 -237.321381
1354.326172 385.259216 -533.222473
1444.173584 585.339355 -163.602371
984.331360 762.411072 -255.916504
985.752441 783.206238 -233.380875
1375.313599 437.080353 -373.042664
1368.462158 623.842896 -227.815262
960.396057 725.418640 -420.373962
1382.916870 380.744293 -379.198486
987.132080 691.701660 -190.916077
1448.502563 689.285950 -124.484612
956.500610 728.241211 -236.501724
829.122742 827.476868 -259.222107
1438.455688 527.094177 -89.783028
703.292725 865.265503 -278.531097
985.472717 508.981873 -65.079536
1367.109985 498.164093 -278.723541
1465.697266 601.552551 26.034330
1444.610718 421.055695 -113.829918
1365.167847 432.617859 -510.694916
948.550964 412.724731 -273.340271
1326.631714 422.490204 -504.812469
1388.446777 416.540070 -389.173340
754.971558 853.871338 -189.389496
1403.510132 713.784485 -548.495178
624.524780 874.182373 -363.218689
935.460083 447.623627 -169.438202
922.763733 480.290924 -244.205383
1324.236694 644.996521 -265.043121
1427.529541 550.213684 -221.753448
1419.151367 580.740967 -191.336975
665.398743 843.032104 -339.194519
1475.441040 605.165466 17.303102
1405.441162 410.813599 -262.995911
1330.362305 540.614319 -293.965363
1428.747559 404.689514 -138.029785
1368.171631 357.281647 -460.866943
768.210693 837.574219 -310.909790
1386.459473 299.975983 -288.519775
1362.413574 550.046875 -478.309692
1398.395386 307.162903 -183.038834
1387.663818 365.300629 -303.496948
1433.401611 542.082031 -114.897255
1405.832153 495.014679 -416.150787
666.441833 906.565857 -78.203712
1389.259644 375.695984 -421.203522
681.870178 872.902466 -126.373428
1426.019287 944.583679 -338.979797
922.001770 430.075226 -234.556442
1401.387451 324.153839 -338.482361
824.671021 812.389832 -324.751434
1431.254028 561.426270 -135.353546
1353.363281 321.821167 -425.459717
1400.874023 427.886871 -269.837097
949.966125 526.944336 -164.139160
1383.805786 272.547485 -235.964981
990.823059 431.292725 -56.296329
910.171021 510.709564 -347.743927
973.726013 527.613953 -78.704956
924.398438 519.457520 -247.522339
1449.087402 744.908691 -274.986816
947.439453 478.421570 -132.281952
1425.594482 480.782654 -129.981857
759.974243 852.441956 -155.639160
1458.558716 728.801147 -196.496826
1354.096436 333.728363 -429.004272
815.877563 652.423645 29.116985
740.572998 818.382324 -391.316254
717.665039 840.896423 -316.384186
1413.389404 400.701050 -369.860596
647.680603 865.755066 -212.118301
775.286499 526.638611 -471.000122
1385.872192 649.536072 -540.855957
1413.915771 451.825439 -342.282104
616.759155 871.085754 -279.135010
900.677185 835.649719 -63.707695
1346.494995 418.513245 -508.844452
970.369324 420.056946 -108.231453
670.696350 853.292908 -263.946594
688.497375 858.828308 -205.453735
1464.049683 618.755615 -42.316830
1332.274414 494.409637 -296.495972
1434.808350 589.410645 -28.999262
1357.031494 367.353516 -502.295013
744.519714 850.441040 -176.841522
1389.722656 409.319244 -375.489868
1438.036377 730.241089 -264.205353
678.590698 860.994141 -170.437515
778.666199 843.929443 -79.936066
1001.255615 435.465149 -56.317329
1443.635010 941.357056 -246.593567
1399.920166 478.569885 -425.201660
1392.436279 542.889099 -439.692566
1425.718262 340.908417 -129.970123
1415.344849 634.255920 -147.767822
1433.421021 434.703186 -149.041718
954.565308 589.596191 -217.255234
1385.655884 604.893494 -568.144470
967.033691 592.132202 -136.392838
693.691223 870.870117 -119.264122
969.016907 629.167236 -266.588287
959.812378 496.512970 -121.525780
1384.621460 717.949646 -474.643066
1388.269897 269.633087 -259.429230
935.710876 464.307495 -335.037140
1425.353394 613.234985 -266.944885
785.842651 850.026794 -89.842613
1365.947510 420.286682 -489.406372
873.144226 837.573059 -106.402603
794.184509 838.439331 -239.138977
1356.252686 371.929565 -266.969818
662.749451 879.341797 -172.232819
1377.618896 417.227997 -475.328979
952.669067 632.555908 -221.651230
937.486633 465.384094 -213.062439
1382.269653 337.472931 -264.434021
1431.394287 567.792786 -218.567520
1373.988159 516.268127 -445.736694
924.871643 562.424683 -397.577393
1396.670898 845.100159 -268.287964
984.150085 395.726166 -135.331207
1373.142944 347.304443 -280.446442
972.076599 559.962341 -96.963646
1358.742065 518.658325 -530.282349
1411.077271 625.546692 -229.616806
1424.248535 491.790405 -158.445068
654.085693 833.913635 -349.547363
1368.058105 320.048462 -424.542694
739.215759 822.888794 -383.358093
1388.056274 316.854340 -289.529175
739.096130 811.387268 -355.117981
1005.649292 512.308716 -27.344917
736.449219 828.339417 -304.003052
947.463013 439.034363 -132.143448
637.220825 877.472534 -175.704666
817.612854 635.698792 27.100920
1462.754761 640.952148 -184.133942
880.871521 812.107971 -107.134003
921.847351 406.240204 -257.172028
1404.222778 374.766785 -200.578705
915.894470 444.876678 -366.499725
921.183350 412.318787 -312.721771
935.290894 479.760437 -232.593414
1391.206787 267.953064 -193.872559
1399.811279 457.306183 -377.335754
776.285645 827.988770 -336.395081
957.421936 487.673248 -114.885300
1361.379639 474.165009 -453.168610
841.846924 826.843506 -89.879387
924.347778 449.554108 -292.987366
1421.988647 288.791168 -182.783295
835.038818 793.076111 -371.064453
1391.935181 430.402618 -394.814911
800.823425 814.427673 -324.488922
1397.216064 339.848785 -210.421158
1332.963623 595.221558 -333.071381
979.848877 497.369843 -77.233597
957.327942 558.712158 -153.839096
1346.335205 550.815552 -480.118958
1015.599060 458.803619 -29.426800
1397.556885 529.565857 -395.790985
966.185547 582.945618 -163.929031
740.970276 829.495361 -310.823517
776.896729 794.103943 -414.377350
1368.460327 488.209167 -360.681976
965.382996 643.580444 -258.777496
690.930115 838.780151 -379.507813
800.883606 842.708862 -184.854279
785.805298 854.999451 -69.412048
1421.906250 818.258728 -261.049561
668.692444 896.050903 -91.793480
976.362000 485.186890 -120.805923
782.895264 853.460144 -55.273327
812.837402 830.780945 -106.806458
1361.317993 427.552979 -334.352051
1401.580811 595.490601 -368.779297
1022.199463 453.144135 -50.929264
1325.490601 514.182556 -444.255096
1404.577881 454.041656 -413.882202
1311.486206 461.481995 -505.301544
1406.099121 367.905243 -162.723785
1418.131104 456.682739 -161.875290
682.345215 857.325928 -293.455933
784.873108 821.328979 -353.930573
1437.241089 849.642761 -215.036240
1440.354614 596.984375 -57.745613
930.228027 534.120667 -293.602997
1343.766113 685.407471 -356.747101
1441.112305 435.520477 -202.966492
1374.333008 439.584808 -465.349579
975.562927 643.371033 -47.662613
1381.747314 476.282104 -449.991699
1387.970947 390.441925 -357.852570
1433.618530 565.658142 -187.458572
1423.742310 415.307800 -196.880981
605.465515 891.988342 -196.092728
949.216614 651.303772 -22.714142
841.035217 826.315186 -93.955429
923.227661 510.351807 -341.293121
1406.686401 336.731415 -315.601379
929.543335 437.286621 -221.866379
712.163635 872.122070 -108.493378
1377.250610 349.829926 -274.078918
979.283325 621.117676 -230.468872
1386.597534 312.594421 -341.735077
970.246094 682.482605 -291.845184
973.528625 606.026611 -91.625519
1424.062622 576.489014 -191.022446
1313.524780 481.792511 -498.669800
1461.209595 671.048401 -20.723650
748.616394 843.961548 -208.409912
938.469971 430.586273 -303.073608
963.487488 366.282745 -177.409256
623.076538 864.928772 -366.146851
697.754395 864.254578 -140.406738
693.131042 838.815613 -309.209625
1385.606567 279.882050 -320.960052
679.526306 854.836731 -257.553009
1382.627075 355.750092 -301.678650
615.138123 878.502258 -268.552734
1438.330444 412.047607 -145.607895
1353.803345 307.905182 -426.637360
963.094910 424.895569 -139.594086
1385.595703 418.725830 -289.875488
1312.628296 439.113983 -558.796753
803.565186 635.514099 51.102314
1433.128540 399.140472 -105.715530
912.648804 830.502258 -170.945847
1356.754028 475.776093 -517.088623
1461.385132 610.509583 -14.921325
1405.152222 284.153503 -188.314987
1431.975220 704.350525 -117.106667
864.117737 815.792175 -312.328339
1452.843262 643.921936 -122.082031
1428.524292 692.693542 -150.650177
1473.993896 591.490173 -0.741319
927.509094 403.416901 -241.691650
913.719971 420.631195 -348.729401
1319.323242 632.601135 -268.323578
767.286621 857.968689 -86.106224
1408.424438 312.139252 -269.628937
1432.014404 547.533813 -227.002213
611.526123 885.065674 -281.312378
703.503967 879.747437 -87.865105
1403.206177 364.249786 -321.382935
