ply
format ascii 1.0
element vertex 1350
property float x
property float y
property float z
end_header
351.998718 -836.847656 -828.069519
386.404083 -684.154602 -909.446960
428.089417 -817.096558 -824.455505
492.451508 -479.429565 -887.121643
737.120422 -1217.441650 -479.535736
329.270355 -724.399414 -918.260498
650.802063 -1247.726440 -594.869385
594.274231 -1264.018677 -379.390900
534.893127 -804.682678 -468.535065
282.037689 -879.720642 -605.209412
517.238159 -786.479248 -851.322571
563.841919 -778.683167 -602.169250
416.803436 -677.862427 -916.884033
602.838684 -782.101196 -517.283386
460.384247 -547.795898 -896.305542
486.231384 -798.077515 -503.160950
657.005005 -1236.581787 -438.770233
380.004791 -565.413818 -916.231201
325.721130 -1319.923584 -772.417175
766.214111 -1166.938354 -672.967468
590.995728 -1254.851318 -516.287415
385.521088 -691.916931 -909.460693
457.141693 -618.452942 -891.375366
810.145081 -1191.161621 -537.666809
372.456421 -846.294678 -493.849152
412.888550 -800.891357 -577.390808
574.371765 -798.873474 -486.507416
791.638184 -1162.225952 -740.850342
379.486481 -684.748840 -905.764771
804.259583 -1193.643555 -667.623108
282.588440 -521.916016 -949.670593
407.864044 -1307.545532 -567.861572
475.169495 -1302.932739 -610.432007
673.807739 -1184.339355 -707.588989
435.531525 -483.736816 -908.734192
335.141083 -508.990417 -929.681030
853.994263 -1186.442505 -694.188171
384.589478 -833.711365 -466.310760
329.060272 -519.705444 -943.104858
754.202881 -1194.714111 -548.955261
521.512146 -1274.762573 -557.782776
548.168091 -673.521179 -841.791931
896.036438 -1151.076660 -663.903259
420.726013 -832.086243 -490.511932
695.757690 -1242.538696 -579.306641
308.422272 -1348.523438 -704.182495
393.922424 -838.605774 -684.748230
303.446747 -1322.408325 -713.508118
504.242706 -1033.312744 -624.829956
287.622559 -632.447205 -932.387268
555.167480 -493.810516 -871.475891
523.054016 -429.676453 -892.131226
348.107758 -502.018921 -923.945618
437.236847 -804.345398 -654.310608
613.463257 -1149.869385 -737.742065
762.883789 -1217.908203 -538.811035
335.798462 -1300.934692 -715.912109
543.454773 -777.947937 -502.893646
428.370270 -819.792236 -626.717896
415.112823 -466.416382 -912.747681
510.729248 -783.479309 -529.771240
559.499329 -1261.483765 -652.713928
781.495239 -1153.770386 -694.368774
523.492859 -567.342468 -873.378113
535.928040 -783.833740 -505.095154
586.457642 -575.001221 -845.576538
468.476898 -1258.590698 -746.466125
526.351196 -1256.317383 -883.223816
461.926910 -1282.726318 -531.506775
743.822021 -1211.419556 -518.270752
674.502930 -1234.527222 -568.034729
326.019684 -539.926453 -929.632324
526.296265 -785.052734 -640.350586
455.094086 -816.895386 -744.153625
455.205383 -819.929077 -457.304016
360.915985 -466.555206 -934.776428
487.679718 -799.280212 -856.737732
679.183533 -1212.459473 -668.612610
773.825134 -1199.612915 -593.056824
825.248291 -1170.090576 -612.275879
602.859131 -758.167603 -710.928345
614.270996 -1235.816772 -514.228760
506.088593 -1292.434937 -707.338989
790.489136 -1183.152710 -630.953003
665.121399 -1247.699951 -455.721619
783.599915 -1158.247803 -654.537720
330.100342 -1325.802856 -644.931458
373.054504 -815.285950 -704.108337
521.857361 -447.102631 -886.779724
736.892822 -1227.093994 -539.445984
467.660492 -795.736023 -531.043030
521.214661 -800.151917 -489.353973
345.354919 -522.389709 -926.740234
500.220062 -607.443970 -881.874695
575.991943 -750.841187 -636.988342
565.947205 -633.310608 -866.208252
644.497375 -1251.088867 -411.872192
531.747620 -828.009399 -472.686188
735.199341 -1173.835938 -921.111938
543.087097 -773.366882 -781.219543
266.412903 -902.332764 -522.159912
506.119629 -468.253998 -876.844666
545.881165 -790.667725 -714.196289
364.848846 -814.711731 -694.532166
312.824219 -859.479370 -491.047485
511.650970 -1299.432373 -432.372101
509.335480 -1303.981079 -593.137390
373.846069 -869.011658 -476.418060
425.618835 -1312.895508 -909.145203
500.935669 -793.434631 -481.987152
569.194519 -1218.508789 -519.574585
395.290405 -562.436279 -904.154175
711.642212 -1222.445190 -540.535400
379.009430 -833.124023 -855.166321
860.753052 -1172.126343 -654.142151
453.331726 -1259.896484 -729.663330
480.021332 -485.930298 -894.007019
724.685547 -1234.382935 -791.877380
550.737610 -1266.168457 -434.540497
635.462708 -570.852112 -652.636230
321.996765 -589.759338 -940.027771
555.431946 -523.400269 -858.948853
319.405212 -507.790436 -939.178589
309.760529 -868.772217 -623.936890
555.711304 -1262.611694 -639.415344
439.065643 -536.971436 -898.394836
559.771057 -1157.134644 -562.513306
808.912720 -1181.163818 -603.194275
685.300476 -1145.995361 -705.824646
665.687195 -1226.635254 -710.762573
632.794373 -1160.918579 -717.599426
546.026489 -1219.330566 -560.998901
589.941162 -823.667603 -472.569336
493.163605 -453.398010 -887.383362
679.508484 -1218.094727 -654.577271
563.058655 -1210.265137 -723.421387
378.956238 -829.128784 -701.007874
363.327637 -866.307922 -484.078369
440.961761 -827.178101 -801.152954
719.633301 -1214.702026 -1088.529419
321.673035 -1299.804321 -702.358521
472.994995 -794.223816 -729.642334
389.971497 -1315.341064 -616.215393
801.811646 -1190.705688 -589.557068
301.452026 -1343.081665 -693.612549
735.665466 -1194.167358 -869.132629
302.468018 -559.364075 -929.125671
460.792786 -1159.664063 -679.392883
357.310577 -1305.023682 -661.898193
322.688934 -1265.670410 -669.799988
761.105347 -1194.516602 -638.907288
787.717163 -1198.461426 -853.044128
776.673218 -1184.865479 -544.010193
519.733887 -1165.119995 -548.128784
496.560303 -701.185730 -890.104492
481.173584 -1265.569580 -818.752319
819.951050 -1166.097900 -589.574097
273.055084 -859.064758 -657.895264
742.456543 -1215.302124 -782.992493
574.007935 -760.843323 -568.881531
541.991516 -770.753113 -647.655518
493.023804 -1288.268311 -528.642090
332.116943 -720.082214 -914.717712
808.908875 -1184.566040 -972.841614
380.698395 -1268.761597 -757.445496
264.924530 -642.401306 -938.074524
618.855896 -1242.721924 -448.360413
421.571899 -513.335632 -910.302307
452.263641 -1313.335327 -892.827942
322.212555 -496.096069 -941.280029
642.792542 -1253.574219 -650.267029
601.567993 -752.661316 -761.356018
344.506134 -1279.963745 -681.902832
515.284912 -799.998230 -810.187378
580.237366 -1198.447754 -544.868347
664.276917 -1226.380127 -576.017334
287.701935 -599.646057 -941.906860
567.281616 -771.202637 -815.237976
420.455048 -613.734680 -892.183228
582.686035 -1263.663452 -403.521423
712.380859 -1222.708374 -655.849670
781.178101 -1207.890747 -1098.475220
325.081085 -514.635864 -946.485413
814.060974 -1189.699585 -527.940857
402.305328 -826.060791 -839.332275
462.653809 -685.526611 -888.506226
546.423279 -571.073425 -863.164612
399.495331 -517.804260 -921.360046
568.511292 -765.248474 -788.766174
418.773682 -507.102600 -914.670227
448.985626 -823.338135 -561.312256
893.849121 -1157.568848 -624.645935
468.960480 -806.484863 -812.047363
889.049561 -1152.967285 -712.593628
383.747925 -812.115479 -815.291748
439.794189 -1301.956787 -644.450012
501.963379 -798.243774 -867.838196
794.709900 -1188.298462 -604.839966
446.770538 -1300.615845 -657.888977
285.322815 -853.811890 -605.311218
311.772461 -1340.972900 -701.385132
581.228333 -769.500000 -509.724792
647.874817 -1255.596191 -607.257996
342.875244 -509.583649 -940.893494
764.863037 -1204.883423 -566.986572
497.044464 -795.249207 -496.963226
596.158813 -1255.495728 -510.406769
366.888306 -482.303619 -935.233521
318.585602 -1320.351196 -782.236450
537.467773 -526.544739 -868.260498
756.283203 -1170.288818 -694.019470
813.981689 -1176.176636 -548.625549
583.253235 -759.791138 -563.616028
474.670685 -515.925293 -887.752441
351.717316 -477.625336 -948.845337
741.963074 -1165.423340 -736.963989
409.334534 -580.666687 -915.737793
434.601288 -813.369385 -805.994568
573.728149 -1262.051270 -421.097931
430.132813 -1228.317261 -735.337769
641.596619 -1230.270996 -546.786865
358.585846 -642.430725 -906.788879
347.571075 -544.215027 -952.184814
612.732666 -1249.936523 -414.082458
377.896515 -717.947327 -915.352905
343.225983 -569.975647 -935.648865
736.532288 -1199.322998 -468.424255
312.067108 -858.703918 -510.059326
494.210175 -802.694031 -520.019287
619.374390 -1261.494629 -419.870941
463.521851 -606.287720 -879.347778
610.926331 -1256.937012 -485.435425
865.662048 -1155.055908 -683.113281
447.505432 -822.335388 -706.692932
660.664734 -565.026123 -736.449219
491.174774 -801.402405 -487.760590
400.768921 -831.962769 -679.646301
323.290344 -479.532318 -943.299988
541.303711 -771.863037 -790.373779
569.723938 -594.441284 -859.414795
446.158630 -787.976685 -612.489441
640.347107 -734.145752 -667.335632
386.941650 -830.805054 -517.299377
652.266174 -1225.111572 -557.933777
441.027161 -672.183350 -907.482300
528.397217 -778.619202 -629.656311
641.109741 -719.539063 -654.844360
572.453003 -1228.263062 -495.887054
455.221527 -1294.016357 -514.345337
320.402100 -581.390930 -925.879333
498.818634 -1281.126465 -534.577637
446.826782 -607.060852 -896.293518
678.560486 -1242.122925 -650.856812
531.606201 -773.252808 -729.046997
420.333557 -681.131470 -907.885254
556.713013 -1230.918823 -668.006287
539.596069 -1218.534790 -583.445618
749.055847 -1209.386841 -571.420532
465.850159 -1307.086304 -666.939026
792.623718 -1203.566040 -608.812439
315.270691 -697.143494 -919.079590
305.130249 -612.376221 -929.976501
291.631775 -608.274109 -937.135193
535.507080 -604.492188 -873.954346
589.592712 -1215.578369 -571.444275
468.927460 -473.061707 -896.292725
354.986908 -726.141113 -916.208008
456.756256 -1279.381470 -663.157654
334.417725 -453.876587 -961.506104
552.113953 -522.668396 -869.179626
349.308502 -530.906311 -932.169373
449.174469 -1256.982788 -730.864685
516.809753 -684.459656 -885.630676
439.549072 -1301.716431 -544.340149
502.385193 -1279.418457 -482.700012
371.719727 -491.373688 -933.880005
290.347198 -604.838440 -943.790833
512.179626 -570.473511 -878.358826
566.652771 -590.417603 -854.399475
805.622803 -1177.890381 -997.808472
350.373413 -626.227112 -913.756470
540.450562 -1274.944580 -409.412079
725.414185 -1183.189087 -721.148804
383.028137 -456.295654 -960.779419
576.671021 -643.457031 -843.324646
896.804688 -1163.502197 -638.491699
563.910706 -792.529602 -485.166626
433.919250 -1208.115356 -712.506836
735.870911 -1181.771362 -904.465576
720.047607 -1199.667847 -649.399414
263.605042 -533.132446 -977.471375
573.218018 -1229.926025 -440.108917
337.901886 -498.190308 -949.741943
544.449585 -1265.557251 -403.373016
520.521057 -1274.813354 -682.844666
657.403259 -1213.029907 -689.163757
335.235016 -853.542419 -481.120361
703.046875 -1217.941895 -871.002319
401.463440 -835.720764 -481.713470
607.780701 -747.419556 -709.068909
685.053772 -1229.019287 -543.679810
592.959290 -764.115356 -519.294617
381.553375 -1311.961792 -680.188782
729.455322 -1216.388428 -452.523468
320.101929 -886.614136 -490.087677
515.195740 -490.251099 -874.810791
317.544189 -875.489990 -527.615723
559.770081 -788.489990 -524.847351
421.014923 -1317.251099 -616.599731
821.763062 -1161.063477 -1074.215210
531.158386 -780.994568 -785.143433
564.625305 -1246.265991 -511.802826
749.097229 -1201.778442 -888.744080
683.923828 -1239.570068 -619.916382
382.304047 -813.819214 -616.431946
446.575439 -701.874634 -885.215088
311.750824 -1290.099854 -676.076721
890.864746 -1176.799072 -597.964417
735.497314 -1200.519409 -892.674988
327.493744 -1241.524414 -664.111206
488.073395 -776.863342 -666.791992
644.873535 -575.403992 -551.435913
433.107178 -503.634460 -923.273621
524.031494 -1239.084839 -617.867188
493.396790 -1297.563232 -599.583557
565.901245 -768.231689 -684.824646
431.517853 -825.949829 -478.495789
487.209900 -1287.664551 -595.421265
394.352509 -1284.812622 -756.134033
791.307373 -1201.647339 -523.578064
459.120239 -787.634521 -638.319702
624.260498 -1232.243164 -665.931030
815.777100 -1175.039917 -597.912598
698.413025 -1166.651367 -767.763733
394.819427 -1336.300049 -598.916992
398.421478 -482.852875 -922.821167
435.102386 -818.653564 -503.077606
449.859772 -1312.172974 -660.667969
482.341400 -1301.751465 -550.614502
503.019073 -793.198547 -665.533691
510.852234 -1268.327271 -396.501709
531.659851 -598.539185 -876.066162
394.509979 -599.547852 -914.396912
640.320496 -611.308411 -535.503784
741.568726 -1217.618530 -492.386108
389.676056 -1310.146606 -659.234070
422.717041 -1305.051880 -586.285522
452.552094 -820.569092 -695.515320
408.121887 -832.239441 -490.076935
849.405212 -1188.087646 -569.157288
813.866333 -1201.340942 -570.777039
484.550446 -1268.488281 -730.158630
596.418091 -773.257324 -759.601990
678.009155 -1163.164551 -810.732727
670.246399 -1236.074097 -727.626038
606.779541 -655.409363 -869.648499
802.713501 -1191.315063 -532.023560
233.943924 -879.803528 -665.330017
622.232910 -749.869202 -601.403992
435.831757 -1295.130737 -699.419983
531.067505 -571.300354 -873.262085
258.186066 -598.369934 -943.648926
558.568787 -760.831299 -559.350952
578.831909 -1246.488037 -481.893860
556.514954 -794.479675 -484.980621
564.861694 -590.424561 -857.863342
813.533630 -1172.266357 -623.582458
406.264465 -1296.341675 -687.193970
500.131744 -783.090698 -594.748169
500.334473 -784.984192 -721.608948
614.434509 -746.525574 -622.728333
442.347992 -691.373901 -876.224426
474.755371 -1291.265259 -540.222717
501.135956 -605.996704 -866.933411
580.573486 -813.558838 -487.891266
555.784607 -787.845947 -513.250427
788.382507 -1142.328369 -714.072571
728.702942 -1215.333496 -594.322998
401.793671 -626.497864 -909.541199
593.482239 -1223.424683 -560.780151
568.510986 -1213.381348 -454.255981
420.294861 -834.873352 -655.578125
414.157745 -1309.154175 -587.362305
625.390015 -753.265198 -749.207886
600.580933 -783.757568 -847.938232
360.610352 -834.067322 -507.222351
775.210327 -1160.838623 -732.430908
453.133453 -1269.902832 -700.937195
488.569519 -437.842499 -904.558167
580.293823 -762.494568 -552.496765
364.347046 -530.944824 -931.888306
493.968750 -556.474609 -876.223022
501.061493 -786.716125 -680.833130
821.364380 -1182.923950 -969.703796
420.639862 -817.290649 -768.191833
622.775513 -751.073059 -550.285278
339.561096 -1329.873657 -611.925171
492.140045 -783.557190 -803.897766
523.672729 -497.379395 -879.268738
675.604797 -1234.236084 -515.470032
514.994019 -436.558411 -894.561340
313.706635 -591.417664 -926.433228
579.754639 -765.017334 -535.062378
432.466766 -839.570801 -848.806946
391.005493 -1315.171143 -569.079285
365.626495 -1304.740967 -607.005798
670.373291 -1235.216431 -586.807861
327.807495 -618.715942 -929.416382
329.531799 -843.064636 -746.226685
548.108215 -485.883209 -874.699280
551.304504 -785.483826 -572.061096
796.466064 -1171.706665 -602.471497
624.287903 -628.357727 -836.874756
799.366516 -1202.912231 -1080.740601
323.756409 -628.815918 -933.137756
478.363495 -1289.758667 -517.251587
707.537292 -1201.043579 -697.328186
338.837585 -838.638916 -674.018372
326.583527 -845.498291 -731.535645
478.422272 -1288.483398 -628.439819
393.462830 -820.569885 -630.138916
441.085999 -673.437927 -900.510925
559.035767 -447.542328 -872.495178
697.999756 -1208.608887 -450.168549
441.841766 -1299.849976 -527.154968
274.975281 -859.619873 -670.453735
545.601501 -782.069153 -505.730225
535.891602 -1277.076172 -588.879761
478.606323 -1306.854736 -963.562805
510.942169 -824.099060 -471.184357
519.571228 -424.832489 -896.155029
438.581268 -809.468018 -840.242310
398.871948 -808.529419 -740.006348
306.884094 -848.476990 -639.914612
379.989258 -732.959167 -892.134888
812.396057 -1136.335938 -612.818176
491.492554 -1285.900635 -595.607544
350.668854 -510.949707 -926.389282
501.454498 -803.121887 -497.694427
357.262177 -485.194183 -927.554016
528.244690 -705.848938 -871.807129
900.469543 -1162.230957 -673.758057
466.846039 -807.440369 -615.670898
440.496216 -1303.590210 -619.027527
668.608582 -1221.350952 -822.708557
659.006287 -1230.383057 -750.554871
651.794495 -572.422363 -554.413025
324.400635 -508.367645 -950.804382
500.214539 -443.762024 -890.259399
888.061951 -1174.962524 -615.307922
644.372803 -1242.291260 -496.121918
406.472534 -831.741699 -713.078186
451.971405 -1310.005859 -537.901855
926.056213 -1147.728760 -637.691528
379.684631 -576.831116 -926.602234
400.555969 -577.955933 -926.847046
533.012512 -472.038879 -875.689758
627.144287 -560.051636 -575.053467
272.018616 -598.307312 -945.107239
402.225403 -806.975586 -782.451904
555.521667 -789.212341 -815.864807
359.173157 -1328.211304 -602.413208
797.304749 -1207.042969 -541.169312
562.236145 -756.749451 -572.078674
556.182312 -779.630432 -850.647888
294.118683 -886.482849 -529.529419
783.651001 -1202.276001 -602.777954
266.802063 -837.965454 -663.659851
664.433960 -1243.291016 -542.305908
462.310516 -1278.954346 -500.374390
453.275482 -459.664795 -909.370850
566.146057 -465.997009 -883.367432
373.653687 -554.663391 -926.826477
448.671173 -412.067841 -937.325073
490.887573 -785.630676 -604.316833
401.306213 -1315.586060 -611.751343
534.191284 -556.092468 -867.288330
247.622711 -854.670105 -648.005310
443.522491 -789.534851 -574.882080
583.057739 -1258.197388 -404.955261
767.566528 -1203.773071 -537.292175
673.205688 -1220.961548 -844.112305
333.360535 -826.531128 -579.291748
532.270874 -1141.549561 -606.145813
827.139404 -1170.863770 -613.578064
445.294983 -607.891968 -903.631653
867.142212 -1171.507202 -659.383362
789.968506 -1181.565674 -895.705078
404.188690 -520.983765 -924.092346
607.930420 -1252.781372 -408.664215
670.371765 -1233.494629 -472.708862
394.327087 -830.053467 -825.384216
427.505371 -827.060547 -570.039856
579.891113 -767.785278 -800.392883
367.364471 -657.465942 -919.813965
803.739319 -1171.849609 -656.615784
500.432251 -1299.560425 -471.214935
507.050171 -430.428528 -892.262695
479.347412 -1290.125854 -597.789978
584.798340 -1243.685303 -593.950500
438.746033 -1285.406250 -508.602875
751.675110 -1146.722778 -716.502136
612.148315 -771.159058 -550.387939
491.915100 -819.137268 -816.831482
659.052917 -1195.639282 -1073.679932
361.275787 -819.122253 -797.292114
597.898865 -530.140259 -844.257507
800.696106 -1147.272827 -677.703369
275.316193 -617.249084 -933.518311
329.548889 -826.493774 -730.297119
529.579407 -795.625366 -803.859436
514.001282 -1267.688843 -752.785278
450.612610 -1307.467896 -867.289978
346.191040 -818.450378 -585.862732
531.799438 -803.324524 -785.963928
447.517456 -795.085876 -794.787598
727.720398 -1217.714355 -597.219116
838.730835 -1181.275757 -610.038391
575.720581 -662.001770 -856.853516
581.441223 -536.868225 -854.232422
429.942902 -1304.949341 -561.149475
480.139008 -543.148438 -882.257019
672.029480 -1189.080688 -907.774048
439.846222 -442.552582 -908.541626
610.708984 -1252.408691 -565.693481
269.207367 -859.715454 -676.373962
427.585114 -839.443726 -465.898102
754.812134 -1213.732422 -658.583557
643.516724 -1220.297241 -684.118896
502.847076 -833.503174 -456.025940
341.222076 -467.292236 -936.429443
625.079163 -650.037842 -838.599243
509.274078 -1278.150024 -422.581329
487.385925 -1271.340332 -418.956970
735.785461 -1223.123779 -618.440308
438.601563 -1294.002197 -689.608032
290.889984 -610.117065 -932.527893
428.838684 -808.496765 -580.632446
498.493958 -517.543396 -883.522339
564.992432 -552.138489 -864.680481
569.577820 -768.675964 -538.791138
369.912262 -506.016907 -918.314392
559.454468 -806.591309 -466.673035
771.367859 -1200.144775 -546.222839
577.642090 -1183.570679 -753.182556
488.434631 -669.121155 -871.753235
448.013611 -514.182617 -906.847778
663.470947 -738.529236 -686.090210
702.521973 -1226.267212 -572.493958
419.071930 -803.266663 -528.187988
487.601227 -567.933105 -872.587402
564.959595 -782.980591 -683.893433
403.777893 -1312.827026 -604.227417
517.194519 -802.834473 -625.178284
565.585693 -1168.858398 -703.936035
553.702454 -493.593140 -865.934998
443.406067 -823.906311 -826.070068
530.810608 -1228.118408 -640.875977
828.022583 -1118.421509 -640.955627
438.010406 -823.685364 -564.075073
315.313751 -1329.947876 -633.453308
417.625549 -489.475647 -916.503418
454.145142 -818.091309 -561.337158
592.943237 -1264.343506 -443.269623
641.460388 -655.739380 -626.953064
330.492249 -841.727783 -588.447510
627.054688 -681.159058 -504.214539
485.934509 -677.979858 -867.318726
501.266174 -1279.883301 -540.743591
617.865295 -554.825806 -580.562439
471.787872 -1306.728638 -879.541321
483.079712 -802.172729 -645.982056
387.528442 -820.479980 -669.375671
474.419769 -793.432922 -701.481323
616.296692 -1250.514771 -660.466309
271.363525 -840.633118 -762.502075
648.987305 -1216.200317 -664.551636
311.509491 -831.694397 -747.890686
492.619812 -434.254639 -896.553162
538.188293 -1267.410156 -681.942627
580.355469 -760.732178 -647.706421
352.932526 -1302.452271 -686.268799
656.570435 -1225.025024 -578.023499
859.879700 -1174.767700 -702.351501
356.322906 -616.425110 -925.223816
597.900818 -759.170715 -550.958801
860.030518 -1167.137939 -642.214050
421.160645 -812.735779 -736.706970
628.682678 -556.842346 -710.232910
429.690826 -691.682678 -883.571777
666.515442 -1212.537231 -685.859253
405.682648 -574.255737 -917.230408
299.644562 -606.001526 -933.098450
493.423767 -780.690247 -539.266174
466.984070 -541.938660 -894.000488
830.704773 -1140.372070 -592.431885
664.206909 -1225.908569 -547.819519
561.322815 -1132.810913 -780.517090
501.724915 -1284.774048 -497.103851
707.608398 -1214.883667 -1108.551880
460.503387 -1279.591309 -393.495636
369.157440 -569.846802 -927.922485
477.258057 -793.671692 -524.967896
517.643188 -783.879028 -572.582703
353.144531 -857.665466 -542.471252
419.063141 -834.332214 -479.666687
470.609253 -660.795471 -902.471619
884.351501 -1167.256836 -629.712158
886.406494 -1154.690918 -616.774719
438.929169 -820.109192 -514.815979
408.400269 -1322.232544 -579.268433
602.406982 -784.281555 -493.199493
561.907349 -1237.786133 -460.135132
316.665222 -1311.572388 -649.281189
463.415405 -594.690735 -891.932190
756.477051 -1188.213867 -625.555481
356.550598 -833.045227 -634.410278
537.249207 -1246.755981 -504.758759
584.788269 -1248.779419 -485.889008
763.010864 -1198.786255 -1103.911499
442.358948 -833.079590 -480.278259
457.015869 -1294.990723 -547.173462
298.607117 -865.507080 -492.079102
660.102112 -638.408508 -860.612854
270.678650 -658.896606 -934.080505
557.800476 -768.992676 -677.029541
689.332947 -1228.289063 -518.528015
378.682922 -835.677368 -807.627319
463.999634 -806.771606 -867.677307
438.048859 -809.190735 -566.155884
288.494293 -860.005371 -697.192444
315.834839 -863.341309 -750.225281
551.542908 -770.985840 -788.015076
520.937683 -771.649353 -687.756348
311.514130 -543.085327 -942.505127
447.706116 -1275.734497 -798.786011
479.255829 -507.063202 -880.862305
643.850647 -1225.529541 -458.789978
753.387878 -1199.394897 -639.510254
382.046112 -846.467834 -639.230774
340.829376 -843.835571 -750.811829
489.259766 -590.597107 -882.816223
664.073364 -1247.082764 -423.903900
775.955750 -1203.097656 -806.331970
446.662201 -1286.930054 -731.433228
476.411041 -830.916931 -457.254852
433.251099 -824.970093 -573.419189
603.360046 -1238.522949 -458.095184
745.394409 -1196.339478 -648.540527
595.698303 -785.278748 -514.328186
848.487549 -1175.745117 -586.172058
773.861511 -1220.111694 -826.995728
389.913605 -471.432526 -921.502136
441.600311 -1299.898682 -668.625671
232.791122 -878.291626 -585.619385
612.424988 -729.952881 -591.988403
267.196228 -660.122498 -935.440186
561.883667 -1241.979858 -488.486298
582.510925 -1251.026001 -443.485443
560.634827 -1239.780396 -604.612671
411.425751 -814.216431 -505.395782
510.599121 -811.951782 -479.497894
415.743958 -813.104126 -564.562256
367.036652 -675.322632 -907.169067
400.442322 -1228.276245 -715.166443
852.470581 -1180.137207 -612.119385
349.363983 -1285.414551 -699.954346
320.865875 -557.949707 -932.548950
687.184204 -1216.293823 -853.690552
414.207153 -610.549927 -907.335693
568.678955 -755.497925 -604.178223
284.002472 -852.429993 -576.110107
539.598022 -478.366791 -861.515381
312.425079 -847.473022 -522.874268
851.690063 -1149.309082 -626.200928
553.866333 -618.123413 -864.667480
349.952118 -676.355103 -913.038757
662.325867 -1218.109009 -853.413452
272.718079 -853.146851 -713.219971
425.102570 -1307.737549 -553.500061
571.702087 -570.298645 -842.355896
445.131897 -1292.606934 -700.318787
588.123535 -749.150574 -614.843567
518.160889 -793.256531 -807.619934
332.655579 -1266.442993 -748.781799
618.194275 -763.687195 -649.832642
337.967102 -564.228210 -926.392395
530.373047 -666.809814 -877.020508
355.927216 -1297.678223 -764.257141
450.104706 -683.568604 -902.362793
530.356873 -1227.444336 -531.031494
395.686340 -820.132629 -547.370361
519.249573 -1274.814209 -696.559875
517.101807 -1261.282471 -720.704468
496.262695 -1279.478882 -437.613373
480.738495 -416.142181 -898.186829
533.681641 -795.211792 -804.841431
780.576477 -1193.494751 -896.052673
534.523926 -797.789063 -534.173401
511.083588 -1276.633423 -694.841003
546.205505 -1268.959351 -393.961975
417.326813 -812.371582 -620.401672
825.913452 -1192.921265 -585.529602
660.147217 -1253.505249 -439.509918
452.788269 -814.314636 -806.080078
479.697662 -809.554871 -732.321533
514.447266 -797.335388 -573.186340
575.316101 -1205.840088 -468.324280
533.307007 -416.961334 -899.326111
643.249329 -555.161926 -572.257935
551.774902 -487.216034 -869.858276
826.328735 -1162.148193 -1013.041199
494.966248 -1262.293823 -644.675720
507.621368 -1289.180664 -435.639435
302.986755 -466.606964 -956.794922
633.094604 -1225.549194 -642.459900
381.999542 -604.328613 -912.885498
906.947021 -1169.456299 -613.895508
516.935181 -1228.511353 -747.086304
539.292236 -786.202332 -642.391418
458.861938 -708.695190 -888.163696
444.394806 -1303.653687 -537.596313
531.470459 -1282.094238 -459.237823
630.131348 -1252.623535 -467.407257
293.029175 -846.831787 -721.636536
803.758972 -1179.618774 -551.876831
652.799866 -679.266174 -626.595154
353.438507 -858.681091 -531.557617
507.968323 -436.860626 -897.050476
743.605042 -1197.331055 -903.982544
687.730225 -1211.574829 -883.446350
340.508911 -591.336487 -920.101990
525.219360 -604.040527 -868.709351
513.994324 -586.810425 -866.719177
549.979614 -783.697449 -701.348206
398.733154 -1288.060669 -739.105225
912.946411 -1153.164673 -612.572083
635.355469 -1238.846069 -629.450928
799.473022 -1173.814453 -907.068115
591.742371 -782.374634 -518.102234
735.130554 -1214.779663 -594.284546
335.384094 -637.367004 -920.930481
485.486511 -517.737122 -899.976929
490.429138 -789.557617 -695.479980
419.541718 -1308.660156 -534.107910
632.806396 -1177.729614 -718.398804
473.812378 -1289.572266 -542.273438
540.212341 -1062.593872 -629.190186
583.864563 -758.102600 -762.515442
676.294495 -1244.114868 -520.340027
845.068848 -1163.118530 -642.823669
393.923767 -498.689850 -938.007080
538.114075 -1256.141724 -546.233032
410.158447 -1309.698364 -625.437439
809.507629 -1202.798218 -546.852844
597.032410 -540.170593 -831.593567
502.493744 -1295.795044 -664.918518
371.979980 -1280.428955 -700.256531
567.335327 -1248.399170 -401.923584
597.202148 -1217.518921 -503.869995
444.724823 -415.084869 -913.019531
618.722534 -764.051208 -638.951843
291.673096 -835.658936 -734.680481
520.452698 -787.067139 -610.718323
472.266205 -813.239380 -854.210083
742.567505 -1215.388550 -651.562073
456.618073 -803.267273 -499.585571
354.363281 -854.389648 -784.617737
606.570618 -781.747009 -508.827057
630.121948 -1243.368652 -428.223053
728.183350 -1210.645752 -884.997925
495.401093 -784.344849 -641.060303
793.745667 -1196.512695 -536.363525
761.700928 -1134.998047 -647.418335
375.514404 -445.613281 -935.333862
716.049011 -1219.761353 -496.035614
531.557800 -1253.572388 -479.006287
481.140228 -1310.097046 -935.299500
708.315491 -1227.253174 -596.403687
296.704651 -853.540161 -687.451294
450.887268 -827.265991 -451.341125
376.609283 -823.949768 -612.338806
777.642944 -1193.726563 -879.278137
486.002136 -1288.142456 -578.968018
466.256317 -682.339783 -895.219482
501.002686 -439.897980 -896.172546
434.567566 -810.655090 -641.416870
630.243774 -745.315247 -578.506897
816.483459 -1173.216919 -616.117859
658.980713 -1247.868530 -529.271240
447.042297 -610.410583 -897.404846
511.082428 -632.991150 -878.259949
261.489075 -628.582336 -947.912903
474.571716 -800.942810 -529.017151
398.863953 -599.225281 -918.221802
296.055542 -847.360291 -618.002869
414.702393 -1303.713257 -873.737671
333.098846 -1299.008301 -733.283081
823.051697 -1175.988770 -632.287109
843.367798 -1157.574341 -997.290283
475.874512 -1208.782227 -724.502380
719.520508 -1133.115601 -987.399780
815.538757 -1169.822388 -586.545288
414.013641 -1296.933105 -518.853271
547.925598 -772.333191 -685.770813
834.933533 -1171.464233 -985.942688
615.708435 -1200.114258 -723.501892
468.499268 -814.928528 -677.206543
444.727295 -1302.793701 -715.253052
450.469513 -1300.765991 -585.558167
456.297241 -802.732727 -749.200012
512.004822 -1266.197998 -516.476807
379.540588 -468.698090 -922.689880
344.251007 -668.541565 -911.518738
438.061340 -1288.841797 -717.132935
544.514954 -1262.781982 -601.182373
389.197815 -642.404114 -911.346069
614.581787 -1237.535889 -627.710571
398.859161 -849.333557 -504.480499
758.650208 -1206.715454 -538.412354
378.459167 -636.580933 -923.500793
526.467529 -784.111816 -532.741211
500.010498 -785.446533 -592.721863
549.156006 -760.346741 -664.980835
738.429382 -1191.156616 -685.968689
588.432861 -782.490234 -471.221649
374.969666 -610.777527 -913.993469
814.429199 -1201.401978 -542.142395
606.654785 -1212.138916 -692.868530
749.735474 -1181.831055 -1089.444580
580.574219 -749.462891 -593.195740
764.858276 -1210.320313 -763.919373
834.360352 -1169.130127 -571.556641
496.163055 -792.914246 -626.776062
879.175293 -1163.276123 -685.182861
400.605164 -455.888062 -925.323853
473.536285 -803.776550 -756.182190
511.910583 -804.280090 -621.013123
298.315857 -553.604431 -939.186157
734.113525 -1214.991699 -654.012756
729.169678 -1216.157471 -771.057495
481.229980 -800.636108 -845.608704
298.848419 -640.771667 -933.237793
253.628891 -865.368164 -592.650696
724.170044 -1209.465698 -1056.833496
869.533142 -1167.982666 -574.922424
677.655090 -1242.223755 -473.075012
753.982483 -1205.145020 -660.617065
385.856201 -454.806976 -922.954529
425.524811 -1280.718506 -695.162903
400.742584 -816.541321 -717.232239
457.797791 -1264.264893 -723.642517
539.116699 -431.721100 -898.273376
541.697693 -784.978088 -491.867065
535.595581 -475.262390 -875.738403
355.576965 -1304.618042 -787.525146
822.193359 -1200.188599 -556.481689
790.935730 -1188.091187 -898.189087
554.109741 -812.378052 -450.945679
492.732758 -420.574402 -891.963074
539.968750 -1278.552734 -437.442841
391.872345 -808.635071 -819.559631
461.294983 -565.351868 -898.084961
770.848999 -1205.206543 -850.110291
365.803833 -492.601227 -942.246765
779.436218 -1205.137451 -613.663513
601.185974 -583.722534 -838.699402
517.046204 -544.644958 -872.680420
526.971375 -802.175720 -478.005615
443.699188 -1297.096802 -491.117218
533.811584 -785.126099 -678.203491
774.510498 -1175.783813 -985.676147
319.654602 -851.265320 -807.695862
449.172119 -1297.777710 -588.867859
516.144531 -769.327698 -633.008911
755.651306 -1219.420776 -495.715515
335.395782 -825.919678 -750.807739
514.331604 -1278.266113 -714.682678
369.159454 -459.975800 -954.024963
425.802643 -806.709229 -506.189850
456.564667 -450.410950 -901.095703
578.493835 -606.770264 -848.239258
396.742432 -589.913025 -908.022461
520.565674 -1275.867310 -657.068970
451.461700 -459.594208 -911.051697
641.202454 -1241.172852 -462.669128
415.157959 -832.132080 -550.814087
609.509521 -553.853149 -822.885803
392.875702 -517.389099 -936.137207
660.938354 -1252.728027 -611.386475
447.747375 -489.644806 -907.874512
422.182953 -831.930603 -590.132080
260.965485 -856.652161 -570.679565
794.873596 -1176.285645 -755.833130
645.809082 -1244.035767 -494.770233
637.548279 -759.022278 -761.824219
476.715912 -802.446472 -488.883942
701.244995 -1223.743042 -532.363525
451.413452 -830.936523 -769.612671
404.227386 -716.520569 -895.867371
413.705933 -524.180115 -916.154236
534.396484 -600.257019 -871.814941
585.815552 -1231.355225 -479.263428
450.523712 -1301.154053 -470.705109
438.245697 -807.795532 -790.143066
689.215759 -1245.008423 -531.604919
494.799469 -577.423767 -880.148010
464.970947 -1306.141846 -635.087463
769.086121 -1178.930664 -898.725830
293.532501 -618.582581 -930.586182
368.759979 -512.479919 -924.867615
565.054749 -1264.653931 -379.110413
793.786133 -1195.892212 -572.599915
683.247864 -1236.471069 -535.582458
378.274048 -1286.534546 -722.090332
504.981415 -1284.609009 -943.096558
598.977417 -757.928101 -726.861084
363.205566 -818.233643 -861.552002
536.218201 -1250.872681 -725.200317
567.143677 -757.931396 -571.838074
394.057465 -562.925293 -912.261475
285.788300 -853.687622 -580.987244
515.880737 -1273.704590 -555.568665
635.225769 -1258.874512 -462.169495
580.200195 -526.039063 -864.115295
498.460602 -553.425903 -886.150391
323.272705 -638.460205 -919.109070
767.568726 -1217.481201 -561.510742
432.430786 -495.197083 -909.271851
512.138367 -1291.270874 -563.856140
682.087952 -1236.979614 -546.732361
671.861267 -1142.809082 -730.460876
411.858185 -524.824646 -905.738831
688.337158 -1144.727539 -723.313171
353.830078 -828.650269 -651.428711
856.853271 -1185.144775 -571.562988
558.990784 -467.909821 -866.638794
869.023682 -1160.969604 -667.818359
352.205200 -854.100037 -521.537659
422.915710 -798.140198 -706.256775
518.519592 -800.049011 -497.862701
699.542969 -1201.701050 -724.266479
639.416870 -1230.724854 -424.314117
548.768188 -1269.556763 -426.153076
327.358795 -1327.396484 -723.973633
458.215332 -618.233154 -880.851563
425.103668 -800.488037 -676.855896
528.728271 -1243.094971 -578.131409
468.508026 -830.567383 -457.296204
486.524475 -524.399902 -886.785278
307.136810 -700.356384 -922.262146
811.051086 -1170.614502 -932.127502
604.406372 -1240.259766 -713.118469
397.425659 -706.947021 -910.690308
561.353821 -564.868530 -848.070984
313.874359 -832.083557 -615.304321
281.178558 -577.501282 -930.062561
596.428589 -1258.805054 -404.653351
405.253571 -827.123657 -858.094055
423.215118 -1291.397461 -599.634338
512.773132 -1273.906616 -435.383270
456.808868 -1297.457520 -597.741638
256.292297 -873.401184 -569.105103
674.975952 -1234.330688 -574.916260
621.552856 -758.046326 -702.085449
529.338989 -1286.931519 -578.147461
434.334259 -836.053650 -464.963959
352.490997 -444.622742 -978.720154
324.466400 -532.961365 -931.520386
476.600983 -789.814148 -639.385681
256.488434 -862.457031 -659.334961
367.287079 -555.206726 -914.671143
536.129333 -1230.515869 -554.115173
463.419434 -794.743835 -595.942383
310.433228 -562.114258 -941.023438
567.100281 -1189.929932 -683.696899
318.764587 -865.844666 -658.636536
527.845093 -787.972717 -485.938538
372.092438 -844.654297 -508.406830
299.129395 -501.234863 -944.680542
568.344849 -1249.519287 -646.552551
662.767822 -1154.659546 -804.157227
466.856354 -803.162598 -574.472778
489.353363 -433.271576 -887.846924
323.931335 -502.593414 -946.762085
399.651245 -829.630249 -847.829651
536.334656 -702.310730 -870.996460
520.817200 -1247.109375 -571.940369
445.135376 -525.872498 -907.214233
469.882996 -1283.796143 -705.830322
310.546967 -849.767395 -547.824402
740.942322 -1200.417603 -471.128967
610.655579 -755.262329 -577.476135
819.360168 -1142.956177 -696.008057
580.254700 -1168.392212 -592.484497
544.367249 -1257.049561 -454.808746
624.065430 -1261.840088 -413.953613
494.075562 -1304.363770 -932.063477
484.755157 -553.215820 -876.317627
451.037201 -832.419983 -785.595093
549.276367 -1134.805664 -692.381165
343.706848 -571.101379 -920.497925
370.708130 -838.592468 -806.271851
845.195557 -1175.277466 -589.905945
397.165436 -570.911438 -922.571960
676.326111 -723.178284 -614.942139
479.643158 -812.085449 -818.350586
458.885590 -643.706360 -886.452454
587.736450 -801.675049 -496.687744
855.257324 -1128.251343 -685.018250
531.394775 -1256.790283 -470.281372
378.412842 -698.477295 -910.049194
449.500641 -582.978210 -898.621216
546.044189 -543.193115 -854.083557
496.051514 -519.904114 -885.774841
548.720581 -1265.468872 -614.019165
690.002319 -1220.737549 -706.615417
395.620026 -631.332031 -917.604736
310.506653 -679.334351 -922.626526
271.722717 -853.312073 -608.622375
552.029663 -478.477966 -869.998474
355.952515 -446.795868 -964.468628
741.505859 -1220.497559 -546.600647
246.416519 -586.137573 -957.407593
441.218750 -808.549316 -486.182770
462.695435 -798.207336 -536.202148
436.865906 -423.142090 -913.273560
263.804413 -881.314331 -542.938293
555.918640 -1210.756226 -524.223450
617.791565 -579.888184 -816.985657
769.454712 -1215.343140 -561.964050
412.209473 -450.710999 -917.446167
614.468262 -1248.780396 -624.490112
487.733093 -794.664001 -583.182739
497.595093 -1297.514648 -556.930237
655.245178 -1242.537476 -413.915649
483.755981 -1273.854736 -658.763184
870.013062 -1148.833130 -726.689941
505.031769 -1285.805298 -579.504028
750.432068 -1201.122314 -688.561584
807.959717 -1183.916016 -907.028259
365.497284 -1262.923462 -729.264587
336.708008 -856.813354 -792.875671
541.243103 -816.672607 -453.676636
578.427917 -1248.083984 -412.214264
353.393188 -630.805786 -917.830322
620.562927 -716.739624 -598.846130
474.888885 -818.677429 -684.947754
719.654785 -1220.627930 -621.995422
536.814941 -1274.270996 -591.887939
418.411530 -810.190918 -569.882324
518.111572 -428.208649 -899.750732
371.401642 -1290.887085 -741.009460
512.436768 -820.199890 -454.666077
653.148621 -1205.922974 -707.130859
537.863831 -1276.786743 -688.998352
621.024414 -1231.542358 -612.669617
329.840210 -673.324036 -916.438354
446.969269 -550.507080 -898.930115
478.821106 -1262.490845 -720.452454
557.503296 -771.669128 -646.408325
402.777924 -604.762512 -922.351807
625.083252 -1245.450928 -572.317627
334.836487 -848.126648 -538.494202
433.290649 -1313.610474 -860.856323
484.811615 -1285.538940 -721.382690
729.232422 -1216.953247 -568.649841
600.680847 -766.410645 -539.362122
570.761597 -774.265076 -503.029114
511.917175 -445.433319 -890.564575
673.462708 -1223.751221 -546.036011
266.991608 -855.843201 -563.603577
369.592407 -839.032898 -797.792358
254.251572 -866.078796 -568.371277
348.579132 -1322.032471 -645.202026
514.705994 -594.249634 -875.854919
842.060059 -1175.680420 -559.655457
388.336761 -844.344238 -806.191162
834.376648 -1186.671265 -590.620483
548.297974 -1265.113159 -429.815338
522.174316 -1274.835449 -428.020264
394.767181 -508.870026 -921.506226
487.096558 -1274.531128 -425.740082
404.478790 -608.840515 -908.545654
627.524780 -743.323303 -582.787598
652.678345 -1234.429565 -828.746033
349.201385 -854.136047 -560.858398
731.600098 -1213.017822 -481.487976
511.922333 -1290.466797 -470.999573
305.356567 -707.116333 -929.041443
819.782410 -1100.198486 -616.305908
594.225525 -1251.327637 -572.763794
793.836365 -1193.247070 -715.192566
655.363281 -1239.118774 -511.698975
470.277802 -792.461304 -598.024475
573.439514 -774.052063 -512.886047
624.664612 -757.085815 -737.220276
467.760651 -851.222717 -449.318573
841.924744 -1191.101196 -551.769348
500.534851 -1296.967651 -652.515015
511.662659 -804.058594 -608.421692
454.819397 -657.211975 -900.740417
497.129669 -626.256470 -880.225708
431.981415 -1300.831665 -566.199402
726.845947 -1185.480957 -664.741333
631.330872 -1249.889160 -595.948914
438.460938 -1302.876709 -655.105469
692.093323 -1240.034058 -639.214050
555.210815 -572.894897 -859.806030
787.774231 -1184.074951 -521.518311
297.673615 -672.817383 -923.526794
270.625153 -837.977295 -742.553223
641.923828 -1164.393677 -838.163269
902.747070 -1146.299194 -711.508728
314.936066 -831.023804 -726.901001
567.269653 -519.913940 -859.230652
487.825043 -1290.879883 -610.216736
492.588745 -513.329285 -897.301270
525.746277 -772.643250 -801.264526
568.589355 -529.204956 -855.365051
467.854828 -605.657532 -889.589539
340.302795 -852.193359 -697.598328
468.848267 -1290.972656 -525.116455
692.326050 -1178.339600 -732.301575
530.890503 -812.791504 -469.425842
317.039917 -855.889771 -821.415466
533.831543 -1289.005859 -413.901642
483.391815 -427.701111 -912.236084
356.277435 -869.051941 -486.484406
701.192749 -1157.689209 -710.285583
314.089386 -854.322937 -541.538879
271.792297 -525.851563 -969.008362
406.612030 -835.362366 -708.745117
432.467438 -655.131226 -899.130920
506.781586 -800.516357 -487.272034
413.306335 -610.212341 -893.812317
519.708191 -815.168091 -457.156647
838.448181 -1182.074951 -547.262085
441.546387 -1284.855835 -533.282654
723.758545 -1231.389771 -460.938629
519.874146 -781.640686 -673.103455
527.835266 -1209.780029 -478.102142
694.700806 -1203.720581 -798.793213
537.049500 -1267.539551 -628.675598
507.418549 -467.548279 -894.255737
324.636902 -849.754578 -764.093750
297.631012 -497.749847 -941.991699
628.566345 -675.724243 -848.421814
538.494385 -1271.975464 -578.758179
369.677887 -1317.424683 -650.427368
467.084045 -416.100891 -913.629578
387.547180 -834.910645 -829.063049
384.611359 -715.801147 -897.834900
536.318176 -1247.069946 -735.624329
441.234894 -1286.455811 -564.146667
544.641846 -1246.635864 -687.602356
508.853882 -441.255554 -892.970398
504.248047 -785.669922 -572.159790
435.960663 -805.904968 -539.821350
911.692261 -1144.048218 -662.546265
537.134827 -771.149109 -841.088806
526.715637 -518.328918 -873.977722
767.575500 -1146.161499 -684.928650
505.658936 -790.621277 -508.678101
419.452026 -1304.770630 -593.036804
739.151001 -1217.326172 -1096.700195
646.831787 -1240.291138 -444.766541
477.714569 -685.745605 -894.299866
500.302551 -1280.787720 -412.498993
881.895996 -1168.318481 -681.389526
463.279358 -1311.219849 -519.235168
335.294830 -498.555298 -945.790894
403.077698 -1308.661865 -518.526062
494.092438 -1281.968384 -484.997528
436.049438 -618.665100 -899.042053
518.700195 -1288.087524 -431.211456
322.389252 -690.808228 -930.148499
457.343964 -621.032104 -903.116577
483.426056 -686.768616 -886.032593
793.076538 -1176.325928 -663.039185
333.301514 -1279.288818 -731.387817
389.715057 -855.724915 -834.391296
373.458344 -813.003418 -621.607117
383.300720 -589.837097 -914.640137
756.019409 -1206.343262 -558.785278
691.179321 -1176.539307 -697.637695
551.837769 -770.506653 -552.961243
721.799072 -1233.778442 -521.336182
361.810242 -518.450317 -926.439270
731.883667 -1183.705444 -707.040527
408.235107 -488.463806 -910.680115
633.104675 -750.594971 -750.719543
374.602173 -824.590088 -527.883179
478.310883 -633.690918 -873.385376
413.345795 -839.305481 -693.485718
491.630585 -636.241089 -869.065979
769.448486 -1221.565308 -798.088562
581.170044 -796.587341 -473.510040
846.753113 -1151.883057 -722.121704
558.753723 -791.546692 -491.957031
576.888611 -1208.375854 -693.719604
429.498413 -536.685791 -906.679565
588.031494 -768.746460 -765.871155
560.357666 -1262.306885 -401.758179
289.613281 -849.069214 -633.445618
454.400238 -451.861786 -904.133423
453.250702 -1309.436768 -699.933289
385.010559 -1300.227661 -533.867249
407.324005 -823.377563 -757.453186
339.285980 -1245.860840 -662.109131
509.358826 -778.473816 -662.608887
415.326630 -816.172913 -860.028076
436.163513 -450.918579 -935.041809
691.999207 -1223.518677 -649.028015
620.803101 -1257.628418 -536.475098
495.057465 -1289.023804 -553.241272
349.732666 -503.922577 -938.410095
610.693665 -1257.679321 -434.640717
682.175415 -1226.726074 -664.129517
497.611603 -439.947052 -886.550293
647.164795 -737.247131 -683.092529
509.144958 -1268.042114 -726.379028
364.125366 -857.857910 -517.959473
627.670654 -647.107544 -849.806213
424.000061 -809.200317 -547.173157
410.537842 -813.871094 -676.244812
474.849548 -819.277466 -698.902222
511.419464 -633.232422 -882.059326
404.485565 -847.678955 -764.911865
760.357422 -1178.859497 -1051.061523
306.446991 -1339.137329 -723.700012
274.262482 -863.487488 -740.075439
465.052429 -608.486206 -892.181396
454.622192 -416.355103 -909.093079
779.006897 -1197.674438 -523.567932
420.677460 -832.304504 -834.546082
598.729431 -713.552979 -605.899475
535.182861 -1273.958374 -649.038391
436.695190 -1167.158203 -671.945923
663.651855 -1210.348511 -721.962891
531.549377 -527.782593 -873.895874
453.522675 -823.362854 -640.439148
416.109375 -837.832825 -873.105713
436.811279 -495.519012 -908.351074
310.260681 -857.893860 -800.618713
782.701843 -1188.769775 -1091.293213
523.024658 -782.929688 -523.510010
552.367126 -1072.039673 -600.432861
330.925995 -861.050110 -778.002808
561.295715 -772.935669 -785.558777
517.270935 -537.586731 -867.946472
403.866943 -1305.785645 -668.278687
436.581909 -809.660706 -871.380676
359.054993 -1300.483276 -695.337646
499.941132 -631.191345 -883.976013
659.163574 -1233.278564 -695.081787
313.554504 -618.958374 -927.656433
463.650391 -787.515625 -807.554626
475.008362 -795.752563 -662.461304
849.476379 -1177.281738 -690.866089
364.742462 -553.427795 -933.295532
382.034851 -820.430603 -638.769775
398.616730 -1307.780518 -844.381958
606.508240 -1235.513062 -666.324646
672.556763 -1176.134033 -706.060791
340.583313 -845.840881 -486.653564
590.145752 -1242.799927 -446.212463
457.246857 -1276.920654 -670.983582
806.689819 -1136.678101 -701.539490
552.073608 -1240.397827 -637.611389
252.308472 -864.970093 -620.642334
551.344055 -1251.462524 -476.522522
379.164307 -1307.434326 -717.279419
434.254333 -813.803101 -693.937866
361.441681 -1326.643799 -651.092896
265.776947 -838.135254 -706.941223
825.753113 -1184.555298 -651.980347
458.180695 -649.662109 -897.699158
619.141479 -617.954651 -580.755737
688.807861 -1227.240234 -462.847351
632.860046 -1118.195190 -795.108765
537.014709 -1175.010254 -528.340637
511.248535 -790.694946 -663.775513
746.622803 -1194.184448 -537.181091
304.564911 -835.776917 -595.895813
544.937927 -453.390564 -878.801575
631.514954 -730.670288 -733.267517
376.556549 -823.196289 -693.532715
598.152649 -1253.308228 -402.604370
775.743286 -1200.397339 -686.251587
326.779663 -577.694092 -939.320007
534.559875 -1259.612061 -632.192871
459.476624 -804.882751 -811.266602
290.843964 -855.187256 -688.167603
482.664215 -635.710022 -894.568298
496.547119 -423.486694 -912.458069
523.169800 -519.944275 -874.235779
332.537567 -652.513855 -917.805664
822.115173 -1192.179932 -593.183228
379.197266 -845.867432 -583.305115
314.904724 -866.936829 -554.026733
864.375610 -1179.894409 -613.171814
522.499146 -805.596497 -478.314819
418.918304 -814.982910 -483.958649
486.401337 -808.274231 -850.842590
458.018066 -601.135559 -904.453125
466.231140 -1322.313477 -935.742493
478.200928 -809.453125 -588.092407
475.909821 -1274.532104 -464.444702
654.733765 -1240.270752 -481.979828
533.606506 -795.495605 -518.705872
794.943176 -1188.927002 -1081.259521
841.946899 -1168.027954 -737.021606
643.127014 -1149.589111 -693.927917
508.773804 -1265.796631 -454.374481
385.185760 -716.295776 -912.905579
531.687866 -540.283752 -868.382202
811.552185 -1187.395752 -564.086182
389.768219 -481.207428 -935.877136
454.499237 -1298.775635 -555.879517
661.567383 -1223.914063 -429.386505
812.496277 -1136.688721 -615.504456
551.076599 -1261.534424 -629.859741
391.783661 -825.979248 -817.016296
379.077179 -1319.969360 -586.066711
566.682251 -778.305420 -524.760498
567.603149 -552.726440 -844.209351
548.506104 -1230.199707 -748.168518
611.911865 -792.594482 -521.049194
494.035736 -514.764587 -886.195190
463.273895 -797.487854 -616.396973
391.132202 -836.502258 -489.180267
308.447052 -624.579285 -921.855591
331.148834 -856.758240 -725.639771
532.460083 -599.740601 -866.828613
311.344910 -845.231140 -710.028503
723.578247 -1198.907715 -893.059509
320.283569 -1301.944946 -690.465088
567.481934 -1232.521729 -683.945679
268.282074 -851.782898 -631.472046
438.172668 -824.477539 -805.900452
631.518860 -732.055664 -592.052795
321.508453 -1314.692993 -650.783142
409.673706 -602.132751 -913.003662
318.881134 -1327.441040 -762.897888
492.284698 -471.120819 -881.283630
437.509888 -485.344238 -902.443665
543.808655 -770.599976 -524.025269
409.943787 -1310.883057 -649.910767
313.934204 -1317.638550 -625.425537
