ply
format ascii 1.0
element vertex 1390
property float x
property float y
property float z
end_header
-448.827057 325.161865 983.365417
-1286.561401 299.212830 759.256348
-515.324097 329.878021 981.520203
-556.225830 196.108810 993.704529
-1253.689941 485.442810 582.523499
-1188.488892 634.125000 692.063660
-1244.274780 395.809875 842.977478
-761.946411 339.326599 841.294495
-1112.579102 746.781494 812.905151
-1109.445557 624.542786 874.414429
-1218.960693 461.695892 782.805237
-717.931396 482.167480 721.805420
-717.460205 460.072906 692.032654
-1163.955566 640.370422 774.393494
-1273.114746 329.440979 804.700745
-748.148865 388.358368 758.745361
-1228.170898 345.097046 829.367920
-762.697083 429.335297 595.055115
-413.280365 179.372498 1038.015015
-1203.338013 496.565308 730.694214
-1145.846680 711.064819 705.737122
-864.951355 159.606140 627.201843
-663.990845 108.006874 979.476807
-513.774658 240.116180 985.253479
-678.515259 512.510193 844.248291
-1201.135620 597.362854 685.379456
-1306.666260 329.062012 710.131042
-1242.490479 366.324249 829.438965
-523.243958 209.094559 998.275024
-1109.968994 649.054688 876.139160
-1090.099121 539.019348 858.909851
-492.998016 58.381618 1014.879761
-1227.856323 358.369263 847.769104
-516.414429 224.829910 988.031433
-791.476379 321.537933 890.827087
-769.268555 465.377808 598.194092
-526.431152 384.071198 978.019958
-1211.140137 559.331665 773.236450
-1247.107178 445.425690 687.327515
-1247.964233 418.128906 602.949829
-1223.843994 334.720917 849.730286
-1286.693604 332.483856 640.616760
-805.641357 258.188110 922.197571
-551.262878 199.128754 996.050537
-1184.724365 619.191650 588.716370
-531.792908 180.597824 997.508057
-1183.550171 535.604126 806.152100
-751.627625 372.698700 674.146545
-653.930481 240.028778 981.879456
-757.859009 513.498230 620.318542
-835.813965 231.687119 587.843323
-614.863708 199.487061 973.281311
-748.800171 398.237823 841.388733
-735.641052 476.405365 636.355957
-398.779388 240.243683 993.910767
-1201.721191 589.209595 576.927917
-1175.286865 529.664001 616.788635
-1280.386230 314.203003 941.238831
-595.104736 343.080994 971.522766
-1140.188110 547.940857 848.977966
-1214.718872 417.093597 843.245361
-1208.781860 526.777405 538.508240
-720.032959 4.853851 707.251526
-1242.711060 339.144745 963.869568
-839.081726 196.571854 662.303955
-621.845764 239.080017 991.296814
-813.105408 213.957230 964.156860
-1206.168091 557.766724 583.075989
-534.902344 348.281677 980.987122
-777.006165 301.031830 667.940063
-466.502625 132.975296 995.373352
-1092.249268 741.015808 858.758728
-1263.519897 269.548920 833.680237
-479.509979 179.526001 999.930237
-1268.090332 205.568329 758.369934
-1191.601440 604.491638 783.337341
-517.304871 71.461838 989.590149
-537.658203 418.280029 983.734375
-660.423828 124.397736 973.193726
-742.626160 389.283752 834.030029
-1235.716064 434.480896 637.044678
-749.498291 375.627563 737.565369
-546.280334 175.906982 1006.037048
-771.764160 458.183746 614.287048
-801.565308 260.843384 738.185547
-759.526978 411.029663 597.229736
-1252.299561 414.046356 702.348511
-519.920715 356.491180 983.449097
-1105.727905 707.029175 942.585083
-736.721985 428.802765 803.066223
-1159.388916 545.493591 656.114136
-1195.138916 398.244476 931.413086
-1290.002930 355.496704 674.607239
-801.793579 303.538422 734.259277
-1273.816528 306.345642 778.695618
-1190.966431 606.318726 754.441223
-1142.364868 681.572205 644.633972
-769.728638 283.102142 879.124634
-564.603455 64.649765 999.022339
-1090.203491 547.300110 856.615845
-741.556519 393.719421 791.482361
-1173.165527 657.329895 733.699097
-1087.397095 696.008118 856.340698
-1108.723633 690.668701 884.591187
-1273.967407 395.078857 722.578552
-1200.323364 504.195526 752.087402
-792.180237 253.955841 959.609619
-832.366821 159.118683 728.532227
-1191.119629 603.876892 681.079041
-562.451782 381.317627 976.342834
-812.857117 225.508896 841.969604
-785.737671 274.493561 916.323303
-1111.776123 599.168030 1281.530762
-1180.216675 542.009460 834.997498
-548.535278 302.560242 982.173950
-807.003418 242.909958 762.586243
-431.846985 298.066956 980.826172
-430.640106 336.211578 992.375854
-1239.517578 498.965393 649.775452
-605.130066 105.062241 990.953430
-655.392151 504.643127 797.223206
-1201.603394 575.016113 626.057861
-1244.477295 377.543488 844.698120
-777.301208 327.341858 745.995483
-490.543518 188.486176 998.348145
-1234.888550 479.260101 586.259644
-737.958008 436.912689 710.043640
-853.730469 239.279099 602.588318
-453.128967 243.722153 989.122314
-1091.936157 484.089691 824.437256
-1193.144897 547.986206 690.506287
-1147.563477 701.843994 781.151978
-599.968079 376.404999 971.968140
-715.860474 479.165588 736.327820
-415.145874 331.107880 988.364746
-582.122314 121.621841 991.980774
-1105.564697 744.584595 751.558716
-598.914795 165.074112 992.444824
-1128.883057 590.472961 1037.495972
-550.592041 174.876099 997.154114
-1280.441040 284.982330 728.231995
-1172.026855 623.448669 758.707703
-1280.194946 331.924927 811.369568
-1261.039063 425.260590 582.499756
-1090.785400 725.516113 796.005920
-1251.730835 506.547241 550.993469
-652.734253 224.895538 976.963379
-838.351196 201.082306 627.606262
-1133.242065 624.747375 1247.075562
-1093.704468 736.518555 850.636169
-784.725647 447.002716 573.697021
-1150.492188 557.771790 894.679382
-736.540894 386.242859 886.423157
-795.393311 262.613678 889.322144
-733.140564 423.320251 724.579407
-456.727753 243.799301 992.549622
-794.587280 295.583160 857.725952
-1219.542847 413.476746 750.213074
-1085.968628 807.040100 860.489197
-1200.940430 593.161926 664.902039
-500.806854 122.264771 988.969177
-598.388000 252.665207 985.313660
-796.971497 400.495483 582.680786
-1277.513184 369.493286 623.683289
-1131.506470 668.370850 787.520630
-820.811890 150.466873 818.727051
-1152.104126 680.956970 698.236145
-1146.306030 717.952881 717.560486
-1100.062500 794.450745 841.627441
-1242.362183 445.766968 516.342590
-1177.250122 559.424255 1010.494324
-872.438232 202.072418 582.242065
-1138.980469 568.822388 1087.614624
-660.726563 127.741608 991.318359
-1159.508423 653.784851 756.405457
-1084.139893 767.320801 826.481506
-1141.884766 674.386230 864.885437
-680.724182 195.577362 979.468201
-442.361694 164.099197 994.832947
-1266.338867 440.608307 650.038635
-762.699829 347.839203 747.167175
-820.904907 272.891144 606.577759
-1254.142334 353.393311 1007.100525
-591.437317 382.554260 971.039368
-754.312439 369.105927 889.270203
-545.930054 193.165390 996.768250
-1243.631958 408.474640 794.307861
-1229.302246 436.511322 815.081177
-782.439636 350.158447 609.142090
-1124.354004 691.426025 820.014587
-1152.762817 639.683228 721.551331
-1240.058350 340.596771 905.115356
-1266.654663 345.767609 782.534790
-1243.194092 444.338715 548.695984
-1211.779297 517.837463 593.208740
-514.971619 389.873901 964.158569
-495.609863 94.317970 1008.382263
-511.598724 211.950333 995.226379
-716.850891 163.078583 970.947021
-805.421265 234.109238 962.316833
-494.264191 209.318787 996.163269
-662.628540 266.496948 993.293579
-567.278198 422.073364 972.104431
-747.606140 393.780487 647.107300
-835.861633 200.542389 627.388367
-841.740784 183.797806 679.061951
-468.222961 249.726044 982.990417
-419.858002 308.180634 992.546692
-587.220459 382.411163 964.531067
-614.746399 304.184418 982.530579
-1214.524292 555.423828 525.262939
-670.096497 192.241074 984.128235
-780.032532 286.250366 696.421997
-415.037231 328.925629 993.499329
-1211.542603 492.842407 652.598206
-771.304382 443.613281 616.851563
-628.550354 270.294800 974.121155
-770.510925 352.779266 662.290771
-1120.424927 576.782593 862.966675
-637.139282 153.948868 976.264038
-786.784729 297.931702 724.693787
-661.430237 188.318008 974.391479
-574.193359 276.855865 985.859497
-489.188019 156.661407 998.623718
-814.043152 237.536148 718.536011
-1190.454346 622.847168 652.367371
-1121.314453 754.651245 773.090637
-1171.802612 569.793945 878.818604
-460.590820 299.398743 997.352661
-698.946228 22.128597 720.694397
-753.019348 363.657471 685.979614
-677.776306 66.123039 988.612793
-729.346008 481.705780 676.053284
-1169.605103 614.642151 819.801453
-1274.026123 334.594391 741.096069
-1197.202148 606.624451 728.834229
-1096.981445 712.006287 829.463196
-841.343750 238.160049 658.960571
-627.324402 185.245712 986.203247
-439.561371 210.336685 1004.740845
-1114.101440 638.646484 1066.067261
-510.847839 294.109985 986.400452
-740.378540 417.172821 639.197632
-604.835693 58.726192 984.296082
-763.375183 395.385162 821.089417
-1086.831787 655.286194 854.057617
-800.534058 366.030334 580.219849
-732.958862 436.933228 875.190247
-526.060730 220.211197 997.559509
-1094.177979 517.382019 861.069824
-525.889465 83.240593 994.307739
-1199.321289 490.903931 723.264954
-680.513794 252.839645 971.114258
-517.471558 113.685471 988.106934
-857.988892 258.705750 561.198975
-531.500183 381.639832 984.332336
-734.011292 383.732269 897.442017
-754.381104 357.827545 827.564758
-1168.595581 583.268738 826.844482
-800.623840 218.900665 959.256958
-1259.811523 357.842010 802.648987
-505.118805 503.624817 712.082520
-583.424622 319.248871 980.297241
-1272.500000 196.262085 767.471863
-1104.297729 782.791931 824.557007
-718.267029 519.853027 699.225586
-1133.396729 744.571533 722.233521
-1257.152466 419.661804 667.510498
-1305.796997 256.920380 727.855225
-1153.576782 670.557068 744.160461
-1271.300537 249.534912 818.065186
-1246.792847 393.270599 814.168579
-471.874878 260.892395 994.058044
-787.841431 230.854340 879.913818
-1147.916748 654.746216 832.742188
-407.223206 294.273041 1004.069458
-642.397400 78.668831 976.053650
-1140.259888 708.922729 691.142944
-742.556152 485.943298 610.944824
-769.644226 338.094147 862.745483
-783.135803 357.635803 643.749268
-524.073059 392.184937 976.497131
-797.838440 418.395996 588.948059
-1181.034546 594.925537 980.659241
-1205.220337 552.245361 697.523315
-768.626099 432.211578 599.238892
-1205.398193 546.656067 677.162842
-1112.554077 611.048462 895.937073
-1163.650269 608.608582 821.371460
-772.672302 323.858612 725.096130
-1246.530518 352.332397 795.385864
-1116.927856 500.602448 645.750854
-671.965881 149.286591 978.315857
-1159.678589 671.052002 643.718323
-1161.728638 642.072693 763.300293
-1310.683350 316.024231 709.818604
-772.120911 327.643311 727.838684
-1243.495728 473.102417 554.671143
-575.407776 339.600494 990.814087
-1203.258057 584.761841 760.259460
-745.430786 395.204895 748.535828
-459.233063 147.286133 994.791138
-1151.326172 430.797577 859.463318
-1146.912720 530.920288 675.071899
-1177.266479 600.628296 811.658997
-1190.988281 610.841919 588.192688
-638.049561 345.011566 992.363892
-750.263611 413.015839 658.284058
-1243.267700 424.124481 807.329285
-755.479004 351.280487 670.538818
-729.488098 435.130463 928.103088
-768.626221 365.159485 629.811584
-632.745544 354.965240 981.414612
-455.379303 127.578964 999.529419
-1218.881958 402.013916 892.643005
-1178.415649 587.076782 671.989746
-564.878662 275.296967 982.846313
-792.277405 378.422638 579.661194
-779.976990 250.779770 890.104736
-1244.680786 513.876099 601.186035
-474.780487 489.385437 761.249023
-1074.950073 825.238098 853.915649
-407.940674 225.018616 1015.541443
-715.415894 461.757935 859.161072
-808.312317 430.976654 569.140808
-545.026367 341.345764 981.284119
-1158.919312 379.869568 819.144226
-542.158386 222.627853 995.769409
-832.576233 344.176300 557.249756
-1104.177124 543.869507 1110.482544
-436.239288 296.844696 982.778748
-1248.068237 292.448395 820.742432
-848.069092 206.316635 701.881165
-739.366882 471.658661 712.263916
-642.221313 331.897766 973.180054
-1184.969971 550.835510 752.454163
-1161.883423 549.013611 848.838623
-742.051575 454.296722 634.210938
-500.794708 340.514099 978.134399
-763.994080 314.432037 719.916992
-1118.504761 620.102661 1003.080566
-1269.667480 280.050781 863.418457
-1234.376831 507.597687 605.467773
-734.543640 32.751553 652.394348
-749.874329 371.264069 687.495117
-1071.508789 709.076538 853.403320
-1176.490967 575.813049 740.200500
-765.364197 342.083405 735.460144
-449.700317 251.659378 999.532715
-714.267883 484.216980 688.328979
-859.988220 157.391205 634.004639
-738.138489 392.267914 963.531616
-1142.324097 567.896484 1240.661499
-486.974365 55.386272 996.836792
-825.436768 159.735779 732.414063
-636.356384 302.526886 967.872498
-1142.859253 612.531250 969.309326
-1174.122681 621.722107 809.326050
-1322.585449 212.517395 753.538391
-756.790039 440.731018 630.807922
-707.810974 543.234070 785.171997
-559.131409 96.687866 992.709900
-580.207703 138.057190 993.312073
-1094.779541 756.964722 802.557007
-491.517487 92.111954 995.480957
-818.783997 265.925995 878.069763
-1082.406616 434.377228 804.455200
-858.094849 304.138214 567.125671
-1076.463135 752.834351 939.559814
-831.672607 225.123566 727.669800
-1074.924194 741.496033 858.616333
-1139.575928 665.685730 720.252136
-1184.393066 456.021454 709.510742
-1115.596558 595.425964 1176.249268
-831.086060 163.867218 822.194458
-1074.968994 708.531677 840.456970
-1088.718506 452.916748 720.579468
-474.153778 174.977264 1000.926819
-474.638092 202.200943 990.684692
-788.095947 67.813400 668.125427
-1163.162354 488.034088 762.239319
-799.718811 231.662720 725.524780
-416.804108 302.440369 987.275024
-457.814758 280.318604 984.620789
-752.173889 391.339203 862.873352
-818.489502 235.657089 654.270386
-1268.580200 414.728210 694.989075
-779.615906 335.491486 604.471130
-1224.955078 506.081024 664.479980
-735.473816 381.321136 939.143433
-475.124390 335.089478 985.178528
-1086.728638 461.817566 802.373596
-1235.696533 386.038452 788.712158
-1161.520630 650.182068 749.120667
-1170.437866 636.084900 802.868286
-1205.128784 552.222778 614.175720
-1279.973389 370.331360 623.772034
-810.821167 249.002075 939.066162
-657.220642 196.523682 974.321533
-1130.748779 634.415588 856.085449
-693.568115 499.671173 734.938110
-1268.712524 302.753510 741.231140
-1102.667114 526.537415 849.520752
-797.653992 297.936707 625.406006
-531.896423 433.716156 977.167297
-588.183350 114.902779 991.016235
-1272.472046 315.347504 717.120178
-1184.755493 520.288757 830.104858
-1245.914551 444.746124 661.561035
-1120.320313 719.349976 798.056458
-625.276489 407.869659 979.359497
-482.232666 243.753311 989.900940
-826.933350 197.256363 850.963623
-834.725708 152.561707 877.694092
-1278.661621 367.577820 770.051819
-1270.266113 261.168701 745.320496
-1086.196289 764.767334 912.403198
-1278.069580 340.061340 744.846008
-484.988281 167.059509 999.623718
-1268.108887 346.416077 693.608215
-421.067657 181.088852 994.797974
-483.773499 260.966370 988.244629
-507.989532 495.679230 711.138428
-1197.592163 542.127197 604.323547
-708.327271 467.451416 834.197021
-706.191956 478.857697 714.808594
-843.748352 187.138535 780.349304
-1154.943726 696.005920 726.060547
-1191.801147 545.400269 687.946899
-1151.136963 670.584290 757.712952
-1267.612671 294.536835 1063.228271
-1261.977661 411.890656 642.884155
-1168.492310 672.260498 695.614746
-717.133179 455.426666 767.480469
-845.601074 255.185974 605.783264
-687.285706 245.402878 960.825073
-561.994019 400.231354 975.406067
-1109.327148 590.416992 866.892334
-1187.799072 553.975342 853.205994
-1263.964722 390.729401 712.087036
-1066.245239 424.833496 732.499084
-384.394318 229.852875 1001.336670
-587.359192 140.479721 992.539551
-836.595947 288.799500 574.806152
-684.653198 523.490723 770.133362
-762.211853 320.138092 951.817993
-1087.464355 650.465149 1246.605469
-1094.491821 690.354187 895.199036
-1280.061523 319.568756 973.234985
-1295.184326 247.461823 743.407959
-1189.959717 540.699829 738.600037
-745.246765 455.144226 720.164429
-604.671753 81.791260 989.967773
-474.175110 162.476852 997.691895
-751.568054 427.128540 709.426025
-476.117188 335.591766 986.767273
-1204.266235 569.862671 690.644165
-1101.088623 777.569763 848.294739
-830.841858 166.876968 719.173950
-778.354858 298.836670 791.234985
-1119.923462 574.512024 885.848022
-1129.645020 638.987305 972.766235
-1200.635498 540.091614 615.626038
-1111.666138 763.708557 782.715210
-842.231567 164.057816 748.792603
-735.443359 489.511780 653.751404
-496.248260 369.280640 983.625671
-783.557007 321.760406 684.841736
-450.357208 100.984703 1003.181946
-1179.311646 580.631531 820.372986
-868.160522 182.410507 680.971558
-1149.801147 657.995850 665.862549
-769.263916 501.373199 595.431030
-465.517914 336.587250 980.039795
-789.039429 252.733276 933.795959
-1221.953125 467.832458 772.791870
-843.802063 159.925568 695.831360
-744.524353 440.388458 724.191406
-785.356628 235.619537 885.496826
-1099.016357 640.175171 1098.162720
-797.303345 324.626190 615.984497
-1206.070068 536.515747 667.506775
-796.675171 264.867340 844.246826
-1218.864380 536.600586 605.036743
-791.500671 365.466400 595.817688
-415.967926 186.719345 1001.481873
-385.946991 263.896851 1029.312134
-792.265686 291.232391 910.709106
-1196.219360 616.545715 698.971863
-1191.483643 450.164856 715.983826
-1183.404541 623.498352 757.031555
-751.591431 407.721405 758.846558
-524.513367 117.603912 985.256592
-737.679199 410.158783 745.522156
-744.629822 463.815887 665.662354
-1190.689697 609.057678 769.347351
-766.963745 321.041626 928.434509
-700.865051 150.541031 973.081604
-481.956116 374.601532 969.077454
-1261.958740 276.191986 1030.384644
-1192.629028 610.804688 742.590393
-790.807800 337.929718 592.121765
-385.971893 290.360962 998.712952
-1080.873901 774.655762 866.834106
-1117.688843 631.163818 1241.645264
-676.692627 168.832901 984.012817
-1253.960083 397.656403 796.147644
-797.750977 254.531982 866.201111
-1268.709106 398.482513 625.282715
-627.336914 256.893433 969.145996
-607.316284 319.730682 990.665588
-592.495850 343.294525 980.548645
-817.007813 213.759430 919.438354
-759.974792 482.859436 632.335815
-1181.952026 547.472290 880.202393
-533.503784 257.330902 981.723328
-581.454102 194.121063 989.260437
-659.418518 509.321808 780.793518
-1201.348022 575.214905 546.307434
-1277.905396 397.645172 729.266357
-752.217224 408.937531 669.932312
-790.334534 362.547302 644.127380
-542.553589 225.892395 1002.690369
-408.711884 214.198090 998.388428
-759.721558 395.214600 632.439148
-1190.952759 486.779175 670.624451
-557.143555 125.639954 995.977783
-755.653381 416.244507 712.549866
-821.898376 215.906708 710.031372
-742.055847 385.407959 680.780334
-829.797302 179.068863 741.414612
-1142.352295 664.029114 877.724304
-423.908875 297.476227 994.641479
-765.131409 300.662598 955.800415
-799.451233 308.826691 853.115234
-1210.284668 550.286499 592.044189
-1155.677979 550.282898 1038.487671
-1272.556519 287.988586 1006.489929
-1268.515259 317.207520 977.953552
-570.293030 93.676788 981.841980
-1077.859375 673.515320 843.373535
-743.575500 438.695679 641.125854
-436.782837 347.264923 987.041382
-616.068542 324.990021 985.650452
-1098.139160 483.056763 1108.827515
-491.387787 298.238403 996.798645
-435.120453 248.302109 997.134705
-1261.901489 227.846176 749.671875
-1122.152222 730.617798 792.129578
-827.334351 232.687973 597.532593
-517.263855 169.625412 986.989380
-1124.761597 431.954895 925.894348
-657.277161 237.400620 972.163635
-709.634766 471.292145 709.265747
-1138.153320 558.520569 1069.335938
-628.519409 319.109802 969.476135
-679.312378 285.285919 977.143311
-1118.208252 523.142944 1096.927002
-1175.616455 586.144287 711.474243
-800.946167 232.214996 708.297668
-653.203552 110.400482 973.470703
-607.993103 83.705872 979.248352
-1233.095215 472.165314 546.016235
-767.397522 400.702271 638.056702
-1100.052124 778.665466 806.701660
-1099.470093 608.612610 1278.785278
-842.475525 186.891388 856.831177
-686.192139 526.540161 780.596008
-1179.487305 582.643616 647.386047
-415.227936 157.772095 1011.416321
-1171.178101 513.917297 1045.935303
-834.136292 163.425369 855.903137
-1137.100342 585.760132 929.551758
-1155.388672 659.627014 757.618408
-1113.411133 484.207214 637.282227
-1072.257202 804.157898 877.573792
-1138.677734 477.860657 669.326233
-436.027405 133.435715 1006.313354
-1138.739746 727.394409 774.746399
-1207.754395 481.633423 704.246033
-1189.956177 503.815125 821.082031
-804.335205 298.160461 613.208984
-585.301819 341.205414 968.486023
-391.320190 286.658203 994.599487
-1254.735596 297.022675 1012.890137
-1147.142822 517.942261 646.519958
-448.776154 267.059265 985.361450
-775.611389 310.633514 896.650757
-743.833862 410.972351 782.539429
-584.140991 152.871857 982.832520
-757.197266 378.258545 753.116028
-1097.781494 758.215698 861.742493
-1258.638062 408.589783 717.524902
-1265.828003 336.286469 708.639221
-768.236877 346.863464 681.084778
-593.210388 275.200684 983.488159
-778.639099 321.627441 795.653381
-572.942200 328.056915 991.035583
-827.606873 130.686691 807.424805
-838.030457 227.799759 611.595398
-479.416260 304.042419 987.430786
-1207.390015 513.198425 676.743225
-1247.696411 444.987091 673.050232
-451.114044 292.555908 989.913391
-834.416504 231.383652 872.074768
-529.631653 268.462280 981.568787
-1159.828857 612.648132 756.436584
-489.772034 149.912781 1006.516479
-571.580444 256.614044 985.821411
-1243.582886 400.463562 702.577148
-413.209290 180.056213 1003.364502
-597.495911 99.213745 978.893677
-1163.430908 658.863647 672.504700
-1190.414429 573.654114 591.089294
-758.518738 407.381927 641.452148
-847.187866 161.109482 775.706116
-731.972961 483.143890 664.874084
-1221.242676 279.874939 785.328613
-855.657532 202.137680 648.679932
-1147.480835 649.955933 842.042542
-1190.896606 509.172333 818.858643
-841.189514 160.186600 615.752502
-596.972351 67.930893 981.010925
-731.638550 398.685638 941.769409
-1275.310303 298.863068 1029.726196
-751.898438 326.724335 904.889771
-835.305664 236.465393 748.878357
-1242.493286 480.637451 671.202698
-776.080688 357.925201 692.940186
-1227.886108 503.317749 674.942444
-1138.880127 675.410828 839.208923
-1089.873413 723.877808 873.551086
-622.430542 201.161682 992.059448
-1234.277222 524.907227 594.435547
-802.199097 281.881958 660.986389
-733.918274 418.309814 664.171509
-824.479065 220.281235 688.221252
-625.980286 177.207321 981.300476
-790.541687 260.665405 787.357117
-771.781311 274.083557 874.190491
-1108.137085 598.373901 913.424927
-1237.126221 456.106262 566.313171
-763.720154 335.862305 764.368469
-1175.279663 472.968597 675.401245
-1134.837158 688.837280 826.935913
-1158.876587 554.503723 1051.084229
-546.115112 376.879822 985.521973
-449.881012 287.022552 989.542114
-1274.402344 263.340149 947.816101
-1256.988037 302.749634 860.803040
-405.183380 183.169739 1001.836548
-801.737122 307.189362 571.129028
-841.599060 167.217422 683.872131
-1142.957275 671.634521 682.028931
-518.971924 152.511627 1001.566833
-1187.770508 457.998199 699.457642
-832.364319 236.721848 667.383240
-774.062012 352.640656 681.448730
-1234.963379 464.381683 644.580139
-391.373230 319.874573 1017.619812
-1191.238159 557.258667 650.976440
-772.734558 387.675049 665.783630
-463.191711 166.101486 1002.468445
-1138.931396 702.352966 756.756775
-811.937073 232.691315 628.910645
-1114.307251 666.685364 858.882263
-552.373291 77.279015 985.076660
-1257.667358 368.186371 782.416077
-1297.494507 332.301147 726.006714
-746.600952 403.395874 675.822205
-461.991669 154.201935 998.317139
-724.897705 473.709686 752.170837
-494.082672 149.585388 998.234497
-768.519226 415.943604 591.178040
-842.785706 215.758698 757.978088
-665.673462 225.489288 989.992920
-804.776611 239.409210 743.114258
-1080.592773 456.348450 833.076538
-1113.092041 673.831482 863.671936
-380.644135 276.659821 995.559753
-769.200012 365.806000 629.078674
-1128.073120 613.251038 1202.751221
-857.842957 180.254730 619.813965
-1227.694336 507.254150 550.245972
-1289.271484 307.954193 708.601196
-1148.725586 690.358521 661.103455
-765.904175 360.459808 726.782471
-1256.716919 253.028961 762.403015
-794.553101 289.241058 705.372986
-449.012756 195.548691 998.273071
-463.878052 259.762756 987.979858
-1252.327393 416.145050 725.664551
-521.671509 396.032440 963.479858
-519.177185 387.517731 977.228027
-1250.165771 378.237549 724.359253
-591.436035 75.912003 985.450989
-625.089600 53.870602 981.037292
-458.014679 116.619255 999.367798
-1132.187866 719.835022 752.303467
-1174.272217 668.381836 679.037292
-582.469421 296.186432 981.926819
-713.919434 517.160278 684.571533
-1228.111694 423.498077 864.370667
-831.705444 243.433380 780.431885
-768.593018 328.546112 763.185181
-1193.922852 533.347290 627.364807
-1250.261597 317.191345 1041.216675
-585.581238 109.704483 983.988159
-827.552673 196.165100 754.745483
-718.946716 438.757935 731.874146
-1144.570313 565.749756 894.605286
-1158.590698 663.274414 712.021362
-1148.681274 688.325073 713.099854
-810.645935 258.414886 906.210449
-378.642303 298.586487 1005.844177
-538.816956 63.968178 993.573486
-821.842896 295.056091 588.904114
-524.970032 363.407288 972.325256
-401.755127 301.781372 995.400085
-779.978027 401.139404 579.345276
-494.101074 230.470901 991.759460
-768.054077 297.673553 769.814636
-493.203308 257.073853 984.193604
-1101.350098 522.878906 1097.113403
-1121.418213 620.165405 1062.615479
-443.199860 201.908005 998.154358
-505.139557 332.784454 979.404114
-730.201416 451.557892 794.844910
-790.262512 262.502502 660.265930
-813.698792 219.282059 722.667053
-843.600708 175.735962 684.620361
-1184.142456 544.210938 673.065979
-1180.293335 632.998047 745.228271
-438.459137 218.915298 991.537903
-1163.960571 642.253906 760.073547
-1220.556030 381.483734 929.499451
-1232.677979 438.009277 654.759399
-744.624634 403.721283 690.721863
-452.021240 155.037277 993.870667
-549.560974 145.248459 985.779602
-864.227112 196.732513 600.938171
-1124.680298 614.250366 1056.565430
-1138.763550 494.708496 840.120667
-1093.211548 522.226257 1107.130493
-1183.246460 549.108398 775.798401
-808.488220 322.001404 591.195190
-461.898743 70.762741 1019.048523
-668.885803 216.689026 983.039978
-829.741821 219.542969 627.396912
-460.588379 258.727539 991.142334
-1301.813721 293.784210 722.115234
-758.864075 428.489716 684.635376
-1130.324341 672.934204 848.751099
-719.595947 445.201172 886.954224
-664.366272 474.121765 749.670532
-1261.568359 296.208221 786.778137
-1316.595337 224.805252 800.446777
-1133.255493 590.457581 1268.137085
-824.184570 203.437469 708.170532
-1263.057739 401.713379 698.449036
-1143.238525 619.513367 996.297668
-430.020020 320.229706 997.782959
-798.081421 268.296448 787.216431
-1250.788696 449.300690 586.410339
-787.392273 358.883545 586.952759
-1283.708374 318.090240 732.509705
-755.333435 316.335022 867.772522
-1206.709473 381.065552 868.163513
-1268.502563 404.801270 603.286011
-1144.455200 707.750916 737.062256
-614.142395 192.567963 988.049072
-1122.818237 510.586487 1227.879150
-780.856567 412.704224 586.322693
-1075.940674 800.181824 860.054382
-1258.534546 424.037170 771.180420
-1269.564697 341.326294 749.965576
-654.129028 501.936554 773.099792
-1179.944458 546.962646 610.690735
-1201.281616 580.789612 677.068481
-1301.396484 331.011230 701.911560
-648.860901 249.725754 987.131775
-454.490265 61.451340 1002.887085
-594.347229 156.575195 980.918701
-750.660339 411.210175 666.188477
-1293.597778 261.747162 751.886719
-565.630615 132.937561 984.489014
-1249.270142 332.015076 776.682373
-762.947876 421.745605 590.863037
-1270.909180 296.451569 795.802856
-1252.665161 277.890900 808.560425
-596.536133 318.546967 985.333252
-566.155457 263.061768 987.026123
-1174.788086 521.110596 900.645081
-610.087769 427.070679 975.690063
-853.136902 144.687683 664.345398
-440.061676 271.318451 992.346985
-787.360840 304.921112 660.564087
-772.858887 258.040405 942.468750
-814.648804 198.385193 668.045288
-476.063782 154.125656 994.566101
-482.268402 221.737503 993.156189
-566.036011 303.945557 989.143982
-669.566956 133.617722 971.818115
-1173.854980 527.731567 851.982239
-1100.131348 780.484985 813.674683
-1097.798950 653.671570 870.676208
-390.782104 224.231079 1003.801331
-703.079529 135.491745 972.953979
-847.909668 162.051056 646.766846
-1185.054321 621.992432 691.509888
-714.863708 500.515533 657.121521
-1133.412842 644.844604 985.820679
-839.654785 340.348145 577.920593
-620.796143 399.108093 996.565552
-1232.368530 531.347168 587.758179
-747.921753 399.148407 703.042725
-585.094238 355.675049 989.738586
-1100.515625 618.801819 1244.562500
-444.788727 152.588974 999.310120
-444.248444 75.825111 1020.914978
-1144.148682 554.400696 867.748901
-1223.303589 555.864014 546.328857
-1228.455200 451.592590 786.968506
-745.130981 516.911194 640.069458
-548.791321 67.734123 990.084900
-748.140869 526.476746 642.510986
-746.158752 383.490112 781.427734
-443.576141 118.771187 1021.468201
-665.042114 175.210938 988.113464
-595.285706 434.800507 972.218445
-760.153748 380.231262 862.567810
-1178.512085 623.721985 675.227844
-1181.948853 595.536865 550.497498
-804.984192 287.100830 587.049500
-1178.671631 651.473328 676.122986
-1186.323608 566.344238 643.276550
-1166.807617 616.461121 631.950867
-1231.077271 478.900330 541.154358
-668.355591 196.417847 986.715759
-1220.667725 483.021667 579.713562
-381.837646 285.467102 1007.676086
-1274.903076 369.656555 663.811340
-1169.217651 354.051270 965.211792
-789.008240 308.727478 669.179199
-816.595825 171.722610 762.028687
-778.013245 385.447296 614.532593
-572.857361 429.664398 984.684448
-579.044495 370.992981 974.258484
-552.828552 123.288330 989.891113
-1269.969849 369.994751 816.306091
-739.846741 502.500885 677.066772
-1067.479858 729.062317 883.865234
-838.480957 183.465408 694.648621
-600.993835 295.979675 986.971069
-1157.520996 645.885132 639.398132
-795.837219 262.058777 748.167969
-1188.889526 532.969971 623.118408
-1152.080322 676.979553 712.394958
-824.173035 231.305832 756.572876
-1196.276245 621.594299 663.547791
-1259.628418 398.699860 725.483398
-1095.046631 448.635223 755.534363
-1117.960571 440.387787 853.040405
-458.785645 96.102242 1004.923279
-1230.770386 344.655273 1006.037842
-429.556641 353.327057 987.728149
-1095.583252 753.093201 868.463074
-1166.993164 530.117371 611.841003
-692.244141 174.732193 983.748230
-771.847412 322.315521 895.606628
-1260.344482 423.589478 742.780823
-489.565369 291.253967 988.732910
-864.463806 235.018494 559.640930
-603.721680 210.896347 997.208862
-1199.093994 593.794922 638.947632
-1176.239624 397.822632 838.858704
-559.823242 83.570236 988.482544
-1152.698853 654.912231 649.919250
-454.466095 224.520050 990.661377
-839.602539 256.880127 619.407410
-1252.646851 407.833527 748.749573
-736.929810 407.796661 738.623718
-817.896362 252.240799 642.481140
-619.533691 317.074646 991.080017
-1073.494629 656.628235 844.099670
-722.865723 465.112640 851.200500
-527.660828 98.193192 998.634216
-527.278198 387.309937 986.664124
-853.174011 161.359833 657.087524
-681.439392 134.874512 973.866333
-1082.064331 797.065186 888.570313
-728.711304 406.722534 734.966675
-1221.466064 508.308380 568.080872
-614.343628 218.339935 985.989319
-1236.796753 405.076904 734.124817
-1129.250488 677.450195 826.845886
-587.254456 291.932770 973.264587
-1228.095581 368.992889 833.128235
-861.445923 136.250351 689.854126
-487.327881 160.270859 987.377930
-550.265198 358.488281 983.705322
-1152.877563 415.487946 836.389160
-521.091858 87.598579 1006.567688
-571.238098 146.777451 980.827820
-1302.752075 348.397949 685.128418
-1180.140259 619.529114 769.608276
-807.932190 243.205551 946.190002
-590.951172 62.707401 982.420532
-1129.632813 542.636902 994.234009
-1183.802002 503.805511 690.794678
-729.270081 455.196838 650.624512
-759.569275 391.401459 745.466492
-438.124603 229.333649 989.859619
-739.455566 460.091522 626.773621
-1140.692871 389.228638 923.863892
-448.949188 296.643219 989.590210
-797.739441 307.644073 637.687927
-1149.432861 702.263855 705.880432
-428.033051 317.705627 984.980896
-1222.557251 415.158356 773.450134
-758.170471 392.604492 822.211853
-1164.136475 648.061829 804.289063
-414.244324 224.729767 995.251648
-780.112732 387.460449 646.876160
-747.162964 498.549316 633.597290
-807.769775 250.005417 923.660156
-1093.195190 490.901306 761.011719
-1118.501709 606.145142 882.247070
-782.640503 415.408722 590.699341
-789.894714 416.260132 585.069092
-1141.069214 655.396240 766.278259
-606.486755 154.648224 976.009155
-1242.256226 411.498688 670.080566
-1149.203369 711.735046 712.872742
-582.534119 310.474579 984.075317
-799.931885 346.946533 625.251282
-823.786804 194.752411 745.456299
-641.505249 321.893463 984.720947
-1231.067627 448.268616 623.590881
-520.612732 104.801033 1004.388000
-489.360352 193.729813 997.549072
-1204.259277 537.957275 775.289612
-757.818054 374.599457 764.896667
-504.497589 378.018311 980.864380
-539.661743 272.196564 987.309387
-811.867493 291.517639 603.317200
-1271.296021 339.746063 777.673584
-807.220886 272.194061 634.498901
-988.977112 457.048737 768.847473
-587.797119 111.352699 985.412903
-558.001221 229.365494 981.700928
-747.307190 352.376678 929.181213
-1150.487183 650.189087 859.400208
-583.889343 131.251846 985.795837
-1260.187134 394.349518 583.945007
-768.672607 366.276398 640.057983
-1245.096680 411.932007 653.149719
-1100.391479 788.896851 848.763611
-1085.342041 669.886902 910.972473
-1148.925171 675.639648 765.823486
-804.211975 295.933960 743.156494
-429.249939 183.564163 997.933411
-538.961853 169.128021 1000.211304
-995.426697 428.391510 759.046936
-1136.509399 671.114624 823.847229
-1106.101929 443.328705 871.034607
-740.814819 398.029724 795.772095
-1202.283936 535.736572 781.445801
-762.079529 371.169891 620.656006
-797.375427 366.778778 589.312927
-828.503784 194.622833 804.422058
-587.394714 50.705574 984.665894
-673.984619 506.556519 745.522461
-1200.288818 558.735962 972.925476
-1256.039551 371.194977 719.753296
-795.434448 332.125488 714.519653
-748.208984 386.793701 863.046570
-779.052551 290.421173 718.242065
-745.039063 480.747894 620.279480
-732.428101 520.939331 703.328857
-1222.379272 440.243103 787.481689
-578.095337 140.075836 995.050232
-797.044434 338.232330 606.593018
-646.871155 143.804428 980.484741
-489.664581 71.861023 994.284302
-768.537659 314.407379 942.950073
-847.798462 227.339401 558.993530
-857.875732 254.824875 569.786743
-599.064514 379.316010 987.322021
-578.849854 331.994629 982.018982
-1197.501831 603.807251 669.253601
-1201.934082 593.800354 582.983398
-823.970337 201.923157 696.313843
-1129.976440 612.860657 1045.776733
-765.265503 343.910522 749.682007
-823.887878 239.499847 599.260193
-745.623474 367.324097 730.985779
-725.330566 496.099396 685.492737
-749.906982 350.652740 887.898682
-1173.347534 573.162292 866.523621
-758.325684 371.275024 923.062622
-1194.251831 611.479614 734.434265
-1159.311035 679.072327 771.581543
-1148.942505 666.758484 639.398926
-676.214539 238.707626 975.502930
-391.981262 271.246582 1018.890320
-1135.196655 732.178223 779.853882
-1127.372559 671.492737 830.883362
-1159.880859 639.226379 607.093628
-565.305908 272.009552 975.357117
-550.761719 167.341461 998.851074
-760.713745 384.329987 699.450806
-766.862610 350.464844 677.552551
-826.807739 211.465210 638.990723
-650.735962 350.913483 980.632935
-1093.693359 486.650513 680.684814
-418.317841 282.550262 995.531860
-711.334045 487.010559 740.254639
-456.782684 117.831436 1020.924622
-820.530151 318.118073 573.375610
-1214.017944 437.751831 839.761108
-1161.039429 676.410278 763.074097
-778.557495 340.018036 662.653687
-631.972900 363.545105 965.009094
-1158.316528 583.083618 1028.702759
-1231.279785 462.394867 852.104309
-730.769226 375.625946 883.960754
-778.542480 315.587311 845.834778
-1198.306763 592.683167 697.440430
-1204.249023 548.538635 650.259766
-793.513245 449.219025 576.702393
-431.032196 173.553146 1017.404419
-452.476044 352.949158 986.722595
-569.132202 146.809494 978.894165
-572.417175 341.062622 981.205139
-1242.119629 406.256470 734.300781
-544.041931 82.536232 1002.812134
-595.206970 101.146423 989.037292
-759.774536 376.067230 692.075562
-1262.049561 389.026123 738.164001
-777.836060 328.433685 723.631226
-1168.519165 494.272583 1034.556641
-1190.951294 573.434021 847.488098
-864.859924 242.306503 587.489502
-1274.137695 255.714615 746.813293
-817.868408 255.837891 711.975830
-528.208557 137.091553 998.400146
-750.453613 361.154755 846.948242
-781.202209 290.719421 829.496826
-781.528503 353.543976 595.180420
-484.111755 137.051147 1017.977539
-683.207153 170.863297 981.781433
-582.955627 303.045135 983.259583
-848.604980 229.975296 632.602295
-553.019592 294.793121 990.231140
-1248.712036 382.447205 723.426331
-826.417664 284.149261 589.352600
-1206.033569 483.674072 727.767395
-1086.689697 678.012634 935.454590
-553.291504 366.753235 980.331665
-555.284546 90.347198 986.476074
-1195.814331 618.273987 686.825439
-831.514343 199.230637 699.025208
-808.221619 297.349548 638.080505
-760.492981 330.664978 725.022949
-1243.682861 429.467896 797.245972
-436.694397 343.745209 976.580994
-430.411346 240.083755 999.442993
-572.010437 209.508987 990.133545
-756.213379 343.519806 931.558838
-868.819580 233.536789 572.532349
-738.117371 472.254395 633.267639
-612.218079 226.424118 992.938721
-1289.234009 247.422668 728.762939
-789.453613 294.378021 680.776794
-1128.857300 528.487854 929.071289
-790.413574 318.317352 731.636536
-471.095184 87.560432 1000.204834
-793.993958 299.332581 862.184692
-1109.669189 758.063416 777.206299
-1087.010864 437.557373 705.734253
-846.560059 149.381348 829.898315
-832.832214 234.138016 648.613586
-1248.992310 292.595520 761.482544
-533.489746 157.734085 989.297546
-633.249756 282.442261 972.286926
-1199.097534 495.772675 626.671509
-1226.699219 319.183197 796.681213
-813.381531 226.121460 723.987915
-729.894409 411.645599 954.212585
-758.946350 396.185913 628.429749
-662.789673 162.194839 991.467834
-760.992371 358.785889 936.325134
-1125.494995 509.609222 659.008911
-685.431885 248.648926 986.531128
-1229.023315 544.052429 537.630127
-1268.137695 428.079346 754.770386
-786.272644 503.481995 613.534851
-773.392090 346.886749 688.595154
-1160.949829 632.225525 660.710144
-500.592072 384.727722 991.555176
-1231.019287 460.503754 597.951477
-423.952972 308.740997 984.589417
-1194.656128 573.513672 616.423279
-1114.079956 545.146790 908.285034
-718.406067 142.559067 975.944641
-846.794373 253.899109 570.805664
-586.447754 298.787689 986.218384
-572.478088 113.410454 990.589844
-816.303833 287.308807 588.888489
-1173.124268 627.764709 741.594055
-529.818237 343.138672 989.173340
-1089.021484 726.778259 838.504639
-848.684387 210.660202 590.213806
-817.689880 263.169739 622.654297
-609.997192 89.179581 972.769409
-1214.208130 528.453979 583.422363
-472.930237 249.527527 986.495728
-755.876282 500.660950 605.655579
-543.016052 228.369278 993.971558
-753.026794 400.542145 716.098206
-1265.394897 381.060608 730.355530
-768.406006 418.076843 617.627197
-1132.078369 610.044250 1020.988953
-781.366150 309.301117 708.138428
-584.457214 208.642853 993.680664
-818.400269 215.404816 760.478821
-1124.495850 634.831543 1193.233398
-405.469330 262.792633 1004.745789
-1135.574707 530.202515 849.678467
-779.134583 375.861389 691.094910
-1265.965332 379.707581 696.040283
-394.080658 314.676086 1004.798401
-1226.906006 505.539032 611.461487
-826.409607 236.310226 615.822815
-1251.741577 372.366394 814.785583
-1098.349609 673.393860 910.909424
-577.859863 127.078697 985.839600
-1158.803467 659.691101 700.422363
-1180.125366 599.465515 597.021301
-1192.298828 529.505981 603.090698
-808.183716 283.096619 603.516907
-736.138306 427.060181 876.774780
-1193.471069 560.082520 844.138245
-1197.838257 629.595520 607.479553
-1279.431274 260.791962 736.829773
-833.504639 182.094330 730.706177
-1122.496460 402.471344 852.024353
-737.852417 427.958618 834.284729
-1277.631226 394.982788 760.792664
-602.458191 223.987762 973.457275
-757.736267 332.478821 890.000488
-1201.833740 592.126587 678.613220
-1103.939697 719.802673 820.448486
-509.875488 279.827789 983.476501
-506.917786 63.226925 991.377441
-745.729675 402.925110 892.644897
-1260.789917 367.615997 636.748840
-724.572571 503.908173 686.190491
-1248.723755 398.841705 694.964966
-1131.380005 718.292297 763.412720
-1259.919434 408.254364 637.324890
-560.743164 224.797516 994.467590
-759.221069 349.072540 654.836792
-688.881042 241.362427 993.038635
-807.644531 239.150772 708.339294
-439.187225 290.982025 987.816956
-537.353333 180.106461 989.023132
-1150.825684 689.856934 766.714355
-465.454132 277.919861 980.054138
-390.842468 303.725983 1018.447083
-1158.114014 529.663696 1229.071655
-562.809387 116.074158 987.932495
-1149.207886 676.924988 752.052734
-1260.263184 365.775177 770.325745
-546.003174 193.368057 985.193970
-740.760437 405.601044 650.543213
-726.781189 479.089661 641.273010
-1190.090942 534.887268 755.502258
-1111.105957 481.938690 653.189575
-743.871948 496.445251 612.700928
-403.660309 289.730743 1008.286194
-1228.232300 468.449493 606.628479
-1168.466675 448.115662 854.686462
-801.015625 337.181488 554.051270
-670.976807 312.998932 991.363525
-1135.497192 700.832581 819.513123
-769.951172 386.354187 597.001038
-1085.909546 682.755432 862.768616
-1231.530396 495.276001 654.182739
-1085.290405 765.153259 903.515808
-548.515381 270.386444 985.721558
-1107.061157 710.385559 799.996521
-1176.761230 654.890625 657.945923
-614.157715 292.873993 987.618958
-744.830811 469.462921 659.814636
-1121.438599 672.235413 828.917236
-445.658112 312.550415 982.117004
-1238.603394 448.686890 782.304688
-1236.576904 460.539856 548.362854
-841.460754 176.622955 785.718750
-534.052795 195.533310 997.739380
-777.618286 322.137177 927.908691
-1241.553589 351.070129 802.955505
-1183.936890 592.161682 666.130066
-597.945313 336.389679 988.673828
-783.476318 305.706757 808.732788
-845.540833 234.233459 637.176453
-513.573730 237.367630 984.981567
-832.362427 184.070877 852.991028
-640.717224 229.295807 974.808533
-844.685059 128.798248 716.213440
-755.752075 360.900269 758.480286
-796.120544 218.987000 843.460266
-1312.301392 240.583954 745.607971
-747.439331 356.709595 780.099243
-1255.208130 341.438507 1050.154785
-497.974915 156.359344 995.281555
-1237.318848 460.420685 656.408936
-737.601929 38.386005 696.042786
-481.110992 260.914886 984.274353
-851.773560 234.424896 595.748718
-536.342102 321.428925 982.979858
-1182.938843 612.544861 680.648682
-712.488892 119.418114 972.250122
-1279.864868 320.210266 757.341003
-830.592712 305.982727 571.170837
-781.205078 345.149445 616.372192
-423.337952 238.898239 994.503601
-1277.122437 370.652374 667.673462
-649.860168 143.818954 988.485107
-1281.497437 364.362061 633.050476
-1003.003418 415.308136 789.816772
-849.621155 194.502853 836.094971
-784.735779 372.016479 636.204773
-683.245850 223.501755 956.669617
-1230.562866 460.005005 733.278931
-383.133148 312.493622 1011.245361
-1179.245361 493.721130 686.346802
-1159.210938 451.681030 1243.328613
-1105.834473 749.542664 899.330017
-413.739410 187.016876 1005.197998
-600.724243 444.722870 978.499390
-1188.701416 551.713623 702.649109
-1105.528931 621.201416 880.698853
-725.345703 456.729492 831.594482
-1157.025024 617.414490 761.926086
-859.358948 202.947144 637.592285
-551.798584 142.288864 988.844971
-1179.070801 553.452087 794.212219
-682.532837 513.607849 753.626648
-397.519867 245.731491 1016.079529
-1191.929565 563.077942 883.294861
-682.694702 150.010361 970.782166
-1171.732300 629.995667 756.518433
-751.704041 501.421814 623.241516
-1126.371460 729.255615 735.007629
-1106.608032 627.208252 1172.775757
-1236.979126 300.911499 1057.536011
-841.086548 330.534546 577.045166
-1269.769287 318.572601 804.636414
-588.142456 350.766144 976.363464
-1217.441528 519.557434 637.769714
-1269.586670 263.777161 804.691650
-778.186218 350.825562 619.666565
-1218.831665 392.036133 846.725098
-1271.191040 368.364136 672.686340
-801.206848 260.782928 657.414856
-1071.788452 615.571167 849.769409
-1092.656006 737.913452 842.324219
-549.681946 416.010010 983.123535
-1117.931885 607.017883 872.657837
-1099.456787 599.165100 892.786133
-487.127441 193.402283 1003.196045
-786.242554 373.153290 643.047546
-1317.275879 224.341492 739.990967
-366.831299 223.433762 1017.648010
-1179.716553 535.572144 860.100342
-1177.081177 600.535583 623.151550
-1190.579590 595.376099 632.689941
-585.992432 496.868835 718.511719
-707.633057 516.218811 742.365845
-1257.515869 423.323669 627.205200
-1224.928101 477.355927 669.308411
-1234.089844 478.124664 597.415588
-1238.681885 433.330231 775.176514
-1115.311035 520.357727 994.619507
-777.043396 324.810272 618.445007
-1285.527466 336.659943 688.351257
-1115.882813 726.775330 747.714417
-836.380798 268.046051 551.918396
-1188.334351 597.165833 629.470886
-1264.478882 404.742035 660.188293
-731.916321 408.844879 740.096008
-574.765442 358.671631 974.751221
-757.777893 390.484070 643.649963
-482.946411 356.279938 979.573120
-771.637329 371.579132 612.303650
-651.160583 370.793030 984.462402
-773.228027 340.556122 662.894653
-765.395447 316.008362 794.710938
-816.630737 290.880066 561.239014
-1097.190063 552.900635 887.954163
-1170.917358 595.733948 753.249268
-1248.071533 453.192200 583.112976
-776.167236 339.782959 838.984924
-778.480164 357.270020 842.061584
-389.502289 174.899261 1018.296570
-1142.526489 689.507629 757.008423
-548.703247 227.077606 995.298645
-1195.512207 552.416931 578.522095
-1094.821411 622.187561 1274.726563
-772.027649 312.192688 655.973572
-767.544434 374.500427 651.387878
-1254.271973 439.876312 749.761108
-1169.376709 528.053711 755.849121
-841.193848 217.848877 665.943054
-465.377075 348.837830 993.424561
-766.385376 308.607513 953.219482
-1263.762207 394.271729 715.124512
-773.107910 368.553619 604.769897
-1138.297974 507.165283 873.413086
-1110.832764 441.720123 802.226013
-815.197998 247.515488 666.658264
-1277.424194 398.796204 627.483154
-1110.917725 776.284302 783.795532
-1083.910767 596.490356 875.093567
-810.882568 357.404114 594.211182
-1127.916138 666.130371 836.713318
-443.898743 158.260147 997.979187
-652.982544 150.419617 984.386597
-697.865295 512.423767 717.470764
-719.925964 488.295227 762.461487
-658.237427 372.444946 1006.026184
-740.743042 473.749359 643.495300
-839.129150 167.781601 802.961487
-731.652527 473.838531 672.990112
-1276.104980 300.627960 701.879211
-1199.178955 507.274963 678.692932
-785.476624 269.920715 933.055725
-1282.938599 315.843414 990.376343
-834.670654 201.474533 898.745911
-782.132629 365.791840 600.429077
-786.762817 286.130219 628.561768
-816.986145 284.217224 611.736694
-1142.522949 730.780396 740.156555
-783.192322 317.337952 712.601440
-484.286346 276.285950 989.651550
-770.874268 348.190125 674.214294
-411.953979 266.738922 1000.830444
-1121.182861 648.573242 982.858582
-448.400055 307.153168 988.779846
-456.126373 108.741837 1009.168884
-809.059204 292.878448 790.002930
-1236.519287 489.356659 550.622742
-545.251892 394.155945 990.338379
-809.136780 351.811768 598.461426
-742.716675 448.167419 680.248657
-1239.841797 508.393677 549.130371
-1074.721924 806.513062 841.584351
-778.363342 327.342712 663.719238
-594.513245 431.972748 987.748596
-1117.182129 753.898071 742.980774
-405.141144 205.587982 1010.242004
-389.403015 298.370514 1002.170776
-415.815826 125.866905 1011.291016
-1187.751953 615.886292 742.573425
-1143.498535 689.064331 815.451782
-509.776520 50.746868 993.494690
-590.335022 96.038673 990.619141
-1089.718384 664.565674 920.270325
-685.650452 184.323837 971.326721
-506.788940 212.963013 995.462891
-645.432678 308.479095 968.240845
-441.699188 191.213226 1008.248901
-1122.546631 706.130615 831.746338
-568.674011 84.791245 983.530701
-757.402649 361.697540 642.213623
-1087.982666 721.839966 923.775818
-778.571350 361.434418 605.869080
-1177.969238 518.107788 682.593323
-1172.548706 580.202393 751.770081
-1264.644897 350.920471 964.492432
-485.373596 125.604378 995.315002
-746.615906 366.460205 818.530396
-1266.150635 422.372833 662.153381
-644.659790 368.390961 995.022949
-1101.383789 782.997314 811.461304
-1201.004272 561.294128 767.424805
-1240.674194 481.747009 535.045715
