ply
format ascii 1.0
element vertex 1362
property float x
property float y
property float z
end_header
581.948425 -200.397614 -961.831238
908.114685 -48.627983 -644.312439
895.673462 -166.501297 -740.138184
819.390503 -84.125473 -852.953735
472.662292 -436.356445 -1353.269653
504.861206 -505.916138 -1340.041016
391.041626 -492.408417 -1315.533203
440.223694 -164.077057 -989.337158
603.452271 -583.275269 -1295.355103
377.740692 -620.897888 -1263.718140
844.489807 -562.875427 -1314.929688
552.707275 -445.103973 -844.935608
813.038696 40.824432 -756.190979
364.118958 -554.570496 -1293.089966
757.817627 63.822529 -869.031006
556.309998 -718.632141 -1196.542114
370.841309 -219.886032 -972.201294
507.122894 -404.947479 -841.077942
463.948212 -270.795441 -896.707397
533.787415 -278.816650 -903.243042
812.644653 65.258591 -763.359497
643.532104 -258.489624 -921.818848
877.065735 -116.722984 -724.991150
555.373840 -447.042175 -1362.598389
492.116913 -341.938751 -858.955200
474.455322 -642.693542 -1209.509766
667.731262 -250.763992 -937.282349
715.494995 -284.892487 -903.649048
659.078979 -159.181854 -998.895020
758.565247 -764.682373 -1155.718994
599.342407 -378.096710 -855.547791
608.841492 -733.002075 -1169.602417
444.844513 -463.481079 -1353.360107
812.711548 -556.961304 -1302.006836
840.794800 -53.088306 -768.054138
552.000244 -299.089600 -1466.611328
895.403381 -131.675018 -687.383301
524.684387 -412.293335 -1365.928223
686.682739 -295.220642 -1490.449097
745.227295 -648.025513 -1202.982544
529.283386 -328.085968 -873.081360
438.027496 -303.519470 -909.053955
757.225342 -638.968445 -1219.781738
662.192627 -359.907288 -838.841736
493.144928 -389.136353 -848.723816
663.350586 -135.279373 -1024.755737
867.276733 -170.819077 -813.261230
558.601196 -369.109131 -1395.911133
900.534485 -104.020882 -674.240356
634.238586 -142.929520 -988.217834
749.750549 -273.796326 -911.375305
727.803040 -492.968567 -1267.611938
885.359375 -194.578171 -764.179626
611.281494 -313.274506 -907.937134
744.312744 -600.783691 -1184.395874
880.549500 -166.378815 -767.273254
574.375732 -693.480652 -1201.823120
479.616699 -577.663574 -1234.822144
375.253479 -637.273071 -1215.116089
505.687897 -695.289856 -1217.733032
828.946411 -53.611614 -826.536316
365.297760 -639.923462 -1228.961304
890.966125 -121.130203 -682.650940
762.280640 -12.653377 -895.647034
614.703308 -610.921692 -1276.273926
624.404053 -86.109558 -1024.159424
371.462189 -646.873596 -1228.061523
794.248718 52.554176 -796.190063
587.188110 -319.480988 -862.289001
882.295044 -58.311184 -676.199646
901.145813 -59.350277 -650.298157
623.053528 -415.813995 -1147.349121
362.192200 -478.065857 -1324.219849
866.951172 89.822395 -687.577759
598.251404 -294.197540 -881.988037
619.102356 -439.266693 -817.251404
694.674072 -413.848572 -809.921631
872.956604 -199.266129 -872.965088
849.094421 -58.679161 -752.876831
877.416077 -36.315681 -685.597290
398.026215 -181.660522 -987.710388
1033.112061 -462.407196 -1353.353516
898.208374 -159.201202 -731.094360
501.356476 -425.759705 -1371.199463
741.158325 -734.713928 -1169.427856
673.208252 -690.972778 -1219.814941
855.003967 -645.925537 -1217.393921
779.451355 -247.663437 -941.408936
789.079163 -41.811378 -894.246826
425.352570 -629.075378 -1218.799805
583.166321 -369.559906 -847.225525
465.857086 -245.644684 -922.529236
448.607391 -394.893188 -1398.907715
691.348999 -736.479675 -1186.630371
950.818237 -511.229095 -1306.927124
496.054047 -577.807800 -1194.026978
483.038940 -389.047211 -873.870117
388.605621 -444.509827 -1349.758667
489.436890 -354.382477 -1363.058594
600.096619 -372.639648 -830.072937
839.120178 -134.255112 -858.711609
869.622925 49.533588 -687.555725
889.806152 -148.831741 -754.067322
543.706665 -302.505127 -887.130920
886.532959 23.808897 -649.904663
490.357971 -428.383392 -1367.336060
875.309204 -80.622795 -708.623596
631.326538 -700.847229 -1213.158081
579.160461 -366.847290 -859.727051
523.590637 -516.980347 -1319.717407
829.250854 -216.391342 -963.820251
499.394897 -603.092651 -1228.158569
555.383728 -117.113716 -999.204224
827.730774 -81.977943 -812.126831
777.952271 -12.009350 -889.030273
853.871948 -97.924828 -793.791565
496.511932 -457.153900 -1371.514160
553.996704 -446.549500 -1115.681274
517.486389 -314.341125 -1436.376831
473.765289 -337.711395 -876.762878
859.500000 -526.414185 -1303.909912
864.116211 -154.578384 -811.080383
727.439270 -288.642120 -906.371460
604.584045 -267.992798 -941.185242
822.990540 -61.454731 -848.159180
791.273560 -597.108582 -1285.203125
664.105591 -419.511475 -833.572571
475.495575 -401.454590 -862.329163
656.362366 -300.814911 -1472.532837
540.884888 -196.967941 -944.221619
482.854858 -345.490662 -866.817749
633.537109 -439.006012 -734.483582
765.259338 52.689808 -873.731873
598.500610 -394.969452 -844.856812
599.789001 -443.736450 -809.822449
768.123047 -609.568787 -1226.131836
770.907104 -209.068268 -970.183472
686.400208 -261.832031 -931.009155
502.248138 -560.023560 -1181.039307
451.591614 -350.541016 -901.931213
759.110779 -495.743774 -1249.109985
361.691986 -550.269409 -1278.236450
911.984070 -49.675678 -656.460205
544.129883 -613.738892 -1246.947876
829.298706 -560.093750 -1299.158691
609.111023 -330.932770 -1446.583862
575.688904 -378.968231 -1314.190063
754.562622 -124.918549 -1023.304749
826.053894 -138.643082 -862.994263
594.771057 -377.179169 -1308.810181
636.560364 -572.811401 -1276.504272
571.195984 -156.313248 -1023.884216
499.831787 -539.963318 -1302.300659
811.068176 29.381128 -769.944885
393.577759 -286.455963 -941.720398
451.733673 -425.072327 -1383.937256
496.595184 -241.926025 -929.289063
516.581360 -414.488983 -1377.032837
436.498260 -593.892029 -1255.562256
751.555115 -336.244965 -686.249634
717.068787 -606.367554 -1229.515747
896.917419 -65.948387 -684.461914
483.926300 -608.733276 -1245.556030
731.539307 49.544449 -928.970398
500.118134 -268.137054 -926.008606
625.758728 -289.520966 -899.075989
500.221344 -375.137878 -1380.548828
761.165588 -766.716064 -1164.915405
756.317200 15.856660 -916.732544
731.814636 -543.003784 -1262.994385
603.398682 -325.618011 -1439.630981
540.137390 -450.490997 -816.672424
724.358582 -579.968872 -1259.317139
561.127441 -434.257050 -838.066406
595.677063 -362.642822 -846.428833
816.314026 -665.339050 -1208.443115
502.395203 -508.003693 -1308.736694
671.521973 -265.720428 -929.496277
820.027039 -762.523071 -1149.263428
460.604767 -373.252960 -876.323914
734.919678 -650.919312 -1205.643677
587.117065 -372.331726 -1387.296875
695.139954 -707.624390 -1192.048096
495.054993 -580.510620 -1244.206909
663.604126 -172.096359 -1004.864868
735.054626 -685.853699 -1176.594727
579.635071 -110.930214 -1022.388306
566.279053 -500.255829 -1249.342896
397.315643 -680.818054 -1191.398071
729.053711 91.764542 -896.805054
622.068970 -598.823914 -1249.834229
390.537903 -662.353088 -1237.636108
822.807129 2.384897 -778.541504
731.866272 -634.043640 -1229.567749
751.291016 80.020744 -852.955505
432.313721 -507.653229 -1319.556152
866.159180 -169.024277 -772.282837
540.971436 -527.128967 -1247.182373
499.041687 -275.621460 -893.419861
914.921204 -202.683350 -798.705261
828.084351 110.857582 -703.949951
363.597656 -572.401550 -1277.247437
837.204468 17.457794 -732.625488
514.072571 -484.984650 -1337.269409
398.789520 -480.558868 -1321.229492
669.538635 -112.607498 -1040.160645
783.486511 9.695788 -864.732666
640.902039 -615.676331 -1258.444092
743.324463 -349.707886 -686.867920
535.514587 -231.290421 -952.347290
814.259827 -86.941582 -860.321899
441.254059 -531.901855 -1308.334351
863.067566 -146.031677 -820.300720
611.373108 -663.211060 -1225.650024
911.345276 -96.382164 -664.497375
821.003296 9.158298 -819.416992
469.667938 -710.752747 -1184.188843
810.822815 -26.324167 -844.923767
525.052185 -374.349121 -856.914917
871.510071 -86.719681 -736.074585
634.749023 -190.085464 -972.039185
662.913574 -651.915039 -1228.208252
592.254944 -130.361664 -1021.875061
704.350708 -354.374359 -1414.109985
855.131470 -41.742908 -736.278992
844.010315 -59.767277 -794.219238
489.374146 -418.665161 -1400.701050
493.376099 -437.879028 -1372.494385
695.166443 -523.703857 -1262.438599
704.985046 -388.041840 -847.519775
1033.664917 -444.622559 -1371.218506
558.132507 -337.574585 -851.463074
552.270325 -321.365082 -895.974731
427.693512 -642.370667 -1199.633911
604.907471 -416.352692 -819.432129
597.970215 -268.167236 -911.094482
416.356689 -466.690582 -1348.079102
784.444092 68.136551 -823.578064
798.416504 94.722198 -763.471497
899.240967 -96.695396 -683.437012
537.113831 -335.926727 -1406.285522
731.356384 -118.202019 -1030.343994
858.056152 11.643291 -687.681824
812.263672 138.289688 -758.374695
867.602295 -17.823568 -689.755615
474.493652 -332.149414 -876.474304
566.187012 -375.595123 -1393.656616
585.277161 -416.832153 -830.085510
672.496033 -240.403183 -935.996643
867.269836 -80.820953 -738.535217
716.341614 -298.100952 -908.946594
751.792725 -719.697083 -1168.547485
903.769043 -122.205925 -691.435730
601.961609 -680.395630 -1222.690186
642.689270 -264.971466 -945.129883
481.377869 -592.165833 -1224.201904
451.944397 -263.427917 -934.730713
704.599426 -501.243896 -1276.448364
617.422241 -168.136581 -989.422363
445.798706 -287.747803 -894.082947
361.138092 -555.480347 -1290.987427
694.064331 -252.157928 -928.601379
631.959717 -380.894257 -824.021667
700.804260 -572.006958 -1258.111572
748.393433 -15.484595 -945.041016
694.527039 -411.259918 -831.850159
775.769836 -745.513855 -1171.657349
650.759216 -556.052307 -1275.868774
635.557312 -291.790131 -912.918213
409.541077 -490.966522 -1334.378418
504.666443 -370.378967 -1368.026489
830.734497 -81.248611 -822.396667
855.069885 -175.739014 -838.648560
603.897217 -470.754486 -1347.661499
541.811646 -529.839355 -1305.846802
554.696350 -142.475067 -1010.901855
525.507996 -605.399475 -1261.975220
760.289246 -578.791321 -1234.144531
622.798523 -316.676849 -1470.110229
695.300903 -316.061157 -1489.570557
418.411438 -390.948975 -1404.709839
684.791748 -216.354080 -962.609863
772.242310 28.822401 -878.348328
812.734192 -10.892083 -847.375427
802.616333 -572.579407 -1306.132690
670.162476 -372.135315 -839.887024
868.004639 -51.625202 -721.844299
596.089355 -649.997009 -1249.272217
637.267212 -292.017303 -884.432129
559.626648 -441.825073 -819.875610
598.851257 -522.670166 -1277.721313
384.308197 -573.890564 -1280.529785
483.829895 -535.946167 -1285.090332
780.468811 -635.818054 -1226.549438
515.352051 -279.664307 -929.773438
446.977325 -372.627808 -881.383972
859.445129 -189.520813 -815.168152
822.450684 -122.637329 -874.503906
597.055054 -447.857330 -832.241211
521.089600 -314.416168 -879.365906
400.287445 -366.159119 -1413.138184
422.231323 -388.525574 -1398.253296
388.128021 -406.202301 -1371.097534
874.733582 -105.240845 -734.737671
802.369568 29.151266 -804.338074
419.365784 -239.290802 -925.755920
451.681793 -572.607849 -1272.725220
796.490540 76.801674 -787.588867
811.148560 -2.044221 -827.113403
616.487976 -564.700378 -1268.878662
679.797546 -749.133362 -1173.869629
785.693909 -302.444061 -902.025269
793.373535 105.012642 -760.502197
626.169556 -447.443176 -807.221924
837.061401 -43.877052 -793.406982
863.604919 28.819624 -675.008118
635.009033 -405.985016 -814.721130
523.713257 -646.785950 -1235.428955
392.354980 -601.377808 -1255.217407
586.065125 -482.363586 -1199.406982
734.521179 -344.277191 -878.402222
370.695770 -636.305481 -1235.140137
462.958893 -696.053528 -1195.438477
714.300781 -498.978271 -1237.257324
853.760620 -112.037582 -801.736633
828.977173 7.355073 -744.895752
762.856262 -197.050720 -974.686035
711.041138 -655.973145 -1230.014648
725.354492 -636.555176 -1220.606323
686.391113 -154.596954 -980.965820
718.201355 -356.277405 -1408.663208
399.817596 -486.008240 -1319.778809
689.487427 -524.281494 -1318.077759
869.224121 -27.414894 -701.492188
653.311157 -345.302185 -1433.281860
880.467407 -114.819633 -713.202332
588.994690 -196.202209 -959.855347
704.145996 -418.072540 -1219.450928
690.410522 -749.490112 -1175.252319
800.217957 -222.460464 -981.140198
571.046448 -360.811829 -847.761963
463.545990 -584.804932 -1238.253418
580.771667 -405.114197 -1330.574463
486.218018 -494.729156 -1333.765259
548.720520 -528.490173 -1248.173950
740.129700 -623.525818 -1220.837036
854.653564 -562.586182 -1291.856323
827.753906 -112.037552 -859.177307
844.652710 72.984665 -698.768982
473.492523 -543.568298 -1256.483154
888.343567 -201.040375 -822.661682
438.891083 -505.474640 -1338.991943
422.191223 -232.098557 -942.685669
414.336761 -319.591278 -933.479736
477.543640 -538.708191 -1302.270142
731.173523 -529.806030 -1265.723755
383.664917 -677.646912 -1193.179321
518.362122 -362.722198 -1391.370850
592.838501 -580.499146 -1265.630249
666.558655 -482.486725 -1303.317261
686.185608 -283.334412 -902.946655
624.440247 -264.071991 -914.731018
873.848145 -127.108856 -725.410095
848.175964 -5.579227 -735.904358
451.971252 -314.776062 -1429.183960
853.693787 -697.238220 -1185.947144
732.840637 -660.691528 -1135.603149
801.302002 -26.774824 -869.296021
402.748535 -421.084290 -1378.487305
765.798706 -29.728422 -934.463989
661.602051 -587.232910 -1289.440430
641.768799 -415.499908 -826.097717
833.166321 23.566732 -785.915833
485.010010 -248.463913 -911.931274
738.643188 83.714211 -904.307800
681.447937 -670.860291 -1214.356445
864.311218 -188.097534 -822.998779
714.755493 -99.009308 -1047.942749
789.404236 -749.110352 -1159.068848
445.782532 -673.548462 -1217.636597
743.335938 -577.023560 -1224.288452
700.630249 -528.310730 -1256.008423
669.278687 -223.039093 -948.184692
433.756104 -246.780334 -957.237488
766.763916 91.284370 -825.639954
718.305664 -577.859009 -1256.723389
844.367493 -517.644958 -1328.705688
638.616943 -164.155823 -974.658142
507.328674 -357.428528 -1396.767578
827.032166 52.298000 -780.658325
448.813599 -673.667786 -1193.134277
857.569641 -24.837318 -711.152466
552.347473 -327.237976 -1437.008423
721.613159 -343.021332 -1435.476685
546.576233 -356.310455 -858.978271
843.118347 38.698284 -722.222168
515.312866 -660.221252 -1242.416626
730.379883 73.207542 -893.010864
831.983215 -106.995857 -837.304199
492.529510 -138.672180 -1005.211670
789.643188 58.531654 -800.955261
799.547058 -532.310425 -1268.933594
458.101929 -377.575775 -889.530029
852.977173 -4.288010 -725.373718
724.719238 -269.121460 -944.509155
840.737976 -153.902313 -832.336731
665.469482 -423.992371 -816.463562
647.024841 -417.591431 -1344.576050
656.291809 -133.173401 -1011.387451
609.781555 -215.276550 -973.296326
765.604492 -605.701965 -1265.872559
516.006653 -209.788193 -949.185669
446.396637 -691.949097 -1205.106079
804.478027 66.432762 -784.593750
734.297302 -609.148193 -1250.116821
770.291504 -236.768478 -927.875061
643.652344 -665.090332 -1237.473145
463.911774 -676.873413 -1210.328369
441.361847 -320.062561 -1432.666626
712.016907 -613.017334 -1255.423096
833.015625 -286.238251 -926.453735
938.479004 -476.797638 -1264.467407
452.216980 -583.145630 -1188.144775
488.229919 -642.549011 -1225.479858
540.183350 -675.294189 -1217.831665
747.905151 46.191113 -912.701416
447.140717 -205.770004 -956.469238
783.873291 130.898254 -809.896301
384.992920 -440.808228 -1346.258301
609.806519 -204.919281 -960.075500
691.881470 -411.727112 -827.697632
781.064392 -1.402497 -862.985474
789.719971 -239.841171 -946.719482
718.344604 -343.038818 -865.217896
579.954712 -417.024536 -1365.735718
593.016602 -433.035156 -812.801636
867.469788 -69.184570 -731.636536
722.949097 -338.121094 -624.172852
508.861176 -537.366516 -1216.827026
588.181580 -335.518707 -869.020569
580.533875 -408.863159 -1359.656860
782.900879 -191.539886 -978.982056
499.292572 -512.326599 -1158.387329
578.219727 -120.915665 -999.567749
463.443604 -364.883270 -874.285950
654.036621 -695.856079 -1213.922241
755.182190 -233.562820 -929.180786
544.905457 -160.363098 -973.181458
712.103333 -349.020203 -639.743835
494.682434 -169.861206 -983.047852
433.619598 -275.276093 -921.966370
838.259644 104.919121 -694.466003
691.860596 -272.921082 -914.079346
399.983093 -664.416199 -1210.404541
623.831604 -726.147339 -1184.909180
773.056580 78.054489 -848.746765
877.429565 -191.078781 -820.208252
563.419434 -659.530273 -1224.527954
382.947601 -521.946960 -1312.788208
791.578064 -278.137177 -915.958374
752.362854 -327.180359 -1436.840942
463.551270 -379.870270 -879.920044
407.699402 -205.119888 -966.087952
574.777527 -492.371613 -1330.819580
605.084961 -423.931091 -817.572815
841.428406 -110.163269 -793.166931
829.760437 129.454697 -729.725159
419.766449 -380.436707 -1418.475220
782.506836 108.819359 -780.314209
712.011108 -628.180115 -1248.456177
549.979736 -598.792114 -1250.066650
762.385986 -340.254639 -880.159790
842.807495 -40.556107 -754.986755
589.734253 -452.867950 -833.635925
446.916138 -296.942627 -906.174194
587.450012 -477.883636 -1347.447876
821.922424 46.659966 -756.978333
730.643127 -14.147021 -953.868835
513.493530 -477.195526 -1330.809326
476.132782 -659.058289 -1225.364746
844.921448 58.320099 -709.806885
617.667847 -327.713654 -891.859497
553.627625 -679.823364 -1209.972046
442.557770 -302.868713 -1446.146484
689.473999 -166.005325 -973.614014
428.540436 -659.709839 -1199.559937
679.839966 -603.021423 -1242.207031
438.813507 -442.886292 -1349.967041
404.150146 -682.398010 -1190.369019
501.520905 -630.784912 -1214.178711
677.026001 -341.768829 -877.253784
407.849609 -74.812424 -954.061829
602.893860 -616.611938 -1272.123901
412.506958 -356.754852 -1399.238525
865.152588 35.336487 -672.417542
674.187195 -527.698364 -1283.465210
642.651001 -363.671692 -855.115234
395.184814 -295.623169 -937.173157
880.215149 -116.156960 -728.706421
659.457214 -299.146393 -890.449646
424.474152 -556.625122 -1268.785034
622.986450 -621.559326 -1261.177246
810.688354 -38.563747 -853.975891
447.919159 -513.775269 -1304.581299
742.929321 -572.085144 -1235.965454
706.356995 -609.520142 -1236.062500
626.443787 -414.435852 -1369.276611
434.039703 -592.397278 -1238.722778
425.388641 -461.226044 -1355.340942
922.232483 -529.159912 -1270.761963
609.246826 -134.546707 -1017.698120
866.248840 -129.075439 -791.518188
725.914246 -628.371399 -1241.480469
404.536041 -681.838867 -1211.926636
826.605530 -760.745789 -1138.453491
704.916138 -512.674683 -1245.629272
496.888245 -616.816772 -1211.073975
715.585999 -499.007629 -1228.402222
798.321472 -730.019287 -1182.772095
708.227051 -279.183777 -929.104126
724.384583 -97.796387 -1051.764160
607.520386 -81.427017 -1024.720947
496.162537 -696.118652 -1211.203857
604.150391 -433.252197 -1333.907349
406.973022 -542.196167 -1296.332153
874.744019 -39.554123 -678.669250
483.252625 -576.620972 -1249.144897
617.151978 -379.905396 -836.288269
626.995483 -712.897217 -1172.009033
547.442627 -724.731750 -1159.083374
585.177551 -188.002426 -1002.654541
436.590790 -440.831390 -1378.888794
639.531799 -406.233063 -1342.834717
676.470581 -610.665161 -1238.112549
467.101105 -517.901306 -1321.797729
667.328491 -393.314606 -841.966553
655.409424 -365.702637 -853.626526
743.351990 50.065742 -924.366455
735.237488 -239.614471 -923.787598
428.397644 -651.485046 -1223.812988
695.112610 -128.527863 -1019.102722
533.113831 -603.644775 -1245.196045
528.984558 -391.906219 -1365.449341
765.003052 67.311546 -850.661560
555.642456 -442.659576 -1329.699463
827.650818 -47.752850 -825.394470
907.399719 -505.267059 -1275.394897
626.905579 -531.312683 -1277.949829
774.851379 100.171135 -817.127380
612.734741 -562.474243 -1288.068848
428.137177 -241.426880 -935.532410
501.101410 -234.460266 -921.095520
443.446930 -298.512268 -923.566956
474.781860 -123.999237 -985.813354
895.587952 -101.856125 -678.583130
830.361145 -12.128791 -774.900757
528.782410 -701.235901 -1200.679321
721.538574 -735.203613 -1182.229736
417.188293 -522.398987 -1296.690796
785.298950 -689.792603 -1159.698242
490.562073 -463.156830 -1378.865845
566.765198 -630.347107 -1246.593018
585.678711 -400.016876 -831.784851
708.972778 -182.364426 -984.090637
824.671631 131.131042 -723.925903
634.707031 -691.837585 -1201.885986
797.826050 88.882195 -786.635681
831.223633 58.671627 -755.530823
525.129822 -608.216309 -1248.025635
781.928467 -4.512713 -865.744690
530.179993 -143.513412 -980.733215
804.892700 -534.481873 -1273.667969
752.469971 78.587540 -865.929443
636.018982 -597.945496 -1268.329712
485.437134 -559.395874 -1282.251099
503.227722 -447.532379 -1345.441528
615.567139 -409.374481 -1332.866455
455.539398 -320.601166 -890.516113
790.111206 119.784081 -774.339905
519.287292 -551.269104 -1281.207764
677.265808 -573.349426 -1295.380005
695.551819 -245.242905 -961.648254
439.448395 -264.465424 -931.854736
540.153137 -114.762589 -998.451965
470.874603 -544.370972 -1274.357178
806.767883 -724.142822 -1197.702026
433.508759 -284.278687 -1406.429565
625.370972 -290.340729 -900.280273
655.107605 -654.982422 -1229.241211
897.194031 -57.134300 -669.625854
810.974915 -75.148895 -882.331421
719.344116 -582.856567 -1266.752686
828.324402 79.288956 -733.654541
663.890808 -677.313477 -1227.183594
816.746582 -708.262085 -1195.497437
731.995667 -156.755112 -1000.276855
570.690186 -306.851807 -870.030518
595.603027 -136.837112 -1016.641174
777.444824 -754.259521 -1143.441528
751.156860 55.711021 -892.684814
452.421814 -509.270050 -1326.730225
672.826965 -313.048615 -869.213196
892.363403 -125.723114 -720.618713
618.738708 -396.467834 -823.421997
633.456299 -698.125183 -1206.579956
765.480835 48.860733 -852.726624
659.640198 -405.082520 -806.458618
567.119568 -489.951080 -1337.551025
652.474487 -605.503723 -1243.916260
585.313843 -450.359467 -833.783020
513.074219 -174.895966 -994.415527
786.194519 -250.363068 -928.724976
541.185120 -156.002884 -973.306152
569.399475 -86.841110 -1045.554565
756.161926 -622.852478 -1239.226074
544.433228 -360.132690 -842.169617
447.947876 -330.940491 -1381.323242
458.169952 -394.837433 -865.308655
802.772339 -239.773392 -935.272400
840.997437 56.381054 -716.605286
592.552124 -405.165588 -1304.448608
711.837830 -122.117203 -1023.894287
861.430176 -25.145012 -701.556335
745.713318 59.656723 -902.749512
894.922791 -177.605713 -707.966064
648.406433 -563.334778 -1297.321899
605.946289 -301.843903 -878.631226
876.469543 -204.679657 -861.301086
823.551575 -87.387856 -817.755981
419.017303 -579.184570 -1268.277344
833.701416 31.573099 -762.786133
390.445129 -411.858582 -1385.908691
437.380737 -588.809875 -1292.510132
485.712097 -629.690674 -1209.626831
724.606689 -701.631042 -1186.906860
515.400757 -638.233826 -1239.089722
592.652954 -430.179840 -1369.052734
705.782104 -496.099274 -1241.607544
852.008850 -116.666237 -792.663757
882.903992 -45.172493 -668.286682
907.877441 -503.457916 -1305.356567
456.961884 -358.571320 -880.570923
512.903259 -429.529999 -857.312744
468.676971 -279.665192 -906.784119
820.520264 35.657429 -758.653687
886.105286 -128.864227 -734.443726
710.875488 -704.185120 -1161.984497
755.774780 -362.883972 -1443.751587
751.611389 35.284149 -889.051025
562.871399 -466.389709 -1160.787964
835.940369 5.102078 -743.668640
605.900513 -325.763702 -863.326904
599.203186 -422.191437 -813.704102
779.425720 144.436783 -807.509338
578.086182 -287.374359 -898.559204
408.394135 -237.084366 -972.829895
888.315857 -126.779434 -703.290222
424.810852 -441.285004 -1363.494507
754.614258 -8.814007 -922.759094
691.774109 -686.762573 -1215.981689
415.797089 -440.789398 -1368.111816
497.322235 -509.054443 -1352.222778
810.489136 -63.500835 -870.337524
523.846497 -292.837463 -885.719604
799.241455 62.190651 -769.489868
746.760742 -756.475647 -1155.909668
530.167542 -350.722931 -868.666870
591.113892 -349.425659 -875.235352
532.584473 -709.830872 -1197.470825
843.648743 -189.898193 -832.695190
524.881836 -503.869324 -1332.970215
604.884216 -434.165955 -806.693909
719.918945 -114.866356 -1026.996582
423.715576 -695.766174 -1205.703003
583.790405 -292.789398 -895.323120
649.481140 -666.845947 -1203.231079
401.881042 -358.144928 -1417.100830
781.710571 -759.390442 -1169.680786
810.819458 -57.645531 -832.737732
811.473633 -255.934113 -950.120544
517.529236 -312.085663 -896.795410
724.715820 -549.881836 -1235.865967
428.379791 -295.294189 -908.284180
581.404053 -586.300903 -1262.213379
453.578247 -364.762909 -875.374939
488.473907 -595.279297 -1221.645386
819.424316 -30.942324 -819.544861
473.235596 -543.971252 -1318.370117
841.864075 -621.145691 -1227.347168
1009.812439 -442.830048 -1341.197510
739.326904 -146.670486 -1016.823181
649.982605 -502.326111 -1280.100708
605.831726 -343.896576 -858.851807
854.785217 -4.521139 -702.294067
798.682800 22.919142 -800.012390
810.851990 -14.256878 -835.739746
740.716553 -242.575897 -935.816528
436.012115 -340.666626 -913.494385
465.824188 -475.049866 -1347.100464
470.702423 -275.504059 -1400.066406
770.936340 -263.688354 -929.895996
409.075409 -555.526733 -1291.994385
768.420715 -236.590225 -943.902161
464.095551 -326.870148 -885.576660
402.487030 -417.943115 -1364.378540
653.922913 -92.661743 -1041.173340
645.009155 -641.577942 -1238.971924
594.307739 -299.126556 -890.198914
896.564087 -106.573593 -696.931152
496.217590 -569.562988 -1285.772339
825.006470 -81.271988 -810.950500
733.948059 -700.241638 -1192.979736
496.598602 -653.282166 -1230.327393
751.004089 54.951244 -897.384949
527.199158 -450.052521 -843.276123
543.336853 -233.319870 -926.168457
440.993622 -161.122482 -975.554138
513.497742 -239.515518 -935.196899
699.660645 -302.845001 -893.666260
835.717285 -124.840866 -843.911987
877.361450 14.842450 -705.772461
731.309021 -285.771606 -920.280701
557.263489 -436.911407 -824.834045
488.149017 -169.010239 -973.561890
424.589417 -589.120361 -1249.605835
751.324768 -673.966736 -1212.695801
643.372375 -401.014282 -810.370605
820.040588 -50.203030 -799.574829
636.537720 -323.429749 -874.621033
647.538025 -408.426575 -818.718750
710.402649 -681.733826 -1217.983643
785.344360 92.724655 -806.027283
777.417053 40.287067 -865.069031
661.400391 -221.889252 -946.032471
850.013550 69.892242 -690.759155
751.073914 -598.607788 -1208.251587
721.337097 42.205338 -950.846436
904.932617 -25.757902 -651.493713
821.778137 29.734299 -767.990540
590.374268 -401.423035 -825.606812
413.463959 -660.031433 -1235.535400
657.648193 -157.010025 -1030.959717
813.627502 -565.275574 -1240.721436
754.292603 9.791986 -902.118042
454.208862 -219.521454 -967.680786
811.114685 -203.374649 -975.351807
767.396484 125.612785 -822.482666
464.474548 -224.320465 -958.087952
414.413483 -247.912354 -928.805725
420.568298 -333.320221 -1423.377319
772.608948 -709.595764 -1176.971436
471.781250 -246.748962 -910.384094
401.285675 -317.822357 -913.085938
511.094696 -484.704102 -1313.194946
472.464661 -268.214508 -910.808777
734.233337 42.476566 -959.649780
506.948273 -437.130981 -1368.687378
1103.732788 -463.545563 -1333.654663
417.188202 -653.592529 -1206.589478
787.419434 -6.643023 -878.873169
582.976440 -166.443649 -1006.886536
610.346008 -283.586853 -1471.837036
515.042480 -98.275848 -1013.285278
469.939270 -426.244476 -1379.437256
563.076843 -576.805298 -1247.785278
843.096558 -89.447800 -808.111755
368.892395 -581.346375 -1252.978027
792.700256 103.541611 -773.542542
460.120178 -403.809631 -866.019165
661.909973 -318.752869 -899.543152
586.235779 -291.029083 -1453.400879
628.784973 -360.939117 -840.454956
491.107574 -382.330933 -848.666321
628.899658 -726.282837 -1159.726563
454.016663 -295.418182 -898.171326
777.542175 80.477844 -807.217773
372.908386 -213.494843 -968.277588
618.357300 -416.047089 -833.654907
418.138977 -665.190186 -1231.349976
816.227844 4.831181 -773.642029
537.641602 -425.517273 -826.408508
655.972168 -135.486343 -1031.681763
467.321136 -607.102295 -1228.510986
796.342590 4.094803 -825.940430
652.294373 -309.262634 -879.612122
700.438293 -622.997498 -1250.425415
729.883240 -433.876282 -821.213013
507.770599 -276.060699 -1452.301270
594.372009 -631.546021 -1246.317993
752.044983 55.699520 -884.414612
756.143738 19.044550 -903.259644
493.818817 -448.964874 -1347.591797
566.957581 -437.162506 -825.544983
520.756775 -295.485382 -880.248901
775.227112 -283.249573 -906.883301
429.348206 -662.158447 -1217.664551
753.533997 -190.792740 -975.959595
792.509094 -40.927208 -896.972534
660.460938 -337.949066 -852.683289
628.085388 -237.220718 -943.748230
860.919556 -28.410120 -724.542480
502.332214 -533.064514 -1302.279053
914.848572 -508.157135 -1289.859863
852.680847 -39.588936 -730.830994
870.444824 -121.332123 -766.563843
864.534790 -154.957504 -808.158813
619.203003 -688.331909 -1206.091675
587.286682 -384.971191 -832.470703
899.602295 -123.409966 -702.404114
775.882568 -46.851864 -904.926453
564.866638 -733.494751 -1173.231079
510.798767 -263.599915 -920.261536
551.169617 -480.339539 -1357.073120
858.457214 -162.985916 -842.589783
551.816895 -591.364685 -1254.820557
512.290527 -329.247772 -892.211914
624.895935 -581.149963 -1277.611328
567.944824 -494.947357 -1280.123169
427.379608 -508.332520 -1305.949219
743.436768 -283.060699 -904.977661
589.223083 -393.871979 -1363.236450
571.728027 -602.840942 -1264.463013
837.887451 -664.647827 -1168.229248
545.024536 -163.404282 -988.872620
814.425598 48.307106 -774.526367
757.203857 -619.451843 -1202.953491
545.890015 -299.985596 -877.144409
839.801270 60.097641 -716.865356
689.988647 -535.201843 -1272.148682
435.350555 -544.187134 -1312.801392
795.010071 -327.353516 -866.140259
562.673096 -590.906677 -1274.148804
794.568054 29.417370 -804.719788
469.572632 -354.894379 -1392.370239
621.890259 -745.421570 -1165.173706
414.825531 -543.309509 -1323.812134
656.467590 -333.790985 -882.751831
846.128174 -16.972002 -731.199402
778.381165 -718.962402 -1185.210327
829.171204 -56.156025 -805.760437
905.035034 4.555635 -674.300049
473.270630 -497.897644 -1334.616577
434.362518 -353.279633 -917.263367
748.478882 -37.854916 -946.505432
476.156189 -393.887939 -877.512329
366.315948 -653.054810 -1208.852539
346.641266 -616.190979 -1247.640137
714.578674 -571.765442 -1268.865234
445.718689 -680.947937 -1206.019409
614.638794 -651.519226 -1214.545654
1099.612427 -459.679749 -1336.319336
447.251617 -394.052948 -1390.931641
882.598877 -169.619934 -783.896301
872.584900 -210.544662 -787.798584
582.410767 -496.010132 -1329.924683
414.844482 -340.537201 -897.042297
374.276459 -576.173279 -1269.848999
775.283875 -641.241821 -1161.562134
846.075134 -147.997314 -839.274963
746.641785 -22.251450 -946.502502
852.151428 65.511185 -689.480164
802.062866 68.698845 -800.263611
822.564514 -111.699547 -881.811646
402.227722 -221.441208 -988.728088
547.027649 -620.265442 -1226.716064
429.607758 -490.373596 -1332.748657
422.706482 -312.291687 -913.380859
860.300232 -512.049805 -1306.894165
792.157104 -47.720509 -906.318604
423.776520 -273.166870 -910.821472
697.903931 -684.786072 -1211.731934
458.743988 -136.508270 -991.266052
450.986084 -401.248566 -1385.250122
546.365417 -643.723450 -1219.621826
859.561218 -32.736618 -717.841248
744.422302 -317.198212 -880.406006
601.543030 -199.890610 -945.730713
479.115997 -345.922913 -861.139221
807.622498 -263.942169 -917.921631
506.436951 -600.149841 -1256.617310
816.221375 -11.504772 -800.950867
913.704285 -60.613789 -651.785400
806.434814 90.491211 -756.609558
438.053589 -595.323608 -1224.764038
504.132538 -598.762329 -1224.514160
681.450317 -120.914696 -1004.031860
832.355530 -551.750000 -1305.342651
605.609497 -323.704163 -870.798523
482.646454 -609.121033 -1244.526245
426.699310 -466.386505 -1333.380371
509.100616 -386.466614 -846.477112
718.167664 -582.295471 -1183.907593
534.820923 -394.364410 -851.063904
803.758972 -609.781006 -1202.181152
740.233521 -681.812744 -1182.692261
414.386292 -234.555969 -937.892578
682.325623 -306.827576 -887.679688
424.849152 -493.789734 -1333.258057
442.760254 -203.365372 -964.923035
847.583313 -121.750839 -814.564148
680.597412 -615.240051 -1257.093750
697.208862 -371.688446 -855.802429
408.108978 -452.830658 -1344.364746
670.035034 -313.980286 -1306.140259
786.075562 -28.311956 -916.572510
904.634460 -108.605759 -683.709778
779.787842 85.798294 -787.926331
571.297913 -299.465118 -890.928223
864.900635 -193.674164 -853.675354
735.443176 -195.357681 -975.460205
392.241608 -530.747131 -1302.767700
772.305786 88.417351 -813.424927
545.494141 -437.910797 -1360.886475
471.269287 -322.723999 -1450.863892
879.903992 -165.953369 -765.239197
837.400330 -9.835405 -745.674133
739.267029 94.983467 -876.262146
761.705872 -328.361694 -891.776306
466.138245 -199.074661 -941.656921
568.984436 -350.763428 -859.918152
890.158691 -163.115387 -757.048279
399.127747 -271.852631 -957.082153
742.672363 -259.901337 -940.365662
670.564209 -488.445923 -1218.214600
658.710205 -397.843018 -1318.366455
366.933472 -564.016602 -1280.154053
474.226044 -318.589722 -903.792542
627.676697 -150.115158 -997.398987
735.039490 -270.115479 -901.711548
554.408752 -455.017853 -1218.974731
455.244751 -242.196167 -959.013733
826.033203 100.775795 -733.135132
825.569458 -70.877090 -835.760498
822.943542 -95.423203 -875.561584
651.267334 -494.289429 -1278.905884
484.836182 -355.575592 -855.968201
503.000336 -298.303070 -877.171570
394.404083 -437.377350 -1369.880249
532.481079 -677.760132 -1213.289307
805.340942 28.025822 -781.569031
876.693054 -496.482727 -1331.944092
575.866028 -418.456848 -1387.437378
681.058899 -346.586853 -865.336487
469.239532 -577.186157 -1214.538452
381.440887 -273.039276 -954.805786
449.315002 -345.574554 -1382.944214
864.904724 -71.150269 -715.452637
605.962036 -704.377930 -1174.114014
602.783813 -629.072144 -1246.935059
460.879303 -376.045654 -889.471252
423.390198 -590.999634 -1276.838257
619.595825 -308.927521 -905.776306
608.565796 -118.557793 -1028.355103
695.712830 -741.501648 -1164.582275
783.461548 56.096745 -824.929810
771.692322 49.744408 -841.740906
679.076721 -363.123413 -854.759644
638.236450 -370.659088 -857.514771
742.294312 -322.530823 -663.343811
585.255920 -282.798218 -929.265015
642.434509 -705.561157 -1190.430054
459.748047 -223.659393 -948.813293
577.854126 -498.830688 -1332.058228
885.094604 -171.292068 -749.637451
791.294678 -303.636658 -649.852417
781.384155 72.439888 -802.413086
789.433105 -210.254898 -990.626709
743.901489 2.712307 -935.565613
753.446594 -471.804260 -1272.374878
794.697083 -535.059143 -1284.410400
850.727112 -524.843811 -1318.665894
450.075073 -320.931183 -883.388062
694.315796 -641.835144 -1242.552246
473.022980 -387.580933 -1378.660278
580.786499 -423.545319 -1355.016357
589.404663 -133.722305 -992.153320
796.513977 109.597351 -766.744568
478.370270 -638.709839 -1220.943604
549.603455 -464.991333 -1359.105225
792.261841 -588.019653 -1276.282837
864.640564 -59.590393 -731.733093
563.519775 -366.446838 -852.160461
802.435364 24.106415 -827.399902
517.082031 -161.566284 -985.137146
584.204224 -455.984619 -807.433472
852.271790 -140.104370 -808.414307
427.980652 -284.024109 -919.068604
527.830383 -263.826599 -919.703979
834.365356 -110.397408 -854.902710
780.624573 -40.068996 -911.306641
411.563263 -415.110565 -1368.296509
896.865112 -94.364410 -682.669495
599.940613 -535.979248 -1285.946533
495.462128 -125.094627 -994.199280
425.925415 -485.611145 -1338.450073
823.417175 -96.908936 -849.047852
452.134094 -224.021851 -971.259644
743.406982 -736.181335 -1175.393311
484.794983 -323.297058 -881.065125
727.776367 -638.498840 -1123.048584
850.436584 3.248975 -739.608521
513.638184 -405.621552 -842.039795
591.225830 -412.438110 -818.690979
399.948761 -323.645172 -938.865662
828.916687 -47.701641 -822.339844
663.834106 -375.507080 -840.316650
690.310425 -142.389923 -989.997803
703.829529 -511.094116 -1227.643188
557.322144 -444.650330 -826.658752
672.645386 -352.575134 -1419.363892
737.304626 -211.945404 -967.486816
384.104156 -654.443237 -1221.574585
514.700806 -584.950562 -1217.348999
706.655396 -304.642151 -1488.713013
832.190430 -49.594322 -828.769714
689.964111 -118.200180 -1030.606201
705.832397 -673.767456 -1218.868896
406.213196 -661.224121 -1199.949951
492.126556 -557.430481 -1213.234741
657.235413 -741.636780 -1179.047852
643.546570 -162.177567 -1013.732361
706.501465 -215.192520 -957.622681
392.364258 -294.157593 -912.094116
813.379944 25.239183 -793.766846
833.161865 -571.974915 -1278.216309
788.773987 -572.865845 -1240.747070
597.868896 -655.131836 -1247.048462
726.190125 -415.416138 -816.276123
910.913940 -486.185364 -1314.191650
385.812531 -551.011597 -1289.994507
670.814697 -330.653259 -864.535583
737.053955 -701.008240 -1135.942871
547.186340 -492.142792 -1341.402832
520.199219 -318.643890 -877.894165
747.760498 -336.411499 -884.790710
599.459534 -662.675781 -1236.845337
375.785736 -498.307098 -1332.013916
749.846680 121.184326 -849.271973
444.247559 -676.272217 -1209.042358
410.028442 -233.343826 -945.821411
848.958069 -47.624393 -744.742798
765.992371 -188.121124 -994.973145
601.941711 -204.276703 -958.278992
537.448792 -592.747375 -1250.132324
577.685364 -679.725708 -1211.967651
870.651855 -543.248474 -1297.570801
572.072876 -412.064423 -821.374878
463.772064 -482.632904 -1323.602417
360.265808 -650.364868 -1223.159546
451.023926 10.459988 -954.530579
774.935669 -3.313402 -911.868835
873.566162 -184.476517 -759.399841
509.481567 -676.983154 -1208.930542
370.073334 -497.571838 -1328.095215
860.916199 10.912807 -690.753174
420.148804 -284.227356 -940.525330
520.510376 -237.742111 -918.964294
463.667267 -545.128296 -1326.040161
766.007446 88.216019 -848.267578
464.042633 -679.629761 -1207.907471
848.382141 -647.787170 -1201.720459
868.177734 3.039465 -698.286133
774.885986 -334.738861 -867.201904
585.341736 -375.210663 -832.066345
506.365692 -334.891235 -873.706055
578.380493 -657.150452 -1226.569092
1025.251099 -482.020081 -1325.787842
387.183258 -218.336029 -982.256287
886.554077 -161.287384 -743.155640
539.928528 -390.719086 -841.494019
661.729187 -350.326477 -851.088440
466.276520 -578.735413 -1267.316162
663.849487 -135.568283 -1009.830017
865.598877 -23.138054 -691.488586
509.044312 -311.576416 -1433.980103
752.661682 -689.772522 -1182.357300
394.722992 -229.463821 -952.301147
864.186890 -54.270985 -719.106873
508.982483 -525.473755 -1308.301514
681.096436 -196.912445 -986.510559
490.661407 -505.662079 -1300.732056
533.597412 -303.615967 -877.948303
549.319824 -384.431793 -840.365295
395.175232 -446.108398 -1364.306641
895.311218 -35.396313 -669.423157
545.722961 -517.239868 -1321.557007
740.088867 -375.350739 -794.448669
708.981079 -529.405334 -1263.108398
759.325256 -153.792175 -1018.982605
643.740479 -427.139801 -811.624451
480.051544 -569.512573 -1217.070190
851.996460 -182.482819 -834.410522
407.372314 -161.971130 -982.655701
777.584412 -246.860626 -951.816467
734.406189 -400.812225 -810.202454
804.663879 -75.807053 -889.651611
772.915405 5.778793 -891.195618
791.391357 122.957558 -773.005249
557.805542 -448.576843 -813.591980
782.067261 -73.557434 -947.413513
511.622864 -720.923340 -1165.519897
444.429993 -275.619781 -905.747131
629.551025 -319.239777 -1453.757690
558.372986 -210.662125 -935.711121
527.315125 -157.688293 -983.896240
862.875488 -102.852028 -737.713806
645.810059 -457.888916 -1329.013794
830.764221 -57.392574 -812.472107
635.411072 -275.354889 -904.310913
554.335693 -241.491196 -959.101440
1068.368042 -405.557739 -1372.215942
723.490845 -680.087158 -1213.833496
528.715698 -275.284760 -910.068176
571.010315 -365.242889 -861.044983
830.060547 17.619228 -780.475098
619.747620 -148.481979 -1005.600952
535.275146 -293.097992 -895.699646
385.232880 -611.093262 -1261.052246
650.376892 -194.949158 -973.862244
467.527130 -279.183258 -932.029785
437.646790 -589.550049 -1277.806274
396.024414 -460.002167 -1336.850708
849.529968 -154.433334 -852.734985
785.089172 -33.370094 -905.138733
621.061829 -414.099945 -819.336365
565.101196 -129.299744 -1009.607910
779.834961 -735.518677 -1164.860962
765.077576 1.043840 -891.615479
855.507690 -34.678455 -728.787964
893.184998 -67.735283 -673.681030
591.982178 -123.892998 -1038.981079
1072.568726 -444.270538 -1367.106201
729.924561 9.771864 -963.076782
637.484619 -256.072784 -930.989990
556.747864 -716.692627 -1192.816040
582.878784 -748.288147 -1178.044434
514.890991 -627.240784 -1211.051147
547.893860 -534.696838 -1277.041626
859.683533 22.378403 -713.540588
649.970947 -389.661926 -830.183105
632.784912 -402.442993 -1348.854370
694.122681 -178.850632 -999.987183
721.741394 -184.472595 -960.604126
832.776794 -77.963768 -822.249756
805.078064 -493.074127 -1315.769287
592.835266 -228.427002 -940.532898
804.201111 -663.752502 -1207.189941
632.971069 -184.720749 -977.185120
591.048706 -220.606781 -942.424316
470.218384 -573.065430 -1264.923950
353.677765 -630.365173 -1234.881226
827.100830 27.559416 -735.810120
805.189941 -101.708305 -936.793945
778.045532 -442.693909 -1349.488037
491.503876 -557.048096 -1231.833618
879.903870 -180.829300 -805.278503
616.932251 -749.394897 -1171.211182
790.207336 -62.078079 -887.865601
868.545654 -19.748726 -692.322571
859.365662 44.350014 -680.018005
1040.036743 -382.275604 -1413.393311
717.737854 -534.257690 -1229.754395
808.957581 -55.146992 -830.606384
797.206299 -2.224745 -856.319092
838.047791 -80.495132 -803.497192
677.567932 -629.776184 -1232.800171
617.783630 -420.503448 -1227.988647
776.980957 -10.819546 -905.523376
508.044128 -644.945435 -1214.787720
860.638367 -71.264603 -727.488831
417.882385 -609.754761 -1208.411743
640.261414 -256.739136 -910.659729
535.587280 -457.822662 -1371.788818
621.594299 -406.516357 -820.629272
815.052307 -42.599491 -846.803467
613.997925 -425.452637 -1322.767334
811.968384 -762.791931 -1156.116699
485.141602 -299.251465 -905.992737
880.311340 -202.200836 -821.063538
463.554230 -332.239441 -1317.420044
826.584656 62.340252 -761.827637
830.376709 -63.493202 -818.086487
403.053741 -684.376038 -1218.883667
511.321411 -378.840271 -1412.760376
553.944580 -580.645569 -1254.767212
704.624084 -352.439270 -869.980347
552.937378 -317.838104 -879.656616
861.221375 -85.742661 -753.857178
966.512207 -524.769653 -1310.324951
735.997375 -669.479370 -1206.924927
825.711060 -68.843994 -828.790833
818.065857 16.355120 -786.988953
714.060242 -667.716187 -1201.463867
810.670410 -151.886627 -890.991150
463.162567 -691.735779 -1202.922363
632.415344 -653.369751 -1239.446045
425.289063 -310.079346 -903.941650
785.513733 -608.190308 -1213.797363
739.237976 -731.448730 -1160.986450
854.937561 -105.652100 -768.267578
730.336975 60.687389 -914.978638
887.847717 -77.320297 -672.636780
573.102539 -282.265869 -900.110291
525.691101 -642.121887 -1217.325317
647.808289 -340.586212 -862.237427
572.748169 -547.528381 -1275.207153
767.085938 41.142315 -866.506714
798.290344 -683.425171 -1200.078613
781.817810 103.199257 -794.264465
608.424011 -181.283539 -973.410522
770.305054 -512.251831 -1318.253784
455.748596 -399.157410 -842.487427
657.414246 -281.655365 -889.948547
459.848938 32.994560 -897.072083
393.202393 -455.988434 -1357.648804
361.935272 -633.605957 -1235.392578
480.786469 -287.129913 -900.990295
631.483276 -428.425293 -1251.092651
526.250061 -404.124786 -833.475891
872.290649 -228.094818 -788.312805
757.158691 -561.491333 -1314.722168
454.354492 -400.640289 -868.694824
736.264893 15.882709 -943.167908
439.990204 -356.800568 -1426.022217
717.801392 -575.101501 -1260.315552
610.344116 -642.043640 -1256.103271
924.239441 -486.637543 -1309.200684
830.556274 -745.980835 -1158.303711
853.944214 -90.027534 -746.809387
624.101685 -162.684692 -1024.957031
564.267212 -458.872528 -840.334961
388.279633 -190.321533 -972.701416
814.894897 22.932674 -765.056824
545.033203 -548.748047 -1257.892456
639.848755 -299.384979 -899.508362
468.550385 -499.903229 -1309.163208
812.722656 -667.839783 -1213.541748
734.295227 -281.761139 -906.831116
651.161255 -381.799255 -1376.280029
679.818542 -391.152649 -826.780701
503.558319 -247.902603 -924.124878
686.235352 -180.562866 -965.702698
609.005310 -676.391113 -1227.276611
845.499390 -16.552938 -760.087219
443.892517 -303.124390 -902.294495
863.059387 -1.414345 -705.173462
890.176453 -81.697777 -683.944580
597.509399 -552.928955 -1282.129272
870.623535 2.138182 -689.868225
561.716675 -683.904297 -1215.817261
691.987366 -118.953354 -1032.698730
689.152405 -717.943848 -1182.070801
668.279297 -729.475891 -1161.174194
792.696838 140.703049 -761.246582
901.094055 -174.660950 -743.373047
457.874634 -198.683990 -981.526978
401.687042 -554.094788 -1292.931152
571.439148 -575.137939 -1283.007935
633.435425 -433.355804 -1214.044067
530.333313 -256.953247 -918.034790
820.513367 -92.341576 -829.067505
883.506592 -14.364182 -695.717651
684.043762 -667.095703 -1229.392334
673.147766 -319.543915 -1493.417236
844.964722 -34.341171 -770.466309
788.790039 -76.972679 -911.266174
787.935730 -329.930664 -891.338196
876.151978 -190.633804 -753.183838
687.585815 -659.401245 -1233.088257
827.932800 99.662743 -716.949646
393.905487 -231.679169 -970.286255
427.706024 -170.192841 -984.579834
377.116943 -530.412781 -1302.678101
728.289490 -348.392120 -871.216553
453.940430 -259.262878 -905.075378
780.371338 -35.564247 -882.303040
731.734131 -576.509155 -1236.529663
385.742004 -537.166565 -1303.079102
615.887329 -698.452271 -1213.515625
747.472595 -49.876431 -962.543945
807.696777 -61.077106 -863.721802
782.567566 39.094692 -832.746399
737.328613 -582.332397 -1184.749146
541.327026 -675.822266 -1201.631836
449.559967 -447.348969 -1367.069702
914.775146 -43.414692 -652.147095
780.833313 -243.474472 -931.812134
615.430542 -435.190613 -1369.956909
754.605103 126.767509 -816.270264
540.955872 -182.266586 -975.372986
467.321350 -529.933960 -1313.359009
401.674896 -408.417664 -1385.317627
730.273254 -635.603027 -1205.384766
485.144470 -659.026001 -1206.652466
714.271912 -86.985428 -1056.990479
853.416687 -128.373123 -820.236877
641.309692 -500.805573 -1278.458130
808.109497 107.590134 -743.827454
774.868896 70.579742 -822.047546
823.784241 -683.309082 -1195.129517
850.259949 -59.071499 -736.721252
655.078369 -437.359497 -1353.962891
491.178070 -307.787109 -1435.066528
580.361877 -715.209045 -1183.511597
628.289185 -270.376892 -910.120239
829.083496 -100.921379 -864.175842
873.369385 -16.702520 -716.448425
628.678894 -576.031494 -1264.953369
427.344025 -258.823914 -913.439331
694.788940 -102.292686 -1016.288086
586.791260 -465.045746 -1353.814087
520.717529 -151.386856 -996.217041
769.204041 -41.888702 -949.041138
840.513733 -18.152010 -757.658691
845.011230 -109.833778 -810.999512
540.245789 -692.880676 -1215.801758
697.403748 -528.306824 -1315.329102
646.253479 -708.375244 -1172.419312
591.368591 -145.222198 -1002.293945
632.401367 -212.593826 -951.774231
447.204315 -641.326904 -1224.429077
445.469025 -562.891602 -1270.407959
636.506287 -487.205170 -1261.211792
663.501160 -398.961761 -825.331665
370.216248 -463.849579 -1331.023193
407.995239 -154.480667 -975.697571
713.157288 -750.566101 -1162.926758
446.090332 -376.766663 -906.654785
554.485107 -180.398239 -960.074890
683.947754 -306.436035 -874.160339
730.509644 39.030174 -932.679504
886.515930 -124.073166 -1041.293579
937.829468 -503.746826 -1306.264526
404.601654 -304.679993 -925.430847
595.015747 -212.143829 -975.026794
454.960236 -413.280609 -1388.655029
708.890503 -672.193542 -1219.665894
779.850708 -110.189850 -913.915100
637.959473 -112.136497 -1050.571899
623.342773 -431.513062 -1304.102295
773.627380 -186.941483 -981.561462
768.129517 -18.309055 -918.422424
869.132263 -121.622330 -773.592651
420.376648 -41.596706 -933.683228
740.785583 77.363937 -882.330994
672.097717 -442.676758 -1283.678101
776.114868 51.012974 -829.652405
686.805359 -712.353149 -1169.576660
569.155823 -296.367401 -891.524414
874.101990 -64.274391 -689.992798
484.076813 -327.870270 -877.882996
882.603699 32.877491 -675.869568
864.980469 -42.415123 -748.027100
685.988281 -267.225708 -917.654785
894.245422 -100.248199 -675.420044
818.883728 27.056486 -814.551025
727.050720 -600.607788 -1243.237915
717.847412 -140.417023 -1024.750732
819.766418 1.604722 -804.217896
498.698303 -558.518982 -1189.616089
644.866394 -85.768997 -1024.360474
616.117371 -327.131683 -1444.771362
