ply
format ascii 1.0
element vertex 1342
property float x
property float y
property float z
end_header
-163.240509 1048.450684 -366.369537
-63.065144 1054.755371 -451.057678
-203.574707 966.705811 -1198.643433
-307.752502 842.886780 -1189.730225
-253.399643 841.509766 -706.607300
-210.298996 1062.114014 -543.953308
-113.113274 938.873657 -722.466125
-592.505554 895.008240 -1088.526611
-233.066910 1038.772949 -430.282806
-180.016144 1352.153076 -1108.676758
-118.698753 731.122864 -766.260864
-229.278152 782.247742 -1235.224731
-459.977844 961.071411 -1130.277344
-212.781296 827.148682 -719.194519
-93.874924 881.571655 -1240.395508
-38.332581 958.615112 -1241.280884
-257.826508 841.167908 -693.866882
-265.087738 965.835205 -685.596313
-420.319244 919.446899 -1154.646729
-362.523651 788.949402 -682.758240
-207.678986 904.465393 -1207.047974
-223.691879 922.761963 -712.583679
-282.363342 672.049316 -763.698608
-381.443787 914.199524 -1160.376709
-288.668671 878.161255 -680.852356
-186.972183 701.760986 -759.248596
-324.461029 927.105957 -1127.363403
-302.801880 871.192139 -1168.980591
-209.993317 999.038574 -713.005127
-131.070587 863.218323 -1228.407593
-434.468018 860.181885 -667.074036
-209.806244 826.045044 -1221.266113
-287.391052 713.257446 -752.852661
-280.998993 804.515442 -707.727539
-176.419739 1044.310059 -313.799194
-164.113724 1015.830383 -709.275757
-136.102005 942.405334 -715.541504
-556.540527 1030.977173 -1093.701538
-54.598892 1062.639038 -1158.224121
-130.341904 1043.727417 -499.700287
-148.288376 872.436707 -1233.668701
-298.177490 1024.242065 -454.262390
-444.000763 823.578003 -461.652771
-315.208038 957.882263 -681.506897
-150.066681 1041.347168 -280.525940
-202.891144 1057.964966 -500.054291
-230.986893 1045.620239 -467.607971
-286.568176 974.032654 -1062.619385
-122.820000 717.751343 -778.099731
-293.225464 890.503479 -705.407715
-385.173492 734.913208 -1195.543335
-65.568764 826.839966 -743.976318
-216.880341 927.744568 -705.660217
-236.487762 835.293640 -736.446289
-588.304993 1084.719360 -1062.525024
-173.824280 1048.510742 -486.785980
-237.511490 1033.592041 -344.920685
-2.104372 1053.551147 -1203.902954
-209.279572 1037.684326 -509.185364
-320.525940 771.344116 -1189.170532
-149.161102 822.031982 -1243.499634
-217.556442 811.618591 -1209.440796
-269.708649 944.022522 -1174.422485
-50.416817 1061.823120 -506.424316
-297.289307 826.843323 -1184.232178
-22.194134 899.930664 -701.075806
-155.803207 1014.360229 -1133.168701
-414.610962 1062.738403 -1050.689331
-61.591019 1063.733276 -447.931122
-274.885284 705.741638 -1246.476929
-236.814850 898.478333 -700.755737
-41.442776 757.201782 -786.551697
-398.100677 973.921143 -1115.433716
-66.554779 1044.097412 -495.782532
-229.728851 1033.333008 -329.569855
-332.863770 1023.573425 -428.335815
-127.898056 698.017517 -786.819946
-386.346802 1102.983154 -1038.526978
-48.357922 1005.897461 -1216.944336
-434.623199 974.602783 -1131.282593
-322.194885 719.396057 -1216.715454
-283.602997 1014.779541 -1088.574219
-220.556854 922.528564 -1215.225220
-254.654938 1225.363770 -1111.479126
-65.346130 1012.637756 -1206.473755
-138.336288 875.905945 -714.752808
-308.384521 1028.101685 -491.809998
-207.089752 901.873413 -731.266357
-212.840775 752.888367 -1239.418701
-247.818420 844.874939 -1210.535522
-90.735497 1070.380737 -607.711060
-227.152176 1038.995972 -278.612396
-234.799011 807.518188 -721.944214
-254.121948 1051.365112 -300.899719
-156.730728 846.500000 -1235.291870
-63.463104 1069.657349 -334.826630
-128.603638 1037.918213 -347.928040
-182.673615 757.782104 -1243.022095
-127.567459 1101.343018 -1166.927124
-264.039581 717.937805 -736.966980
-497.696747 923.052185 -1101.561646
-48.605705 1060.498169 -556.998474
-96.813866 949.811646 -1218.392090
-288.814117 1022.914917 -373.245819
-288.297363 916.480896 -690.069092
-256.320984 928.940552 -1203.085815
-242.024384 1029.436035 -327.681671
-48.205620 995.574097 -1221.535645
-65.757187 728.255554 -817.145996
-44.659321 1063.168335 -434.608673
-387.166382 804.930298 -701.719116
-272.717224 845.771484 -1177.876465
-18.937922 1055.831421 -1202.700928
-106.639893 1059.960327 -499.070099
-174.379227 784.497803 -1235.997559
-280.414917 709.278259 -1226.460327
-176.083054 968.136780 -1194.716797
-409.641510 867.740234 -1166.335205
-163.219070 991.781006 -1182.171753
-334.113770 811.692505 -1185.097778
-202.989899 1034.327759 -317.298950
-169.428864 762.723328 -756.305420
-208.334518 770.405151 -721.162903
-322.517273 851.612854 -1166.112793
-233.582428 1035.455078 -423.544342
-224.857315 1176.055908 -1132.415405
-143.299606 1053.097534 -309.239014
-519.927673 905.485779 -1126.699341
-466.518341 998.413757 -988.732605
-223.343002 1338.362061 -1088.351074
-86.486092 1049.195313 -452.994080
22.567064 857.862793 -750.571167
-99.539734 1057.990234 -506.963226
-14.489819 1008.772461 -1224.038574
-149.349701 775.034607 -748.109680
-85.446205 1046.722290 -357.884369
-64.787949 768.188049 -763.860413
-150.248444 1055.380371 -497.444122
-348.796600 668.007690 -758.957703
-304.995239 740.688416 -718.237793
-109.950134 871.640137 -1231.536621
-245.668671 1061.032959 -575.863342
-100.074997 1046.759277 -319.392914
-457.868317 948.215820 -1109.426025
-65.353600 1057.483398 -424.682251
-129.846100 1041.968750 -397.377441
-29.995518 912.981506 -720.353271
-168.558762 730.100830 -758.141968
-182.363312 1052.650024 -540.158447
-149.521286 769.675110 -751.680298
-65.366447 923.754333 -1230.234741
-358.289185 1001.670105 -661.316223
-93.954048 914.754211 -1240.930786
-138.306305 1076.983398 -1190.341675
-102.156372 1045.573364 -1166.720093
-335.490479 1150.630737 -1086.468872
-43.089321 847.041260 -774.073975
-388.983429 971.533081 -662.063904
-166.989670 721.447937 -748.058167
-113.970490 1087.810425 -1173.071045
-427.380829 1071.647217 -1045.304565
-152.031693 1086.447144 -1164.719604
-71.530579 783.342163 -759.843994
-435.997925 754.888733 -502.167999
-339.100586 895.957092 -1167.951416
-389.817291 991.679382 -1125.916260
-426.684448 842.220276 -1167.304810
-455.654816 813.446167 -1166.360229
-152.696396 1066.715454 -572.041138
-146.159943 1038.692505 -356.319489
-393.079773 765.865723 -695.379395
-119.042412 882.251648 -1230.256714
-366.558807 745.142700 -1215.976074
-391.934265 925.378601 -1161.385742
-394.673889 823.708862 -683.634827
-48.219028 1046.448608 -380.942505
-150.440323 699.150269 -784.199402
-548.115906 887.130005 -1114.121216
-105.553612 1044.807129 -340.841644
-332.189301 662.424988 -745.638123
-162.580719 1067.814209 -564.082764
-159.265778 1077.049316 -306.420380
-379.751526 730.197876 -711.700378
-485.860748 775.603943 -1163.667114
-291.171509 907.541382 -687.243652
-368.805237 1029.138306 -511.363251
-235.161316 780.134460 -712.806641
-286.606934 954.387817 -1070.403931
-95.656082 1056.191162 -586.246277
-331.483521 978.430359 -1116.340332
-132.609360 1060.710815 -535.325378
-236.310532 1028.067505 -316.113251
-245.308731 903.620117 -699.359619
-283.046967 798.064819 -1180.584229
-472.414063 982.629456 -1097.978516
-461.267303 745.227661 -1165.090698
-462.851074 850.378845 -1166.900757
-556.176392 791.024231 -1130.865234
-335.666870 1035.398926 -544.790649
-182.567566 1048.318970 -448.236115
-117.509178 1044.823853 -515.420349
-196.217468 770.794983 -1252.043213
-333.462341 1027.517944 -525.934753
-333.390533 820.610413 -1147.002686
-387.743439 965.925903 -1089.851685
-222.976425 1050.713013 -513.453125
-216.697250 714.902893 -767.112488
-142.552261 1045.757080 -427.594116
-120.894257 719.674194 -774.280090
-284.450806 888.739441 -708.503113
-287.705261 1030.117676 -531.509460
-98.377815 987.812195 -718.335083
-79.742477 983.320618 -1216.813721
-242.332397 765.198853 -1223.231567
-469.925903 924.775574 -1084.232422
-547.608887 1151.224121 -1066.579712
-349.161438 654.782166 -777.608337
-345.306519 723.949585 -1195.779175
-437.250549 749.049438 -1181.711792
-200.742996 853.474121 -707.537720
-240.915924 1048.940552 -454.049194
-197.742905 695.475220 -769.838318
-259.481689 1035.723999 -529.612305
-73.673111 735.285645 -785.152466
-231.694885 1368.204346 -1107.090088
-356.562256 649.224060 -759.402954
-529.068054 985.013123 -1097.558716
-105.440628 1051.541504 -419.034180
-260.402740 742.407349 -726.349487
-217.694244 720.288635 -1237.370850
-71.949837 810.711731 -746.350769
-97.907082 1061.567139 -523.631470
-267.935638 755.412476 -725.852722
-88.849854 1050.271851 -564.509094
-378.938599 823.946838 -1177.905640
-464.592407 811.808716 -1164.454102
-456.962402 973.636719 -1086.942993
-344.349182 703.223206 -706.074829
-232.397079 726.466797 -1221.389038
-479.575348 885.455139 -1141.807129
-151.251602 836.659607 -1214.977783
-496.377441 864.090942 -1136.449097
-310.642670 900.287537 -1070.069092
-234.884262 1045.942139 -468.850983
-465.956421 955.254761 -1139.713745
-419.822540 873.749451 -1180.744995
-145.646423 693.087708 -801.260254
-216.847000 1046.913818 -466.218536
-66.959709 1051.414185 -468.291718
-257.993958 765.622437 -1200.237305
-213.538284 1052.708496 -317.467346
-164.934402 1043.526245 -343.930054
-251.963318 680.981934 -761.982544
-367.065247 876.767700 -1175.230713
-164.882233 777.655518 -728.403992
-216.711807 671.804810 -786.953003
-444.828644 1079.457275 -1090.015137
-145.580933 1040.696533 -379.786407
-107.594048 1044.363037 -318.034332
-199.477524 1058.597412 -551.921265
-259.783539 1031.312378 -373.732300
-278.807220 805.408142 -1204.214233
-586.447083 938.724731 -1086.007813
-606.654785 876.811523 -1118.267822
-67.654144 754.725159 -800.735901
-167.848465 952.970398 -1201.930664
-295.023621 1034.366211 -353.864990
-460.051300 979.718262 -969.345886
-558.542969 944.507568 -1068.890137
-244.678986 1035.553711 -676.146057
-209.674957 1049.499756 -371.974670
-450.871338 942.755005 -1150.060303
-207.796097 944.075928 -1207.991211
-185.891663 1040.910034 -349.134064
-113.776215 1006.022827 -1168.933350
-103.844879 689.830872 -805.754639
-72.626144 1056.341797 -513.535950
-157.763519 852.347778 -726.731934
-376.632111 994.845154 -1122.378784
-181.632172 749.449524 -761.554016
-99.104088 1046.828247 -408.490540
-361.515686 838.073425 -1194.337769
-381.410339 724.550659 -1198.411377
-321.404144 677.968201 -738.126892
-293.751892 1030.277954 -693.019958
-355.262604 869.558716 -1158.014648
-103.411469 1057.139404 -293.226288
-601.188110 995.442627 -1091.773071
-274.250183 759.564880 -1203.963135
-348.268097 1022.728638 -466.025543
-107.832886 1051.882935 -459.307831
-66.851601 1065.155151 -1188.011963
-296.094147 1015.801819 -1162.009521
-135.143097 914.068481 -1226.740845
-396.953705 873.162964 -1166.615479
-331.008698 1028.783203 -390.730957
-287.497284 1127.426270 -1126.566772
-24.797020 1030.841309 -1226.966064
-169.652924 1058.651733 -361.053986
-313.433319 910.424438 -711.359070
-171.194778 1026.550537 -683.294189
-234.456726 1053.824341 -502.386993
-187.187531 667.010193 -788.458069
-484.691986 1080.300659 -1085.641602
-129.446716 1051.398560 -462.886780
-573.105957 898.102112 -1084.427002
-476.962311 762.077698 -1153.069214
-138.966187 1042.525391 -338.485962
-423.979340 873.261353 -1162.770264
-124.668388 1052.044067 -461.508850
-382.454926 755.578491 -1181.615967
-387.765015 772.520020 -698.104919
-542.655396 882.041077 -1124.278320
-294.998505 970.345581 -1154.287842
-354.843079 668.965271 -724.076111
-157.911362 884.509033 -1234.367188
-552.215637 876.928223 -1083.028687
-332.140503 810.671753 -1165.491333
-234.431061 859.212952 -1196.237427
-132.877609 744.744995 -759.402588
-147.547638 847.263855 -1236.909302
-294.567383 663.622009 -772.592163
-281.973816 1025.420776 -669.091553
-61.748264 1074.463745 -582.635681
-187.479126 902.006714 -1212.502930
-54.422527 769.800720 -787.139221
-169.475571 1050.796387 -433.122284
-381.822784 900.134521 -1141.369141
-113.920937 1056.153442 -480.477997
-227.669037 1237.480957 -1077.266357
-400.228912 799.440002 -684.561523
-351.232025 727.015076 -714.517883
-359.674438 907.364807 -703.724426
-72.448921 943.852417 -1223.886230
-82.742355 880.329041 -1224.420166
-57.204060 1028.734253 -1148.715576
-453.083862 934.360535 -1129.444336
-227.503021 1220.315186 -1149.271973
-110.654388 742.294556 -760.488647
-564.833069 865.212830 -1070.813110
-387.601410 704.051941 -715.856934
-570.291809 840.622253 -1095.386475
-340.771698 864.807861 -688.487671
-238.488693 1099.895874 -1104.638184
-413.824554 811.753601 -674.706360
-182.816833 778.550110 -743.963501
-180.761826 1043.821289 -702.869568
-155.088470 680.121033 -801.958252
-206.094894 812.973694 -1211.615967
-295.695282 1032.214355 -290.450043
-498.421509 831.298218 -1152.462891
-114.771484 703.965210 -791.518555
-35.183338 770.426392 -805.368164
-119.006927 818.400940 -749.229248
-340.946777 865.961487 -673.259827
-223.068893 1031.590698 -322.076569
-199.689545 984.507141 -1195.693604
-275.658539 1039.108887 -557.744324
-99.105721 893.801636 -1243.653687
-60.010689 1047.225464 -438.365509
-298.411011 855.108032 -700.964539
-436.436676 943.295776 -1152.488159
-232.785583 1053.353149 -543.270752
-321.697021 903.335266 -687.353760
-468.017822 905.357056 -1122.278198
-261.833862 1030.818237 -296.222565
-198.593765 1056.278687 -299.837219
-261.724762 1040.463745 -441.130890
37.965569 878.587524 -593.478577
-330.552155 777.736633 -1211.441162
-399.404663 732.199097 -1196.666016
-291.508728 927.477112 -673.767151
-264.026031 1043.299683 -290.154572
-206.762009 1033.359741 -354.359772
-180.197662 1052.009644 -499.797485
-380.359558 718.353882 -1197.631470
-285.050049 644.718079 -758.603394
-304.709564 1033.903931 -404.810608
-137.535492 1038.900635 -364.386719
-255.858185 1033.771851 -457.659607
-152.137924 1115.948242 -1147.368896
-137.674011 938.892151 -720.980713
-127.304451 950.833801 -713.997925
-184.867767 932.040710 -1212.891968
-393.355286 1021.734375 -507.416351
-162.634476 815.340149 -1243.698486
-44.972652 991.609680 -1227.132568
-237.020706 664.533875 -782.107666
-350.522339 831.649536 -1171.627319
-520.715942 796.555237 -1138.806641
-95.536644 957.764282 -732.544678
-195.006546 703.387390 -766.984253
-195.597046 681.359497 -777.792786
-86.517899 1049.379761 -359.904602
-95.755905 1066.150269 -1182.695557
-218.237915 1043.584961 -420.115845
-93.548195 1010.339172 -1164.464355
-373.371185 664.267456 -734.315430
-26.716183 1042.043091 -1212.748657
-192.712540 1068.280029 -555.447571
-100.316757 1067.520752 -1177.601685
-366.681152 1009.588074 -427.269562
-309.731842 1017.936890 -334.210175
-67.890327 1073.514282 -538.893555
-259.427551 1026.003662 -331.493591
-278.633759 961.679504 -688.031738
-56.859360 1051.339478 -356.512970
-221.613159 848.977417 -1222.350830
-229.809296 1042.055664 -269.704773
-155.585526 1085.831177 -1132.060303
-207.647751 853.273254 -1218.266968
-115.513588 721.306030 -779.817200
-51.324253 1050.141602 -449.776245
-397.752472 994.797424 -1124.137085
-430.296570 819.447632 -1170.397827
-152.159683 824.096863 -1235.114624
-261.154449 977.554626 -1166.555298
-66.986237 1071.371094 -1188.593872
-303.396881 753.931091 -1178.150635
-283.359589 756.293579 -1199.150146
-48.918049 1005.106140 -1225.823975
-140.739990 1047.665527 -461.364899
-271.602325 1041.481812 -470.884491
-399.575684 804.631836 -1178.043091
-118.296844 913.730591 -1235.910522
-218.117432 1034.750732 -556.390015
-225.207397 1236.669922 -1085.928345
-242.169556 962.736145 -697.395569
-423.153473 803.658020 -1185.459839
-217.953873 1044.054688 -427.715912
-267.059601 984.455566 -1103.043457
-467.848267 858.021118 -1150.170044
-278.612640 1039.574585 -386.876740
-48.816936 966.221008 -1211.601929
-330.020081 719.315552 -1211.216675
-224.355789 780.334229 -1234.216675
-292.510345 788.028137 -724.109619
-336.591766 1021.958557 -298.170593
-265.340302 781.188110 -1105.805420
-233.332199 1034.251709 -356.916077
-134.868759 1040.193848 -362.948212
-366.539307 1015.262024 -407.963715
-309.543823 773.387817 -724.097412
-168.470566 1043.168213 -361.860535
-397.936890 785.941284 -1186.849487
-245.745575 1043.938843 -565.527039
-186.504562 822.114929 -739.813232
-414.763306 992.314453 -1098.811646
-436.014679 844.789856 -1176.720459
-295.346710 773.694153 -1180.606934
-107.148590 896.414368 -719.390869
-449.115570 936.245483 -1068.893799
-344.426849 693.856689 -1226.087524
-210.626907 830.500122 -1223.124512
-168.019913 685.173157 -782.101318
-332.199524 1039.638916 -498.188477
-395.935150 989.548340 -1060.794067
-119.024193 837.587830 -727.690979
-126.738029 852.304810 -1233.753296
-234.432541 1107.926514 -661.723938
-166.630859 1044.383789 -391.013550
-261.692169 1157.336304 -1129.108765
-132.533463 859.595947 -1231.134888
-245.087326 1179.313599 -1089.314941
-266.165985 787.795959 -720.248047
-286.222809 775.359009 -714.681396
-83.792900 962.167419 -727.129211
-285.920685 669.945984 -794.753052
-342.263397 996.209595 -661.322937
-276.543427 914.667358 -688.640076
-395.699127 918.502441 -664.086365
-144.826141 1046.932739 -425.409973
-84.515816 1040.380005 -417.593506
-159.529404 938.001404 -698.975708
-210.467499 1330.797119 -1109.701050
-64.369247 1060.278809 -479.965057
-120.207077 1038.701172 -364.122040
-82.557526 847.669312 -747.272095
-552.723022 1141.267212 -1080.776611
-200.572632 1051.615723 -328.560944
-291.785767 969.623108 -676.572144
-168.012634 1043.469849 -369.114563
-225.183533 1032.813843 -440.118500
-327.576263 875.213135 -690.216553
12.260041 898.029785 -742.769165
-246.336746 1026.670898 -353.525848
-371.638062 904.263733 -1170.795776
-211.909927 840.298767 -716.476868
-218.620300 1058.776489 -675.529602
-287.437347 961.043823 -1159.897827
-259.406128 1035.726807 -363.573822
-67.830566 806.747314 -764.719116
-253.598648 861.195740 -718.858032
-210.517410 825.956177 -1222.885010
-244.435669 1050.287964 -510.276703
-239.569092 1026.093262 -692.749268
-207.071289 902.110596 -705.547546
-476.714142 1119.919434 -1096.142578
-199.342422 974.065796 -711.397888
-125.710693 796.187927 -759.120605
-174.366928 959.372864 -1209.451538
-201.904984 1137.501709 -1137.295898
-257.598236 925.541809 -1189.926270
-87.451439 969.544617 -1211.925049
-155.844986 837.660217 -722.008850
-148.169403 1047.611572 -457.403503
-522.141052 941.750549 -1097.651733
-323.167389 1030.909180 -423.685974
-147.203033 1051.430542 -466.817505
-285.439819 816.460022 -985.494568
-98.393883 1063.239014 -532.135315
-46.352455 1051.140137 -434.848022
-459.187836 970.402466 -1120.165161
-83.189842 1060.396973 -456.266113
-482.427765 945.301514 -1136.600342
-536.026062 881.604980 -1092.235718
-138.419968 1051.895630 -447.124817
-352.425568 999.223572 -643.531311
-416.761871 982.849426 -657.166565
-111.218369 884.293396 -1241.401733
-237.091141 1038.228149 -1153.333008
-251.674973 941.358521 -1204.034912
-310.210449 901.321411 -1137.050537
-54.687508 1053.507080 -499.451447
-238.333588 908.378967 -699.936035
-182.603943 1010.815613 -1181.566162
-160.784698 1051.772705 -353.076569
-304.152985 846.850891 -1021.385010
-380.330750 919.994446 -674.633545
-390.322601 699.046936 -725.492432
-306.774963 1021.614502 -369.493164
-565.770203 828.518311 -1122.292725
-186.582275 719.106323 -756.843079
-236.111984 692.067261 -1236.841553
-174.023666 1026.554321 -706.151489
-286.321808 648.514099 -777.744934
-277.716888 682.008301 -743.098022
-452.170502 785.926636 -1169.904175
-218.981079 1061.263916 -521.919861
-549.099182 908.109253 -1086.146484
-327.395355 728.084473 -1213.904785
-150.784149 1045.070068 -544.978027
-127.557663 916.078125 -737.887634
-274.613312 1169.186523 -1116.921021
-111.205147 1047.839600 -376.412079
-302.441559 713.262268 -1228.389160
-286.539581 1040.205322 -492.649841
-132.300049 941.461243 -706.049744
-305.110779 996.658813 -653.178223
-153.397049 1064.421143 -545.653381
-389.475342 769.096680 -1199.747681
-425.395508 844.643860 -1163.853394
-167.266174 727.470459 -772.680847
-179.095673 917.528503 -704.211060
-216.543671 1014.676392 -1175.908325
-51.578201 1055.595581 -563.231934
-473.372162 806.709473 -1162.299194
-373.377502 793.059509 -705.633301
-322.161499 934.680420 -1119.250122
-522.747803 914.759216 -1138.169189
-196.087173 817.440186 -728.262573
-406.962067 727.140259 -702.331238
-553.694458 1165.928711 -1089.046753
-229.381546 731.319458 -1243.461792
-245.827805 836.955017 -1195.886719
-287.841736 1067.617554 -1022.483765
-430.737000 737.338623 -1172.040771
-142.512558 866.367249 -734.690674
-295.452301 978.571533 -1150.320557
-386.867157 895.876648 -1161.965942
-219.129166 1032.953125 -398.736053
-135.642944 997.687500 -1203.352783
-207.820038 842.590149 -1232.407837
-241.996246 977.734192 -1175.033936
-228.246811 917.028137 -704.110657
-19.615335 870.488831 -734.416992
-227.659821 1047.629883 -484.597961
-157.894608 1051.557983 -390.439148
-144.731400 1047.082642 -407.443512
-40.111832 1049.955688 -596.412048
-197.137589 894.853027 -1226.426758
-216.415024 1050.952393 -459.425446
-424.073853 888.275940 -1139.643677
-298.875244 1086.194336 -1058.018921
-197.490555 1039.016846 -316.838379
-367.041504 909.369446 -658.631958
-79.116592 907.276672 -1231.754395
-73.739929 967.818176 -1196.812988
-217.600708 665.199951 -778.401184
-213.832870 1196.201294 -1126.708374
-404.878265 780.968018 -1186.451294
-64.487000 1049.076538 -1202.226318
-270.947876 1024.518188 -540.596313
-57.003387 978.924194 -1209.676636
-220.431427 668.578552 -785.221802
-73.733444 1024.940430 -1189.533813
-218.119965 768.054688 -722.213196
-27.255463 953.466614 -731.402100
-291.206085 705.462585 -736.347717
-143.515610 1044.943604 -407.754730
-232.347778 1035.327026 -310.974426
-81.156952 1067.596680 -605.461853
-175.837112 1051.107544 -384.726288
-267.076416 1068.447510 -1114.958862
-244.800827 649.300293 -790.436035
-143.125717 1043.458862 -426.540253
-204.162796 1046.644287 -1158.603027
-277.900299 1146.131104 -1130.617188
-161.105591 1058.826050 -385.228821
-24.206200 845.406921 -762.369385
-466.018799 834.828918 -1168.908691
-429.388123 978.214111 -1127.678955
-405.223145 804.468872 -1201.906738
-271.442535 1040.914429 -370.605438
-34.817310 898.875549 -761.825867
-122.969933 971.208435 -705.993408
-254.418091 761.338623 -1205.780273
-278.626221 748.359619 -1217.602661
-240.182129 1042.874146 -337.571228
-73.409225 1054.780762 -471.286743
-135.741180 926.608154 -1216.337769
-218.433884 874.973022 -1224.835815
-245.569748 1004.309631 -1068.386597
-277.262451 985.506775 -1152.103638
-289.173950 1024.215210 -371.581482
-401.842743 1020.658569 -480.706299
-161.549347 961.113159 -1217.349731
-607.628601 899.631775 -1099.393677
-85.293022 1019.010925 -1189.579102
-266.927704 676.900940 -762.834473
-224.402344 1046.069214 -487.474670
-443.222931 712.162231 -615.264587
-226.169296 1046.568237 -423.392456
-215.962891 1036.024170 -356.885193
-214.438034 928.921143 -699.736206
-196.200470 1053.832397 -514.446411
-127.465050 1048.753784 -460.326447
-242.848022 853.637329 -1207.691040
-330.480988 859.117615 -716.077393
-183.260635 1251.303711 -1119.569580
-436.329224 752.740601 -666.244507
-385.995483 823.137451 -699.344299
-276.985931 962.332153 -1034.938721
-367.410339 685.106201 -723.980042
-185.336044 1265.297241 -1115.517212
-116.133797 1052.777222 -713.012878
-43.538155 853.604797 -766.524414
-455.245789 769.827576 -1170.500122
-64.399696 817.373718 -773.213257
-497.829163 934.710205 -1087.665649
-112.632347 1062.248779 -319.848022
-217.641632 778.305542 -1232.131592
-200.702240 1012.294617 -703.308167
-548.494385 847.372864 -1105.957031
-160.229797 686.472229 -783.747742
-587.005615 858.905518 -1070.223755
-123.366249 752.255798 -750.426453
-93.880989 1045.347290 -352.446320
-126.883125 1043.672485 -463.222015
-105.348701 1056.416260 -491.132446
-224.376282 1263.266357 -1093.998291
-295.882996 800.788879 -704.433533
-258.980988 982.018372 -1049.357910
-165.533783 808.212036 -1217.896484
-161.731506 1005.893372 -1195.109863
-80.009262 930.797974 -1212.576416
-71.614746 1053.686035 -518.625183
-313.082397 765.709229 -1214.861816
-250.467697 986.007874 -1102.415527
-439.645630 920.347656 -1056.883789
-252.450745 917.639771 -1195.272461
-208.241638 923.244141 -1217.371338
-201.356857 1042.653809 -466.950897
-212.163208 1054.358276 -517.483887
-182.210434 925.624695 -700.597412
-480.761108 816.497070 -1170.051147
-71.586090 1050.438599 -462.117920
-154.047913 1006.228271 -1193.168579
-236.399170 649.480591 -789.127319
-105.577347 779.089844 -761.673706
-535.206421 888.420410 -1120.829102
-71.896690 712.625427 -822.890442
-52.596958 1050.289795 -422.257050
-162.411224 1044.073242 -364.719757
-138.787949 1023.104797 -1137.817505
-262.224152 1023.387085 -1173.646240
-92.136375 891.860962 -1230.357300
-349.738068 744.087341 -731.952271
-176.990677 1047.391968 -687.981628
-61.071022 1095.425903 -1191.722534
-268.069275 1034.640381 -371.914886
-157.214706 728.627747 -758.222534
-181.441879 1060.896484 -502.645660
-327.154968 1148.646729 -1118.296631
-303.718414 1037.478027 -483.052185
-435.144348 723.034546 -1171.515015
-184.156067 827.985168 -1226.237793
-187.338486 1054.951416 -514.792847
-111.939926 1056.432129 -600.507141
-182.275406 963.540222 -711.895142
-217.566025 1062.110107 -306.738525
-336.144470 719.652771 -723.371094
-138.439514 877.881531 -1210.121338
-332.765869 764.913574 -1181.967163
-315.668610 812.055054 -702.090698
-235.245804 1082.670044 -1108.282593
-337.200592 1026.088745 -496.410339
-254.633209 1059.986450 -555.789001
-358.673828 1029.613892 -426.377319
-376.814789 925.156067 -652.661499
-231.314209 932.834290 -1179.589478
-116.708946 704.995544 -783.327332
-481.687103 937.190430 -1123.353271
-132.221954 883.697449 -733.955627
-204.843018 822.190613 -1225.121094
-445.054993 859.675964 -1145.012573
-235.376083 656.094543 -802.963501
-108.560867 849.504883 -760.573975
-201.043243 1062.873291 -521.180725
-184.698288 1065.299438 -590.450867
-479.393707 856.189697 -1134.189087
-404.283112 694.771240 -1189.022339
-202.843552 805.304810 -1239.850830
57.411427 824.085938 -586.709595
-65.062668 1054.687744 -456.640839
-127.355492 826.525879 -727.772400
-40.831253 1044.107300 -1202.343872
-294.730072 881.046204 -1025.164185
-120.449127 1052.722168 -491.567627
-222.042877 1298.888916 -1095.369751
-321.371155 1113.179443 -1105.331909
-114.127205 770.302002 -771.659607
-241.783188 709.193481 -1245.341797
-287.345795 1023.888000 -1144.417480
-113.337906 857.069092 -1235.020630
-73.779083 1057.629395 -399.097321
-413.904572 745.394104 -1174.596313
-280.926697 862.654175 -1028.921753
-330.429901 703.337463 -718.985291
-108.539131 872.802063 -1239.262695
-243.038239 692.208984 -741.676392
-94.791916 1072.541992 -593.530151
-184.228134 996.362732 -718.394958
-271.188934 800.129028 -1105.726318
-300.819672 692.864441 -733.839966
-384.215607 754.534851 -1177.258789
-435.896515 1027.109741 -1093.661377
-88.941620 1054.695679 -441.743103
-182.483856 859.712524 -719.807800
-276.957611 687.250732 -753.226929
-459.744690 866.315125 -1164.990601
-240.394318 829.506897 -736.774841
-142.609390 1011.926514 -716.811401
-220.840744 1037.985596 -686.034790
-268.868286 1034.024658 -683.547058
-181.275101 988.509705 -690.193298
-82.278442 1056.597656 -496.357422
-207.740784 999.050232 -691.936829
-317.750336 1401.423340 -1048.590088
-211.210678 868.619873 -719.585815
-275.811493 815.220215 -983.974060
-263.399292 1041.064941 -422.504150
-246.562103 818.646240 -1215.462402
-211.724380 1141.582153 -1137.106445
-582.200256 966.672852 -1095.878540
-277.284973 679.194641 -1236.397217
-275.567383 709.044312 -733.553162
-319.174988 977.722839 -1126.808594
-240.936478 1046.439209 -314.727112
-318.558624 1020.277893 -340.796326
-219.603165 1041.448242 -1149.511108
-482.229828 914.781677 -1126.675293
-238.573090 676.856018 -767.127441
-325.307220 890.567810 -671.066284
-217.793335 1048.608521 -539.349976
-244.307281 1033.241821 -298.272186
-131.091827 750.099915 -757.602661
-321.231018 882.135193 -689.079163
-301.182770 1045.287842 -524.138184
-240.331635 688.594604 -1248.552612
-193.652405 963.656067 -1195.262207
-405.936768 932.781006 -1162.052002
-129.171967 802.800171 -746.727661
-176.726517 1031.633545 -1110.983765
-134.152191 1082.115479 -1161.789551
-235.637024 1048.110107 -686.528992
-184.427185 1029.589478 -691.925110
-90.199356 932.112976 -720.869385
-56.852104 934.270203 -723.685303
-539.381714 906.536377 -1099.157959
-440.431335 821.303528 -1177.967041
-318.798462 875.073364 -691.429199
-88.761154 1030.335938 -1143.891235
-339.921234 767.439270 -692.754822
-73.099213 1057.676758 -513.165649
-246.450745 1026.925781 -1168.821411
-177.334290 768.890625 -1244.311157
-97.348167 1013.853516 -1168.036987
-379.797821 1030.129517 -473.762939
-286.639984 922.906555 -1157.533936
-51.120594 1066.758545 -512.602295
-151.718353 991.700073 -1178.702026
-195.840698 749.872437 -1238.101318
-215.006165 801.860657 -1222.448608
-453.974884 732.005920 -569.026245
-290.736908 727.645081 -724.597046
-341.473389 962.258911 -676.856079
-314.454620 1022.135559 -330.906250
-167.740341 830.762573 -1212.563232
-190.794815 1061.004883 -583.242798
-339.687531 669.159363 -756.665283
-328.020844 683.861206 -736.475586
-324.114410 1026.211060 -421.373932
-551.190125 877.005005 -1087.409180
-89.218491 1085.836304 -585.117371
-228.506592 1068.534302 -572.662231
-161.132599 799.271912 -735.799072
-409.501862 816.200500 -1173.729004
-288.981598 957.749573 -1175.797241
-148.026581 902.119690 -1208.528442
-455.300537 923.960144 -1090.964600
-346.320282 998.203186 -677.534546
-132.173370 807.483215 -1240.502686
-465.300140 1069.038696 -1093.401489
-108.567673 992.504456 -1189.801025
-202.724854 718.854675 -746.772461
-222.506073 784.443604 -729.230591
-103.705177 1049.632813 -547.133545
-275.961121 640.843445 -764.683167
-308.306915 763.159119 -1201.904541
-249.090652 1043.699707 -556.949707
-345.262970 1037.207764 -527.960632
-37.807693 982.157166 -1233.495972
-214.051483 1024.285889 -684.490723
-52.133171 973.482910 -1218.341064
-301.305573 784.060242 -1205.526978
-38.973240 1063.058228 -407.231445
-253.930267 672.011536 -1239.812500
-365.672974 746.647949 -722.024780
-233.720261 1039.142456 -439.196228
-306.926117 708.710876 -722.041260
-73.146561 1055.362671 -488.748047
-354.881897 952.038757 -676.302124
-362.727692 1017.171692 -445.060516
-66.464371 1097.043579 -1197.102661
-45.703545 1073.144165 -376.106842
-369.242004 687.222290 -1198.090820
-179.463379 1043.000977 -382.223480
-370.891205 821.879272 -671.177002
-232.097076 1032.016968 -331.816345
-223.348770 1025.562012 -1124.871460
-426.690002 851.700256 -1148.088623
-188.849106 1233.890259 -1116.404541
-234.880798 1016.885925 -1119.163208
-526.691650 869.213501 -1129.582275
-90.552811 1088.581665 -1153.105347
-248.803589 1029.194092 -422.685455
-254.455643 929.913513 -1197.194336
-129.655655 847.916016 -733.286560
-68.923431 1069.756836 -556.733093
-294.098145 683.241760 -728.471680
-110.531624 763.029724 -761.987427
-242.182144 654.418396 -794.663086
-325.637390 1019.104370 -376.259216
-276.381378 667.613831 -749.764160
-518.573303 850.050171 -1037.294434
-356.151764 844.429016 -1174.152832
-209.530304 1040.979004 -564.325623
-178.690933 794.312256 -1233.604004
-298.561157 1026.382813 -435.279541
-220.064301 1029.696045 -358.156830
-203.665771 1039.041504 -336.397369
-35.131714 1046.226685 -453.872589
-558.291565 879.067871 -1097.280396
-278.993866 1098.807983 -1068.135498
-601.907104 981.205261 -1091.020142
-424.860321 857.617065 -1164.701416
-88.573891 942.321106 -1207.362061
-90.442841 1046.321899 -419.507233
-265.967926 864.600342 -713.529419
-445.905090 965.360474 -1112.854492
-262.777618 722.334961 -1242.063110
-485.611603 911.465027 -1062.332397
-125.276016 1070.348022 -570.277893
-227.788849 1326.166138 -1106.903564
-36.184769 997.905151 -1230.786133
-239.328278 955.842163 -715.821594
-223.484009 887.984741 -724.667297
-535.958435 867.879944 -1127.849731
-100.728111 1052.299438 -486.584198
-321.176544 982.491211 -1097.872192
-68.883293 820.825500 -765.634155
-346.421417 780.530273 -1211.642334
-234.517029 1387.971436 -1103.806396
-273.146210 1404.805542 -1080.307129
-263.689270 699.690735 -728.146484
-9.135540 1003.686646 -1225.066040
-60.243168 974.189758 -1230.784058
-330.507446 798.338562 -1201.391235
-537.084778 863.966248 -1132.880249
-178.360168 872.178589 -1202.635742
-259.448883 861.031067 -728.080078
-250.530991 724.747620 -737.362183
-63.335438 759.868042 -800.557495
-295.055664 1031.947144 -1159.136719
-183.533936 1056.219238 -487.657837
-156.484314 928.607971 -1201.623657
-221.759659 1051.534912 -465.384949
-71.079910 730.362854 -809.173767
-263.831146 1017.170044 -690.116699
-132.896881 1062.457886 -586.886169
-341.854309 933.600281 -676.126831
-147.083191 849.771545 -1228.871948
-179.009460 1012.400146 -682.719055
-295.898132 807.605225 -691.094421
-234.639603 1028.775513 -337.725891
-83.863327 874.615662 -1235.809204
-352.607086 651.399841 -740.415894
-245.529083 723.431274 -755.613220
-308.307098 896.417297 -705.570984
-270.498566 1068.512573 -1136.008911
-170.560349 960.196716 -1206.011597
-140.877197 1042.819946 -319.012604
-108.447136 950.732300 -1229.091187
-149.449936 1052.299316 -523.084839
-219.159363 768.773743 -1217.268433
-369.674652 752.245178 -703.718872
-285.459930 783.697876 -1194.715454
-133.936005 831.223328 -1220.036621
-393.615295 1042.310669 -1031.920044
-32.797768 1062.516724 -462.554749
-547.664001 1042.365967 -1103.932373
4.739128 1044.719360 -1209.451782
-114.610802 1059.159790 -516.782654
-371.910309 760.373962 -1207.252197
-199.294479 782.111084 -1219.388794
-297.165710 1041.964600 -480.412109
-173.661179 891.698730 -1216.680054
-362.763397 1018.327759 -328.412994
-279.389618 1029.107056 -655.115295
-85.168098 1059.295288 -310.748108
-340.503876 1024.018555 -476.207031
-100.012352 1021.544739 -715.143860
-292.803375 759.843994 -1181.812744
-272.922119 772.571228 -1099.507446
-183.582001 1037.295776 -466.066498
-115.292526 1058.925903 -498.723511
-223.629669 824.944214 -1220.695313
-214.474457 1032.365845 -344.646606
-31.924423 819.536621 -776.919983
-416.264130 747.421692 -1199.220581
-74.782333 764.475647 -766.261841
-374.635040 681.500732 -718.974243
-450.341675 911.171387 -1063.870361
-390.789154 859.135681 -1186.433350
-266.472046 739.307434 -1190.612793
-114.781906 1051.216919 -489.946655
-216.108994 708.980530 -750.705383
-224.441238 1041.370483 -693.627686
-303.895996 1243.796387 -1021.663696
-483.726898 895.131592 -1138.656494
-264.809265 936.720520 -687.660339
-240.656082 764.509155 -726.077698
-591.553894 1036.012451 -1088.077637
-198.095581 1013.589844 -1144.667358
-581.506836 925.443787 -1083.404541
-222.048660 1332.556396 -1089.658936
-84.253189 943.248291 -726.920776
-164.198013 1042.651611 -517.224731
-402.776062 893.127930 -1180.176758
-159.434814 736.044922 -753.799194
-282.356537 860.169800 -1112.796265
-71.361923 1013.542297 -1192.196655
-131.914764 826.600403 -1235.677002
-199.548599 670.141418 -793.304565
-80.002022 1046.395386 -434.635468
-435.752289 898.063354 -1167.812134
-211.459473 762.873901 -1249.357666
-225.616028 992.030518 -1168.577393
-135.008133 1001.597839 -1198.745483
-303.899200 759.809143 -1171.851440
-306.552521 959.579224 -691.536987
-190.157043 1041.916748 -431.855103
-396.699463 964.892029 -1142.982788
-246.182922 822.473083 -718.662109
-286.568542 1045.179565 -471.154449
-317.077393 922.439819 -1110.434937
-374.844116 919.326233 -667.974976
-49.444313 775.658264 -788.196228
-545.367798 1074.846558 -1100.924561
-154.265015 871.738647 -711.749207
-248.088333 798.779846 -1175.023438
-52.455414 1052.952148 -356.390717
-260.028961 722.714844 -732.557190
-153.387650 1070.693848 -1157.780151
-251.563477 695.730408 -1234.880615
-371.057983 707.000854 -714.972534
-338.131348 687.008423 -1228.865112
-192.102814 1048.407104 -407.993286
-388.559845 866.942444 -1171.091309
-239.871292 1087.264160 -675.064636
-365.649811 897.662292 -1171.480347
-298.812927 744.309204 -741.993652
-409.850464 764.605225 -1173.836304
-60.202656 1059.777710 -370.745697
-203.351318 680.335693 -784.137329
-219.731018 1041.385498 -382.525269
-265.835876 838.956665 -994.619141
-215.939423 751.275879 -1218.452637
-110.594154 1041.072144 -350.307617
-308.276337 650.248169 -780.249451
-475.991882 898.485535 -1116.350464
-166.727417 1046.548096 -474.649109
-529.735962 893.840149 -1101.680420
-517.419983 938.528870 -1072.582886
-146.687210 701.848389 -774.942749
-231.328247 932.390991 -694.847656
-294.128815 803.122742 -1173.193848
-116.939903 842.933838 -1235.825684
-437.890198 764.033630 -1162.546021
-468.889679 769.656982 -520.783813
-180.554306 1034.580933 -392.351593
-385.337067 830.035583 -685.310547
-597.160339 836.913696 -1098.269531
-127.502090 935.569214 -1217.199219
-82.867424 1091.468750 -585.505554
-564.447876 837.469604 -1101.174927
-296.393066 910.064941 -1117.439575
-250.668182 1044.355957 -493.711975
-417.686737 789.288452 -1162.993896
-127.753784 1075.711426 -1166.915405
-194.278030 878.493896 -1222.312378
-225.164001 1036.004395 -373.672455
-223.020874 679.473694 -795.870422
-383.157135 753.633362 -1215.869019
-314.075867 1036.947144 -503.917084
-256.979858 886.080933 -724.481934
-281.553925 1009.057800 -1084.304565
-202.038040 729.059509 -755.709045
-389.930878 940.737488 -1164.242554
-77.048058 790.962463 -781.702515
-295.103821 772.184143 -1185.749268
-488.859070 771.236145 -1165.075317
-72.601028 904.594116 -1235.598755
-447.051453 951.829895 -1128.182739
-145.784348 1017.061218 -712.090576
-338.765015 690.216431 -1216.830933
-156.352036 1046.585815 -299.921783
-78.324265 964.787720 -737.310974
-248.939926 977.574524 -1178.250732
-187.695984 1279.763062 -1111.691162
-91.378952 919.797180 -1236.484741
-117.679443 1060.227295 -360.431366
-277.852264 823.003113 -1057.167847
-244.317642 703.991699 -750.379883
-238.347565 752.651550 -735.758484
-173.454254 1037.383179 -685.870667
-58.363007 1072.712524 -1197.053101
-83.798904 1049.282471 -445.114105
-489.972412 905.631287 -1059.101685
-263.977539 804.348694 -1190.157349
-479.493683 956.831787 -1086.559082
-121.637962 845.332642 -732.477905
-185.396286 674.071899 -792.262329
-587.512085 813.219788 -1115.205811
-456.013153 1024.515747 -1092.173584
-260.216766 872.033997 -698.376465
-288.325043 1138.349487 -1139.834717
-330.113770 672.096497 -759.486450
-357.996826 821.681091 -1197.051880
-295.870972 1031.078369 -406.275726
-34.480843 1069.703125 -537.666077
-303.243042 910.531006 -688.266418
-267.274475 982.696899 -1140.953369
-263.649658 1032.541992 -447.602844
-315.450256 1036.697021 -469.568604
-171.319839 1063.353149 -329.329224
-157.718781 964.855957 -1200.304077
-100.191116 697.203613 -841.265015
-54.413334 761.744751 -812.408325
-173.893356 1035.798828 -704.551636
-265.129669 1040.990601 -448.720764
-176.209900 741.142456 -745.708008
-143.438721 1039.833252 -1195.963257
-349.568878 833.304443 -692.459595
-274.765656 987.047607 -1061.358521
-308.649750 883.390442 -703.830383
-89.775169 931.481079 -1225.282104
-289.142548 688.780945 -1226.006348
-243.644745 992.142151 -1062.932251
-205.573669 1007.446533 -1137.101563
-147.594833 960.326965 -1091.836670
-308.080444 831.992920 -1184.408325
-44.056042 1059.681763 -490.926270
-16.551256 1104.795288 -1183.771729
-119.465965 834.259033 -739.428223
-373.910889 771.948303 -683.904419
-122.897636 1009.344910 -1178.919678
-147.777985 873.190308 -736.611572
-336.250549 802.510559 -1194.906738
-261.294708 704.337280 -1235.541748
-117.474220 1022.391602 -1144.986572
-173.983398 987.679565 -1182.797119
-78.109451 707.109619 -810.866150
-353.077332 869.047302 -685.909546
-248.197723 1172.258545 -1100.295288
-381.274475 1005.510437 -1070.253906
-279.272522 1031.693604 -396.411560
-250.746246 745.183533 -1221.401733
-137.799896 1007.875183 -1194.585449
-163.423386 786.049377 -1246.433594
-62.566494 962.184753 -1234.941162
-118.600014 853.780212 -1240.294067
-157.237778 887.442017 -720.477905
-310.720490 1019.797729 -333.276245
-550.180603 813.507568 -1121.882690
-125.950874 833.717468 -1247.424438
-289.888794 707.565430 -719.276428
-172.380219 1063.174805 -534.999573
-221.475739 843.571899 -1217.551758
-150.233871 825.870911 -1244.258301
-152.240341 952.142029 -1214.814819
-344.394012 1039.228638 -541.921021
-366.005127 725.354797 -1206.938354
-308.634491 844.329956 -698.179016
-165.507874 680.310852 -786.392273
-188.218628 814.266174 -724.852417
-321.838440 693.485596 -1228.572998
-126.275719 1013.019653 -1189.481323
-70.873466 746.788818 -781.256775
-513.243164 1114.864990 -1075.902344
-127.007347 693.598511 -806.459045
-62.307484 1020.649353 -1208.135376
-285.175995 927.381531 -704.409302
-256.245544 819.109314 -1147.347046
-497.352631 751.657715 -1154.539307
-34.751175 998.163330 -1220.928711
-241.598389 1021.720520 -663.655029
-293.248138 1033.479614 -360.902069
-321.311554 1028.582886 -462.520386
-64.646393 1040.077637 -1194.199097
-272.326874 1029.625000 -313.570831
-239.870117 859.183411 -706.410217
-207.867676 742.006165 -752.197083
-303.381439 882.573364 -1048.931274
-244.344711 1107.557861 -1130.965454
-136.588791 1015.289795 -707.759705
-74.359261 710.399963 -806.191040
-147.750259 1042.796143 -316.108856
-127.933525 725.799988 -759.380005
-299.894928 674.899780 -750.664246
-504.049530 871.210022 -1136.903931
-212.858719 792.534973 -725.132751
-346.572754 682.493835 -730.545349
-220.422623 1162.110107 -1151.129272
-156.547058 1050.488647 -454.511658
-310.166779 1031.452148 -531.579041
-156.959183 1051.875000 -405.585785
-289.802887 840.197266 -701.603271
-585.204285 852.525330 -1127.715454
-125.621391 845.400452 -1243.600586
-42.264893 866.706604 -751.932922
-75.027145 948.953613 -1222.484619
-320.817657 897.118713 -689.500122
-391.294220 873.165894 -1183.448608
-243.216827 961.829529 -706.214478
-51.642326 973.085205 -731.994812
-280.464142 770.048523 -1204.583618
-117.889618 1060.157471 -441.249878
-135.728790 1067.813110 -570.389648
-172.644547 853.676941 -1237.133911
-268.168152 1040.914307 -1165.930298
-300.382996 696.183899 -719.122620
-331.048889 1032.231934 -497.970551
-227.170105 756.111755 -1223.337158
-369.233521 968.634155 -1064.596436
-312.506104 1029.753784 -357.691803
-215.765793 1153.445801 -1149.058716
-152.061279 798.209595 -1240.747437
-273.328979 690.781494 -730.184509
-277.828308 754.924927 -743.254272
-247.653351 1132.282837 -1108.874756
-204.966766 870.795837 -1203.734863
-99.462265 1017.973877 -1163.046631
-127.266342 1044.123901 -355.520416
-41.428371 789.217651 -776.683289
-87.293922 1049.273560 -414.285339
-318.171173 896.076660 -685.054626
-177.924942 762.165894 -729.038635
-263.014221 1034.713013 -364.705383
-382.316925 715.064392 -1201.604370
-198.942703 1058.202026 -574.330200
-51.141315 1004.259460 -1204.132324
-240.241653 693.646301 -1238.934448
-38.364426 1101.623169 -1189.225586
-152.297440 714.242065 -766.426514
-393.255219 928.449707 -679.362061
-322.428131 1013.045654 -370.628601
-257.443939 777.447388 -1182.826660
-286.654816 1068.232544 -1046.650879
-193.283295 1238.260620 -1089.299194
-379.326508 742.194580 -1218.175171
-139.248474 1051.840820 -461.308960
-173.965134 1052.552368 -480.370483
-181.839493 1052.481079 -439.474396
-278.165955 866.000061 -688.139648
-78.135460 1071.060181 -566.115967
-33.889347 1047.191895 -445.041840
-473.238312 898.402222 -1153.010620
-182.642471 1044.740356 -282.594604
-320.034149 1036.093262 -480.029572
-137.606216 679.997864 -779.876526
-233.346390 902.835083 -704.124695
-325.791565 839.462524 -1169.785034
-124.727150 851.508118 -1246.477295
-77.388123 995.101135 -1186.128418
-340.709686 706.619385 -743.332703
-127.463905 1005.402527 -1158.486328
-187.270691 1058.618286 -345.122955
-271.422119 754.676636 -741.881226
-274.969116 995.030396 -1148.239746
-280.218201 697.223511 -1222.879395
-273.338531 1040.705811 -332.273804
-320.882080 1037.482910 -509.465942
-272.803040 1052.516357 -547.717224
-58.405083 1044.277588 -505.644562
-256.878296 744.048889 -1175.692383
-189.210785 1053.436279 -699.112305
-289.563965 730.597839 -708.898376
-234.084641 766.300964 -750.079590
-212.985092 976.111755 -1191.502686
-336.491394 936.468079 -678.486877
-301.056061 1024.314819 -408.234863
-279.993652 1025.371948 -382.930145
-342.403656 1029.748901 -466.679382
-159.448914 1051.196899 -452.184784
-438.406769 784.984680 -1162.690796
-228.128937 1125.471680 -1144.579468
-358.509430 875.622253 -681.425232
-547.837769 831.604492 -1130.901611
-109.761581 1056.168945 -477.019501
-167.133667 1040.844971 -413.753387
-58.130829 934.029297 -1246.161377
-268.081909 786.747681 -1137.959106
-385.793213 782.768494 -1188.570679
-289.389343 898.776489 -677.532471
-151.148605 809.574341 -735.943909
-99.810158 715.780518 -785.279419
-369.679565 825.916321 -693.097351
-180.484329 877.989319 -730.502319
-261.804901 669.924927 -780.891846
-479.722412 802.749756 -1173.073242
-215.330719 828.078674 -1206.537842
-98.891571 890.566528 -1229.841797
-326.820557 671.366028 -769.200256
-344.759064 1017.705688 -367.594971
-214.197845 930.981567 -1204.619141
-283.174011 978.025757 -1172.646973
-270.882111 1062.526367 -321.683502
-408.427979 776.303223 -674.573059
-105.348213 780.908875 -768.736755
-67.137085 720.425537 -801.677307
-212.278976 1051.684814 -463.319519
-87.612854 750.892761 -764.818848
-199.065842 1173.910156 -1152.410645
-26.824326 887.114197 -750.073853
-101.700371 799.140320 -757.802063
-169.263168 680.401611 -801.519714
-92.713547 1050.832886 -418.969391
-306.738373 930.774109 -682.756226
-114.753761 1046.451294 -313.455811
-131.089386 850.252380 -755.828491
-64.812454 1031.845947 -1196.177734
-190.134216 993.869873 -1112.394287
-103.284821 794.584717 -773.146606
-245.431412 1197.206909 -1128.720093
-495.606140 809.412659 -1156.779175
-182.018143 764.064636 -741.223694
-314.929169 723.455322 -1217.104492
-120.247284 894.322327 -726.861267
-242.018723 1046.824585 -449.144073
-224.897842 843.959656 -1224.203613
-506.614868 778.844849 -1158.057739
-296.177063 684.231934 -738.399597
-128.100220 842.611511 -1249.468262
-291.286896 892.172974 -696.901794
-239.279083 747.376953 -1203.741211
-121.666588 905.814758 -1238.372925
-339.613098 1052.632568 -559.663452
-332.872375 1032.763184 -473.756714
-284.739716 1025.421509 -320.097107
-171.961227 1055.348389 -324.879242
-189.342957 1054.007202 -517.263550
-168.202759 1036.885986 -341.581360
-160.927521 738.045044 -752.242554
-266.513275 676.951599 -747.775574
-44.193031 1047.668701 -411.662842
-53.928226 1045.192383 -1206.844727
-135.613007 1056.591919 -488.565582
-340.105530 787.090088 -1208.273438
33.247189 831.397217 -627.387634
-330.027435 999.868286 -692.578369
-321.892456 1021.535645 -340.292480
-40.121670 1041.724487 -489.248749
-249.111557 1007.495239 -1083.946655
-263.439270 1040.928101 -483.965973
-546.400024 1097.570068 -1099.613770
-272.687164 691.812195 -743.992065
-270.012756 898.496887 -1100.703735
-116.202095 700.960144 -802.883362
-287.291199 1044.741943 -310.656097
-606.406433 1006.360596 -1078.068604
-356.140533 725.015869 -712.323425
-261.289764 1033.520752 -407.880615
-117.873680 1025.021729 -1186.363525
-354.682709 1022.850342 -523.558655
-272.765808 771.346924 -1165.785156
-290.536499 984.003296 -1084.857300
-270.050262 882.790527 -711.981140
-170.541779 1058.626221 -554.118103
-529.457886 835.580811 -1084.367065
-100.604889 1044.650879 -343.435638
-144.043823 1064.101563 -543.241821
-307.993835 711.780212 -1211.986450
-68.079155 1052.553711 -393.499664
-119.551575 857.595703 -1246.582031
-289.161316 1003.274963 -686.737549
-223.932343 730.040222 -1232.729004
-184.735245 725.502563 -761.378967
-370.403351 1021.445496 -1057.706665
-225.570480 723.123840 -739.620605
-295.086090 688.053467 -731.657898
-471.666595 860.176392 -1150.736206
-498.414246 904.203003 -1108.479370
-224.304749 1168.920288 -1113.014893
-232.370560 881.501343 -706.154907
-192.528580 1036.440552 -464.506134
-362.628601 663.869263 -753.899414
-253.677368 806.493469 -1211.545288
-264.438385 1059.420532 -548.907776
-134.479584 754.735657 -758.412292
-238.193008 825.130737 -1201.673828
