ply
format ascii 1.0
element vertex 1347
property float x
property float y
property float z
end_header
218.562408 -1001.955444 -434.877411
138.404770 -1505.954468 -199.581161
190.082291 -1014.013489 -260.794067
547.874573 -945.179932 -451.627350
64.570648 -994.511047 -388.362915
238.778732 -993.818420 -594.817871
509.758881 -739.422363 -645.540466
434.142670 -928.995605 -626.760071
216.418564 -1517.754761 -250.506302
12.527971 -1430.395752 -470.259857
480.781097 -810.309937 -651.054932
233.911804 -1016.081421 -296.383698
523.442322 -877.418579 -538.620117
14.761766 -1448.633179 -241.866074
175.854233 -1512.664795 -248.690521
205.622070 -1526.275635 -206.973831
177.192352 -1005.186096 -431.074341
211.911026 -1462.082642 -744.288818
274.239899 -1022.542114 -515.979858
203.541779 -1503.076904 -375.447235
-82.672493 -1378.578125 -614.482544
310.584106 -1033.219849 -355.055969
534.648865 -732.533875 -661.524475
532.745361 -795.063843 -616.604065
285.425049 -1025.258423 -648.233887
140.679810 -1038.864990 -256.579865
29.540886 -1463.991821 -219.192688
249.013794 -1000.439331 -560.261475
334.158600 -1059.905640 -230.344528
88.066582 -963.448975 -399.783722
251.789215 -1524.865601 -296.904694
209.309052 -1498.465454 -340.753082
265.644287 -1470.145874 -354.469818
570.306396 -903.867798 -450.108734
532.791077 -908.582764 -489.740143
113.237015 -1016.911926 -251.917908
558.895752 -884.746643 -470.817596
216.449036 -1460.119507 -402.269043
24.278807 -1464.142822 -313.786072
-33.403111 -1419.125732 -261.851807
153.655075 -993.249390 -298.283722
105.490974 -1448.054321 -439.315887
-6.708669 -1429.349121 -250.067673
140.657898 -1500.393066 -256.534546
210.172058 -1510.278198 -301.576019
115.452499 -1032.375000 -283.583740
331.704895 -1526.331543 -299.136444
380.114990 -1079.381714 -446.580170
272.984406 -1053.494263 -267.792236
551.185669 -874.994873 -507.924713
353.193146 -1560.583862 -245.480743
189.276596 -1018.621948 -575.281128
619.211731 -818.000916 -458.543976
72.912743 -1486.267334 -292.102966
105.086983 -1468.471680 -542.564514
386.106232 -1057.849487 -306.176147
288.465881 -1471.218994 -274.132599
46.868355 -1461.691528 -209.489914
356.349304 -1554.154297 -195.889343
386.527252 -1065.888794 -569.897339
235.142273 -1457.108276 -470.773621
149.028381 -975.299927 -497.338318
102.286964 -1490.814331 -319.627869
219.368088 -1492.959595 -345.813324
451.985687 -988.441956 -586.497925
254.272781 -1011.957886 -331.104218
226.307281 -1019.943848 -623.908020
7.674335 -1421.062866 -336.347137
50.045006 -1445.837524 -442.093445
443.597900 -1492.769043 -611.654724
-130.090820 -1385.870361 -413.128540
541.679749 -785.951721 -601.688660
512.283203 -800.260986 -600.233276
375.858948 -1069.985474 -480.658020
-35.826248 -1433.486328 -417.658356
-39.923199 -1431.776611 -239.061264
547.630188 -715.088501 -620.744690
303.630310 -1544.383057 -231.868210
209.846237 -1015.209351 -247.436142
588.359009 -761.889221 -563.596741
9.281934 -1414.139893 -333.053131
-71.411407 -1406.337891 -663.045288
197.974655 -1040.803223 -204.321686
168.986710 -995.621338 -367.539398
274.734467 -1493.787842 -353.512665
26.304718 -1453.614014 -513.571289
59.660213 -1476.554565 -236.279922
322.808929 -1035.305176 -319.550354
-24.085926 -1423.448242 -473.226135
633.848694 -774.310852 -473.029938
-81.991325 -1413.448486 -500.606964
104.711937 -1461.823608 -532.654846
113.298592 -1483.804321 -298.465698
-141.166260 -1371.437378 -415.800842
177.237625 -986.520203 -541.168335
289.826263 -1028.018677 -493.341827
-16.234653 -1406.452881 -580.819885
318.987823 -1040.214355 -497.762909
525.656799 -770.273621 -599.257263
308.513733 -1057.085815 -241.618103
267.046112 -1042.908569 -244.304672
121.255836 -1456.837280 -554.138489
75.838928 -1470.748901 -245.541916
379.995270 -1080.371948 -421.970123
430.472076 -1079.442017 -427.530640
508.147003 -1607.903931 -541.361206
88.102859 -1482.293579 -243.938828
338.230255 -1066.359619 -240.588028
536.065002 -1603.572266 -566.050720
581.999939 -926.693909 -431.695801
251.994873 -1499.110229 -329.618652
-0.725172 -1425.795898 -291.415771
-18.335438 -1448.696045 -224.805038
528.487549 -801.086182 -573.823425
123.404030 -826.941589 -641.534180
301.526459 -1538.386841 -518.702393
277.791199 -1470.553101 -568.302979
147.788193 -1482.260254 -245.251755
207.028549 -1001.054260 -463.018768
516.970520 -931.915100 -520.090332
138.675568 -1502.814819 -244.735687
402.040497 -1070.746460 -394.399841
99.458054 -1480.972778 -219.154663
276.819031 -1536.409424 -469.385773
424.537872 -1019.625732 -279.421906
50.752968 -1326.212646 -384.226807
179.599152 -1006.170227 -534.570557
-30.634708 -1392.889526 -617.760010
94.060196 -1458.633179 -502.271454
251.537216 -1027.647827 -256.094818
565.892273 -727.685242 -586.977295
-37.280830 -1402.116333 -501.289764
234.115326 -1018.633240 -284.734009
113.236076 -1487.103882 -345.948242
414.100159 -1536.308228 -462.208588
255.068268 -1017.130005 -443.866943
603.060059 -811.987427 -483.168610
339.308411 -1548.424561 -236.384384
4.646605 -1387.620850 -662.988220
35.833530 -990.068604 -391.620514
140.484329 -1472.927734 -363.054688
559.502563 -816.521240 -537.145386
576.232788 -890.361572 -461.774048
111.597198 -984.713928 -483.557739
-65.806229 -1388.336060 -621.889709
356.908691 -1060.801758 -612.844177
236.643997 -1045.114624 -221.295975
529.991089 -747.683716 -623.256714
435.018677 -1081.516724 -406.767548
198.957657 -1472.239136 -415.755157
621.364685 -783.511536 -475.102539
358.226135 -1060.162720 -526.774841
489.540192 -960.391785 -553.261169
270.895630 -1038.316284 -414.600586
308.937439 -1540.980591 -438.619202
400.578094 -1068.784912 -395.749451
418.840332 -1093.168457 -506.636078
644.783508 -756.168640 -505.895935
467.226868 -994.779846 -575.109497
512.304138 -827.690674 -607.195801
354.881195 -1068.002808 -387.468567
-23.442419 -1425.450562 -414.937927
580.963928 -930.767029 -445.192902
-63.403130 -1368.000610 -640.920898
453.542786 -891.458496 -622.589722
602.479126 -857.614014 -449.041687
171.285080 -1001.272522 -272.141998
-77.139755 -1405.736450 -427.124176
319.115417 -1511.868774 -394.486359
111.705627 -1353.808838 -410.751190
45.273510 -1450.661499 -451.093048
191.232590 -1381.803345 -447.508667
455.346222 -921.269470 -608.395752
102.600540 -957.044250 -408.839783
204.703186 -1023.041321 -244.847412
269.644531 -1539.602905 -203.752945
568.662842 -917.903076 -452.401917
201.387711 -1527.951660 -197.942902
262.799744 -1465.987061 -381.212585
537.226501 -916.203003 -508.841339
511.944489 -790.206421 -626.271545
223.076172 -1027.447144 -240.254929
255.739258 -1030.346069 -253.561264
646.465637 -786.403625 -477.980377
-47.964279 -1433.403320 -300.728821
312.463226 -1030.239380 -414.325684
215.020279 -1008.074524 -361.593658
300.570221 -1051.170532 -591.521606
585.016968 -792.667786 -512.221497
102.524345 -1017.096802 -316.171936
263.321136 -1532.084229 -215.550720
127.967209 -1406.708496 -451.325806
335.921570 -1039.576660 -385.858734
504.610565 -860.503845 -590.089539
167.893539 -983.605347 -590.315491
253.851791 -1008.070251 -405.336761
89.078247 -977.856506 -376.271637
216.926239 -1435.639893 -418.412109
319.635742 -1040.828125 -304.986237
553.948669 -785.655945 -573.395630
107.282654 -1490.172607 -256.994629
155.651840 -1494.503540 -371.392334
-85.206917 -1409.177368 -407.516327
-92.394226 -1402.755981 -579.977966
419.058716 -971.941467 -605.548096
240.868439 -1019.714783 -404.634155
319.103455 -1037.009155 -325.047180
307.686981 -1525.023926 -520.818970
-7.004200 -1447.074829 -268.827728
123.463112 -1497.427124 -338.962860
524.086975 -839.085510 -567.277466
248.076477 -1499.158081 -321.182373
133.987671 -1489.418823 -335.737366
255.834656 -1036.102539 -252.958069
20.981457 -1440.942261 -484.928253
410.190765 -912.556274 -645.335388
-34.012669 -1413.786255 -294.392395
208.208969 -1024.931396 -250.109375
610.907654 -829.342346 -462.209381
186.016464 -987.505859 -502.171600
-88.990105 -1381.355103 -537.467651
510.601257 -955.978088 -493.765991
200.012878 -1063.246460 -190.143692
177.372253 -1494.197998 -198.655197
409.811523 -1081.464600 -351.216797
417.141876 -1078.734619 -511.617462
285.198334 -1065.107056 -236.456711
256.253815 -1525.411865 -269.472412
208.099045 -1018.118164 -533.763062
617.116455 -842.873962 -440.855438
183.411270 -1480.951660 -396.923035
228.010773 -1002.820984 -507.386047
471.112823 -788.738403 -673.042664
136.042206 -973.614685 -399.899475
-77.679955 -1430.690796 -250.685974
-85.732323 -1406.570068 -432.980560
328.647949 -1030.947144 -535.485535
91.407921 -1481.899780 -271.879608
254.477859 -1525.263184 -253.071991
175.916992 -1363.065430 -431.815857
450.665100 -957.831604 -574.956055
-63.301060 -1398.796387 -327.511383
578.972534 -921.413574 -410.008057
524.501587 -833.348694 -573.804382
587.830078 -920.333984 -426.714722
269.813538 -1499.278076 -260.348572
407.957062 -1054.052979 -283.059418
-10.707639 -1433.837646 -388.585968
549.861450 -865.641541 -519.270264
410.268097 -1563.613525 -477.309784
614.376892 -757.779297 -546.320435
-32.705189 -1432.682983 -222.842392
326.173431 -1041.133911 -260.706512
606.663330 -809.263489 -484.682648
209.463943 -996.890442 -331.571259
186.436874 -1505.718140 -313.237915
575.529846 -814.724792 -504.867188
117.227417 -1483.776855 -358.373016
493.347870 -943.587158 -549.150879
283.194824 -1521.190063 -225.785599
544.990356 -900.530579 -496.640747
86.808441 -957.762085 -538.731079
34.135448 -1425.912720 -451.627319
87.158173 -1485.604614 -344.447876
308.967224 -1536.599976 -243.638000
-101.933289 -1384.683228 -374.463165
230.095551 -1503.877563 -347.829987
56.417988 -987.519775 -378.257568
190.995682 -1017.685852 -356.419769
481.704254 -906.953003 -577.205139
110.642845 -1469.957764 -233.341949
62.272938 -1299.796875 -358.516968
435.845459 -1107.288574 -490.952148
161.349106 -1008.434326 -261.402740
570.311157 -884.398438 -477.250519
50.819984 -1472.583252 -266.902283
-44.269577 -1417.446655 -285.351746
-7.510214 -1358.416016 -581.173279
-0.570092 -1413.676514 -453.884064
475.985199 -936.095398 -548.292480
349.818054 -1567.171509 -494.417450
20.349785 -1434.635376 -421.158905
542.716003 -850.921448 -533.484558
401.019348 -856.837646 -710.021057
569.774292 -821.847961 -510.285126
602.344604 -897.622009 -424.628540
151.181870 -1451.574463 -621.638611
233.521439 -1016.714661 -316.185760
239.113083 -1040.309814 -229.385391
530.298462 -878.490356 -554.844604
74.433624 -993.104126 -352.246887
206.910416 -1498.680664 -420.030670
509.422729 -761.227966 -647.199036
352.944824 -1557.246582 -238.725967
400.609863 -1072.249268 -548.154175
177.433426 -1462.163696 -463.552002
584.663574 -758.191040 -552.236694
328.558167 -1041.643188 -558.762878
-2.117252 -1426.653931 -345.846069
130.744797 -1384.413696 -526.591492
331.227844 -1557.587891 -253.157257
67.263306 -1476.290771 -267.331177
-93.730476 -1408.142822 -237.155396
120.946602 -975.629028 -386.313812
527.013916 -949.644714 -499.620911
32.211288 -1439.610718 -246.001205
559.449280 -784.227173 -566.130859
237.996201 -1019.398438 -590.609253
45.496952 -1469.189087 -305.887756
193.305527 -1489.932861 -366.288116
637.291626 -802.937500 -468.332611
172.706207 -1473.540283 -408.307465
-49.442261 -1406.947632 -564.652405
-73.113815 -1393.698120 -593.738525
130.324768 -1464.421265 -687.560547
-63.235867 -1431.542480 -231.447830
-7.046863 -1427.944336 -282.739655
347.788910 -1544.907227 -335.331451
310.616943 -1527.120850 -319.700775
355.780548 -1066.837646 -308.400482
579.715515 -995.342407 -426.617798
-119.220581 -1380.691040 -419.120880
56.631596 -1447.867310 -491.442596
332.257690 -1543.974243 -282.160400
-54.260445 -1390.565430 -586.018982
37.711521 -1402.446655 -409.471039
462.787415 -786.979980 -688.682190
-62.563251 -1410.663452 -287.185974
494.110596 -856.393127 -596.554199
513.683777 -944.634094 -510.970490
572.333435 -837.714417 -512.293640
1.534166 -1356.091309 -611.124146
67.714577 -1471.216309 -483.312866
198.425095 -1006.838745 -347.640015
148.353622 -1470.981201 -663.376770
543.033081 -760.385437 -594.640747
201.421478 -1002.503052 -430.660370
214.888260 -996.763611 -372.199951
329.656006 -1564.786011 -247.244675
111.118423 -1430.471313 -616.389526
184.165619 -1512.255737 -310.599792
587.311218 -782.777954 -517.316956
108.953354 -1425.454956 -562.273987
318.956848 -1032.845215 -329.883484
287.444702 -1526.692505 -294.574890
444.645142 -974.937927 -572.232483
430.554230 -1087.278564 -297.971710
-103.909599 -1407.439453 -439.207458
453.682526 -802.144226 -678.620239
477.550507 -1094.319092 -610.402527
-6.738634 -1443.472168 -255.783676
188.888153 -995.800964 -501.999451
462.377594 -970.678650 -582.108643
252.294540 -1032.722412 -267.286041
481.657959 -753.570251 -667.551514
501.999725 -1012.427795 -509.171814
322.316132 -1036.580200 -268.261322
289.963867 -1527.036499 -253.551849
475.171082 -911.882263 -587.791016
322.815186 -1067.214600 -460.504822
267.146454 -1036.812500 -443.958374
605.233582 -805.977173 -480.175629
-3.597144 -1420.158447 -294.774750
326.495667 -1069.778076 -252.326935
-122.163177 -1392.846802 -337.973541
-37.972599 -1434.992065 -219.304077
406.434113 -1059.469971 -493.204224
589.049927 -718.688904 -594.269287
166.065857 -1280.968506 -387.764832
268.192993 -1041.358032 -475.779938
331.933258 -1528.981934 -357.233368
122.342445 -1463.271240 -690.370544
300.810150 -1052.723999 -289.968475
271.825195 -1044.406860 -277.155884
171.683014 -1511.171509 -199.042068
205.059830 -1016.846069 -311.931091
-30.704924 -1433.770386 -225.501938
173.962509 -1014.478455 -391.093628
139.606796 -1445.455566 -395.666687
226.883026 -1532.072998 -215.442001
569.487793 -866.402954 -481.128021
340.846832 -1536.511963 -471.206909
-12.454455 -1415.441528 -287.465149
90.924667 -1474.845825 -512.390137
196.840378 -1501.949463 -348.356812
18.637381 -1437.269775 -449.012756
-20.599010 -1406.132568 -373.414490
277.504944 -1491.657959 -320.076294
-62.816090 -1409.658325 -294.944946
155.135880 -983.708069 -520.360535
-16.215963 -1310.600952 -585.596558
50.883404 -1443.661621 -518.305359
-8.445746 -1444.382446 -464.664398
167.802719 -1043.293213 -228.814529
231.979050 -1011.176147 -518.814697
465.417877 -835.544800 -628.594299
162.507523 -1509.847534 -323.686035
561.061646 -984.913086 -432.208099
149.672058 -980.410889 -544.403320
399.045807 -920.068726 -667.962585
516.277161 -759.460449 -621.460876
473.042084 -1569.206177 -551.944031
308.496552 -1037.883545 -254.324600
-8.634727 -1416.590942 -344.416809
579.944031 -875.736267 -481.553284
188.545029 -1493.695313 -273.926239
227.522568 -1525.604004 -186.568985
436.803558 -915.103210 -221.831360
264.232758 -1512.091919 -325.992371
474.565704 -925.243103 -567.579773
56.626717 -1437.801636 -736.121399
593.721558 -871.514526 -449.124908
149.661728 -997.802368 -357.791473
344.899017 -1062.867188 -572.069153
135.315109 -975.754456 -534.824158
174.614822 -1017.570740 -332.456787
17.213959 -1434.691284 -297.628601
468.752838 -834.274170 -644.316162
616.581726 -733.518066 -538.524292
136.622772 -1419.654175 -576.431396
518.432373 -722.377075 -663.416687
564.904175 -774.014893 -576.862000
111.009453 -1432.482910 -446.317963
123.915581 -827.295654 -590.020142
535.279785 -984.137634 -429.710510
193.544037 -1517.530884 -243.200317
103.697403 -1485.041260 -394.670197
254.597107 -1019.748169 -401.525635
-29.951567 -1381.011230 -287.585266
525.059570 -925.734253 -488.164795
-55.232803 -1397.859375 -327.033447
547.948181 -927.933044 -471.065399
600.164246 -852.111267 -458.377472
53.508533 -996.402039 -369.179626
237.426224 -1022.977173 -266.176941
153.981628 -1479.212891 -375.253876
-11.601933 -1398.735718 -393.834534
533.928528 -1026.675293 -462.494873
-101.606941 -1361.052124 -622.101257
57.951920 -1457.745483 -337.532623
226.237396 -1023.851807 -306.372223
126.317375 -1502.589111 -293.197540
118.399010 -1380.261963 -557.135315
-85.105621 -1415.097412 -282.000946
529.387329 -804.181763 -601.633118
408.625153 -877.790771 -683.895203
564.454285 -810.652893 -538.113342
575.256836 -926.963867 -445.675171
519.143066 -1598.586792 -580.397278
94.432556 -949.982239 -546.723083
387.047607 -1070.610352 -503.078857
151.435043 -1494.061523 -352.735626
119.100655 -1470.011719 -311.360748
324.452057 -1054.101685 -316.409241
17.387403 -1424.341675 -574.442261
250.241318 -1489.427490 -359.760315
-120.998138 -1398.185059 -364.046722
165.033997 -1502.781860 -237.149628
532.855408 -914.643616 -503.052094
116.890167 -964.494385 -376.185730
133.994003 -1338.833984 -442.971893
-27.417778 -1421.229736 -447.777405
10.494757 -1386.456177 -626.384705
197.313889 -1395.885254 -429.946533
43.307167 -1451.090942 -461.390411
22.271517 -1448.652954 -447.136078
496.485077 -768.327271 -637.745789
511.191071 -1571.786865 -669.959900
-35.266228 -1425.395996 -266.859833
-37.039364 -1417.327759 -539.620789
119.872185 -1499.692627 -362.015076
470.387451 -757.726379 -688.569946
593.607666 -833.600586 -475.795593
-101.878357 -1391.861450 -605.327698
217.050125 -1515.500610 -405.894745
71.887970 -1402.862793 -578.277527
315.090302 -1500.602539 -353.470032
140.610306 -975.997192 -478.206787
55.048664 -1444.965942 -465.753357
262.472687 -1018.856018 -458.461609
81.024902 -964.027710 -540.869263
154.820969 -972.211548 -420.842987
609.183044 -848.747131 -450.330322
194.639099 -1426.520508 -428.178802
259.864044 -1024.060181 -629.532288
22.040476 -1424.893433 -351.333221
207.448532 -1024.565430 -310.584991
133.320282 -1002.918823 -365.585449
179.391037 -1502.636230 -729.752625
255.622208 -1517.173096 -311.185883
349.663635 -1017.854187 -272.561371
441.666168 -1100.653687 -342.815338
30.753887 -1452.325073 -285.586548
356.021820 -1068.402588 -578.760498
289.994904 -1041.331665 -494.173553
480.231293 -887.673950 -573.888550
532.725403 -924.209534 -504.129608
-116.190910 -1385.406860 -501.590271
406.471802 -1095.805664 -263.565277
399.756012 -1085.568604 -394.757080
233.527008 -1444.416992 -420.920959
382.168701 -1089.692261 -558.454590
312.865662 -1057.259277 -595.729858
148.858261 -996.644958 -415.204956
89.734840 -961.327881 -503.762695
298.968719 -1037.224854 -445.219635
454.712524 -765.031067 -697.856873
502.191376 -762.424072 -636.307495
456.400085 -813.559875 -678.098511
4.670098 -1447.185181 -277.349915
32.419071 -1456.604126 -250.304214
521.127380 -888.828186 -543.585510
395.520569 -1073.082520 -294.579346
240.735657 -1025.821045 -248.357559
266.134186 -1513.901978 -264.127594
190.126083 -997.203796 -602.089478
282.654938 -1471.254761 -365.452698
118.085823 -1437.151611 -546.518677
489.962311 -1593.822998 -543.554932
158.398010 -1004.119019 -321.725830
307.578461 -1056.392212 -325.069458
391.752655 -860.752441 -694.023865
262.181335 -1018.527710 -463.739990
25.478407 -968.996277 -481.097443
-79.321045 -1409.955078 -405.906464
441.301941 -955.519043 -574.458557
476.486298 -790.440491 -652.669434
266.838440 -1475.327881 -359.838928
124.147430 -974.877197 -410.592377
535.969299 -952.948792 -481.008209
65.931290 -1422.589478 -608.677063
410.192169 -1517.880493 -521.033752
251.492065 -1528.956665 -235.314835
188.181046 -1019.166565 -315.087982
178.491287 -1486.558716 -318.434052
31.877489 -987.602844 -401.309357
-63.776882 -1400.193481 -308.216309
155.548325 -1004.226074 -279.663483
235.504837 -1527.862061 -204.622803
285.843140 -1537.809937 -247.208435
173.185257 -1517.693359 -248.978394
498.568207 -963.815308 -523.744873
-38.166233 -1410.269043 -372.706757
211.183075 -1012.585510 -253.280960
-23.909657 -1364.281128 -633.871460
98.606659 -1490.723389 -189.664703
549.174500 -846.654297 -521.294617
258.045380 -1048.085693 -225.019272
456.711334 -922.098267 -605.729248
-115.312126 -1396.543091 -367.466309
436.667847 -861.331726 -653.562622
283.689484 -1473.637085 -282.627289
493.245972 -860.318787 -587.081604
458.301727 -888.369080 -209.140305
268.171387 -1027.317383 -517.690796
334.378754 -1558.354858 -271.291534
269.851288 -1507.446045 -326.888245
142.569138 -974.879333 -551.942688
117.147003 -991.423035 -514.457764
395.347260 -955.877808 -660.129944
17.126251 -979.540466 -446.064117
404.081024 -883.362793 -674.925232
-23.265711 -1378.072144 -286.216064
93.920128 -965.799927 -469.957520
-74.694267 -1380.424316 -666.332825
100.590302 -1480.916992 -235.979294
29.676075 -1434.781006 -706.873779
-122.755928 -1382.237061 -362.742249
503.834625 -950.838867 -542.386719
137.975143 -1493.009399 -376.293762
9.985140 -1410.177490 -392.308258
535.913696 -949.287720 -476.716187
-63.252979 -1370.406006 -579.266968
175.468842 -997.413452 -624.640320
104.417358 -1463.250366 -305.678375
112.046196 -1484.607300 -318.748016
-108.253593 -1412.843872 -309.305389
181.406830 -1495.740601 -236.276764
402.541168 -1540.179932 -507.432404
559.267578 -988.170410 -399.490387
596.413635 -823.469177 -473.866974
149.477676 -1484.521851 -202.688965
505.528534 -990.453491 -506.671875
567.866394 -957.437012 -428.936188
205.262695 -1032.248779 -275.890106
655.623840 -807.068298 -448.561920
3.574988 -1427.596069 -332.766083
490.281921 -775.033630 -633.031189
428.538055 -1558.102417 -486.129364
246.371063 -1056.418945 -219.940369
257.267944 -1534.322021 -217.926163
332.368164 -1041.841919 -258.122894
-3.107704 -1444.862305 -273.755249
475.322266 -772.429810 -664.903259
493.944336 -778.122131 -662.607788
183.752014 -1501.740356 -353.699280
-120.863457 -1396.749023 -389.898987
380.633789 -1069.313110 -538.723022
302.143280 -1049.937134 -347.423492
505.774658 -887.151001 -567.352905
517.875793 -827.409912 -594.020081
156.965256 -981.812500 -460.330078
502.709869 -838.542053 -604.445313
37.846092 -1431.655762 -538.767944
174.266449 -1504.958740 -419.256531
102.725830 -1393.521606 -538.142029
-30.565296 -1349.567383 -604.999878
322.534637 -1047.811157 -239.628586
566.947510 -998.228638 -374.939789
228.293915 -1020.843933 -496.598389
-51.903530 -1362.416138 -612.346619
354.517487 -1534.666504 -476.909851
112.633011 -1376.157593 -454.086151
110.976273 -971.359558 -419.851654
269.812378 -1481.498413 -311.034882
104.926697 -1311.483887 -403.887665
314.020782 -1055.072021 -334.367920
520.194702 -755.273010 -641.400330
520.517456 -922.612122 -516.285400
490.548279 -940.883850 -525.374634
168.275757 -1028.288330 -242.226639
-59.129467 -1414.614502 -308.720978
-39.689304 -1415.905029 -270.741119
412.130981 -955.501892 -630.145630
60.996231 -1402.918579 -570.946045
580.475281 -839.671570 -512.543213
-63.821007 -1416.799805 -339.292999
484.455627 -784.833618 -639.542175
606.438721 -841.842712 -446.148590
615.998901 -866.317078 -433.767212
96.219086 -1458.099731 -338.931610
113.979149 -1499.531372 -258.292999
505.418640 -801.978088 -627.561462
534.516907 -814.600952 -579.331848
-6.418235 -1460.517334 -222.780197
279.380310 -1039.773315 -244.018860
549.455505 -751.098999 -608.103210
4.095384 -1441.438843 -260.432617
536.426270 -1604.275513 -548.783386
586.569824 -791.205688 -508.799194
129.966156 -1487.392456 -348.115814
205.720535 -1522.612793 -202.175735
321.851044 -1508.004517 -464.912323
200.077957 -993.824829 -502.519440
364.265808 -1554.790405 -278.333710
296.982056 -1554.163330 -487.556366
161.359055 -1495.382202 -721.555237
155.525116 -1513.231201 -234.123642
250.348328 -1000.531555 -549.394226
160.294373 -1010.327637 -382.186035
272.735199 -1038.838867 -593.849609
282.804535 -1507.917603 -460.084503
266.433838 -1044.207886 -218.560974
475.341034 -948.387695 -538.739563
210.856476 -991.596680 -417.115662
140.183731 -1434.183350 -582.301636
70.316437 -1437.193604 -474.192657
487.224579 -744.359070 -699.270752
231.784073 -1026.881592 -300.434570
208.344421 -1052.131348 -196.063995
119.483063 -1487.268311 -315.163605
189.519730 -1478.884277 -404.436066
49.579884 -1401.198364 -590.438354
586.342896 -749.343445 -552.411560
413.320892 -895.394653 -653.946045
520.799988 -863.466980 -580.157471
341.608978 -1070.468384 -253.757294
249.450546 -1016.641846 -509.704834
320.316010 -1061.138672 -370.347229
148.599380 -1488.941284 -397.399231
541.938171 -773.314392 -587.124939
138.409866 -982.254395 -389.188782
23.478991 -1431.805908 -532.733826
381.999573 -1562.497070 -476.999420
293.937622 -1487.075073 -397.479065
129.436905 -993.392456 -323.068481
166.793961 -982.891846 -516.142578
314.067841 -1040.646973 -326.347137
129.046402 -1347.125610 -417.276978
116.193352 -993.747559 -321.689301
-59.836254 -1421.129272 -517.664063
296.832245 -1540.036377 -254.231949
465.707397 -950.465271 -563.427795
44.157368 -1008.981506 -382.291992
403.488068 -1067.800903 -539.591187
-4.243129 -1446.585327 -223.635132
6.525192 -1431.542358 -225.046494
625.122559 -744.047668 -533.697632
482.932098 -953.773132 -559.240051
275.565704 -1479.487915 -264.050781
602.278076 -903.900330 -425.407288
-41.139587 -1419.079712 -457.353027
392.975250 -1066.655029 -294.543488
-59.387024 -1419.036499 -315.899170
0.971089 -1432.804565 -519.285156
-32.288708 -1400.821533 -374.151062
315.265503 -1041.809448 -520.996582
-19.916779 -1427.551147 -476.730560
163.167389 -1489.544556 -291.683563
218.783386 -1012.012634 -385.007202
50.260658 -952.163879 -524.388306
205.836349 -1012.856384 -453.960236
108.640091 -1470.002197 -712.905029
3.314395 -1418.436523 -500.582306
286.538910 -1441.387817 -286.350647
78.589745 -1473.932739 -221.680130
162.868790 -1055.026001 -209.144882
293.891724 -1057.201904 -405.543427
360.791656 -1055.995117 -448.803467
-4.363663 -1435.538940 -458.533203
152.746719 -1506.380493 -364.808197
100.487640 -1461.936523 -286.931030
567.762451 -733.565735 -589.929749
171.947678 -1030.581665 -242.385513
339.224731 -1567.494263 -481.867371
97.534279 -1330.261230 -398.029968
-40.738949 -1406.873291 -584.120605
302.345886 -1029.537476 -614.067261
189.144333 -993.899475 -518.066528
464.758087 -974.347900 -570.264709
143.197250 -1040.317749 -240.945877
537.833557 -727.572205 -629.432190
122.007515 -1486.160522 -743.524414
306.110931 -1482.739746 -313.776917
72.107849 -970.272705 -415.668182
570.855103 -910.594482 -447.083344
286.007324 -1031.929810 -339.401794
273.071503 -1046.294434 -270.704193
452.337524 -994.692566 -575.632202
64.707428 -949.937866 -433.292694
321.822144 -1059.709473 -481.544800
33.637882 -1473.209229 -269.881378
-38.419090 -1419.954834 -499.214844
110.753960 -1434.460938 -428.352814
97.806015 -1470.690918 -371.852386
310.957886 -1486.414307 -483.051239
153.463882 -1413.884155 -554.117798
402.472290 -1060.796265 -299.109253
355.694031 -1056.044312 -349.064911
414.777069 -1074.235962 -475.640778
507.129547 -965.151733 -516.047241
101.004089 -1016.173340 -286.322418
244.192062 -1002.337402 -381.624634
397.063843 -937.324036 -646.219727
-116.779938 -1387.873047 -525.631531
559.739075 -1024.183960 -425.872498
79.009201 -958.797302 -495.520599
40.886967 -1440.603027 -535.401123
615.742981 -752.380859 -521.614807
30.155802 -1410.066040 -626.397034
142.223343 -992.038452 -448.141632
150.371094 -1427.228882 -552.206665
543.312622 -744.575317 -646.707397
346.504242 -1065.786499 -336.022278
-68.015602 -1409.326538 -329.124542
263.814545 -1031.704468 -327.523926
179.074783 -1479.237061 -646.007568
288.185242 -1024.276611 -613.512939
-73.610695 -1415.776733 -225.462448
287.532898 -1037.298218 -244.496704
499.627228 -759.221924 -649.286499
168.442856 -1348.063599 -466.146210
263.694397 -1019.978516 -272.140198
230.395859 -1011.202332 -541.139465
345.305634 -1046.844971 -394.138428
56.359146 -1462.570068 -343.484985
502.687317 -837.036865 -592.504761
-26.217916 -1436.205322 -262.779480
640.004211 -770.607605 -475.758331
455.597107 -1560.444092 -551.423035
220.424805 -1532.472778 -214.401276
398.415680 -973.946289 -660.906799
368.048798 -1063.111084 -261.905121
-111.539597 -1374.129272 -518.827026
595.515076 -795.829712 -499.041809
-85.951973 -1394.077637 -367.887665
287.992859 -1481.196899 -239.333115
149.922714 -1012.297180 -270.231506
-4.986401 -1421.916626 -326.729401
468.418030 -754.838989 -694.054749
469.543579 -912.335205 -595.080505
83.579308 -1483.505371 -337.946899
203.963181 -1025.115967 -368.140900
592.366211 -860.098938 -455.067993
296.748627 -1539.403076 -319.238617
2.139886 -1413.183594 -516.375793
125.916405 -999.148376 -293.320618
643.180359 -832.781921 -450.864807
-77.382828 -1414.053345 -492.813141
237.794434 -1059.099609 -223.385880
-19.194052 -1421.343750 -302.710388
90.903976 -948.245056 -462.761017
169.701141 -995.200317 -326.359039
41.445053 -1407.914307 -597.543884
381.953400 -913.408813 -683.412842
513.400146 -999.596130 -498.386292
2.554193 -1412.177002 -546.331177
513.810669 -985.234985 -504.364929
69.396584 -1450.851074 -552.071472
648.232788 -777.382629 -514.860107
-42.247234 -1419.558960 -474.469055
-97.627869 -1414.847534 -369.425690
489.683289 -923.509216 -561.920654
482.432373 -756.272827 -674.535522
515.340637 -871.010864 -556.471558
227.097748 -1009.101929 -388.719696
152.574524 -971.107117 -560.338928
300.463715 -1518.510864 -251.172577
24.165857 -1437.360229 -296.842255
2.046992 -1445.003418 -261.366211
484.208618 -1568.268799 -594.737671
484.830414 -995.803711 -535.253479
140.742096 -980.381531 -384.869690
336.567230 -1037.145508 -369.994019
337.204468 -1511.377319 -494.755402
445.460907 -1088.088623 -368.402924
448.479858 -895.782898 -199.608368
540.259338 -979.915588 -449.589783
105.308159 -968.553101 -414.366516
258.211243 -1019.218689 -285.312866
260.784943 -1484.012085 -341.835266
103.612473 -1494.062256 -279.789276
554.962952 -749.733093 -600.536255
104.843895 -985.511658 -396.079987
527.510376 -868.620544 -531.789734
27.102430 -1426.131470 -563.965515
545.206726 -724.200378 -676.044739
257.666107 -1032.716187 -581.457764
-20.336828 -1422.970337 -396.549988
282.307892 -1040.267578 -396.569153
291.859528 -1519.922241 -477.150970
234.526215 -1007.838196 -443.942780
311.849121 -1554.189941 -189.267715
502.755615 -949.277039 -539.024902
74.371712 -1444.913818 -741.549072
155.393707 -1421.786743 -682.707214
68.333549 -1477.199707 -303.566193
185.320389 -1518.372559 -279.931091
574.489380 -847.301147 -486.771851
255.181213 -1472.534668 -321.284180
121.658218 -987.009583 -395.264221
48.331409 -1446.231812 -215.893478
497.909576 -995.296143 -505.554871
500.013672 -1608.474243 -614.186462
487.606079 -825.465027 -625.180237
555.039063 -785.481567 -567.508606
104.995361 -988.633545 -350.889923
278.063263 -1484.768555 -253.329819
369.676178 -1057.281250 -580.976013
187.481812 -1456.589478 -418.208923
-44.063084 -1424.188965 -276.274658
8.510678 -1417.681885 -698.588135
-3.977751 -1432.687012 -435.853912
207.236694 -1462.842041 -438.173798
86.272018 -1457.832153 -495.320038
182.296524 -985.354492 -619.436829
271.338776 -1028.018311 -345.418762
141.465698 -1507.076782 -319.421692
186.936615 -1494.358276 -327.812225
517.230713 -790.296570 -619.334900
51.571613 -1443.063354 -375.145386
-91.102882 -1411.426392 -263.464569
272.947021 -1460.685059 -384.546448
145.639313 -978.758545 -437.090302
516.234375 -802.718201 -599.124817
432.685242 -1087.528076 -479.859558
151.676849 -1016.548096 -302.315369
399.062103 -1564.886108 -470.604828
37.041924 -1324.767700 -348.249298
544.022461 -826.512756 -555.832458
103.713470 -1446.093872 -453.986420
219.460617 -1503.672241 -390.700195
62.928200 -1400.348877 -409.133179
274.225983 -1542.688110 -408.992432
564.128784 -733.418091 -584.484924
145.620178 -1486.284790 -750.325745
166.303513 -1410.641602 -549.519409
554.085571 -963.844055 -451.219788
500.375397 -777.303040 -637.351563
592.793823 -894.367798 -433.851959
574.152405 -851.988403 -492.818787
36.768414 -955.858398 -488.905975
435.876648 -1070.143188 -516.582642
368.993195 -1055.205811 -579.391296
-77.819481 -1432.616089 -358.006592
584.979248 -871.384216 -455.520477
-97.219368 -1401.250122 -407.752533
38.755043 -1431.733643 -594.337891
151.972488 -1486.554810 -209.320038
156.191132 -990.645569 -366.845795
-50.933884 -1417.428833 -355.185455
116.147720 -1445.434326 -486.073242
361.308533 -1038.475464 -546.832764
257.802246 -1490.700684 -331.751007
174.452408 -1512.590576 -276.764648
572.666382 -788.107605 -523.712097
-120.536110 -1384.797119 -324.032776
-72.778595 -1406.560303 -348.157410
521.978333 -974.896729 -480.560669
471.261078 -870.543945 -623.357605
208.580078 -1396.255737 -582.115967
278.234100 -1512.922852 -353.916656
478.715057 -748.473206 -666.928711
-14.971647 -1415.480713 -561.844299
-52.484989 -1415.166626 -303.278381
38.564163 -1414.411011 -330.360565
527.564880 -763.590149 -616.011353
-93.331978 -1399.876831 -502.304626
115.309196 -1487.644043 -387.803192
122.230484 -1387.517700 -389.367035
509.371979 -896.659119 -549.870972
259.369263 -1522.142700 -212.576614
104.759262 -967.508911 -450.699707
432.585052 -1497.085205 -494.429138
-58.477829 -1410.985229 -385.492065
531.790588 -899.123474 -518.476074
-10.371680 -1423.757080 -300.528229
51.120434 -1463.070190 -252.472046
580.835571 -732.724060 -576.730469
268.302856 -1511.584229 -325.533783
99.971901 -1462.411133 -249.272369
158.551453 -986.216919 -386.153168
144.422531 -979.666748 -457.057007
241.461975 -1055.701538 -213.456436
323.336304 -1557.202515 -261.721710
297.507751 -1018.714355 -531.687805
529.018250 -940.437012 -492.533234
143.471603 -1431.921265 -491.865021
428.286896 -899.977539 -648.752747
209.339005 -1517.145752 -669.457642
183.302994 -997.691162 -425.718903
140.398773 -1492.354370 -283.590454
570.556763 -854.544434 -493.303101
-63.903770 -1414.526733 -374.829102
144.290375 -1022.835083 -236.274384
313.607574 -1038.769165 -399.044708
284.609161 -1054.090210 -486.620209
405.425323 -911.064392 -653.094849
155.435898 -986.176208 -456.104858
256.547791 -994.923340 -651.374512
118.804955 -1010.227417 -273.277466
174.052658 -1490.073730 -376.049774
289.019684 -1479.748779 -278.774200
35.037766 -1458.617554 -424.886566
563.982666 -998.521057 -365.223785
215.908569 -1511.528320 -675.251526
109.125793 -1435.773193 -401.471771
461.232452 -907.011597 -616.924927
455.058411 -1104.773560 -416.659485
-100.899696 -1399.109863 -445.167084
196.534821 -1373.536865 -440.683655
-39.200684 -1355.255371 -684.134338
266.987244 -1036.915527 -239.988235
139.963364 -1488.010254 -424.912109
193.521729 -1014.390503 -281.582916
59.213512 -1423.161499 -513.024231
116.636833 -1494.715210 -250.195267
274.941315 -1459.243408 -334.506744
570.607361 -981.620789 -397.476959
379.730103 -1064.525513 -594.378235
215.338043 -987.854187 -514.012756
299.934174 -1474.718262 -511.036316
20.237999 -1467.251221 -279.961670
308.184052 -1033.135132 -603.091675
176.982590 -1507.249268 -370.283630
246.734650 -1014.782715 -550.331238
64.870857 -1446.085938 -696.752075
609.041870 -874.122559 -431.542969
293.071106 -1043.500122 -339.270660
377.580322 -1543.596558 -506.179840
210.125320 -1510.413818 -283.565826
64.840263 -1480.603516 -248.110275
441.750183 -930.806030 -617.006226
306.511871 -1508.416748 -542.734741
-49.901318 -1412.831055 -468.100739
253.974686 -1025.257446 -296.021637
282.467499 -1514.860474 -297.877228
270.347168 -1049.647583 -333.779114
252.480148 -1013.331360 -472.070313
605.366760 -836.956360 -452.703644
459.225739 -1578.425415 -655.799927
96.742645 -1484.982056 -293.944336
592.269043 -821.811951 -496.221130
-6.028724 -1418.329712 -548.745667
483.344177 -777.428040 -648.611511
468.215118 -1601.927734 -531.597229
605.020447 -851.174744 -451.655365
-95.276703 -1391.145264 -361.194244
273.017578 -1025.852173 -517.124756
554.294373 -741.702881 -597.151978
210.601730 -1527.335693 -241.942734
354.843384 -1079.053955 -571.361816
174.287643 -972.299011 -518.259399
144.399353 -1507.594116 -269.535736
-40.919918 -1392.421143 -572.239197
601.351807 -782.820984 -506.727997
489.064667 -739.628174 -672.930664
563.330505 -710.648560 -642.418091
354.285797 -1061.192017 -256.361694
417.279327 -984.630554 -625.654358
395.014587 -1062.477173 -377.588379
573.109924 -763.022217 -557.594482
-139.067276 -1367.378174 -440.316956
453.099609 -886.342407 -605.942139
535.844666 -748.875122 -609.971863
604.876953 -868.701416 -438.201660
551.985657 -1002.181641 -399.252808
135.554855 -1019.880066 -243.505005
535.222290 -877.286987 -529.983643
606.433594 -867.917725 -451.788757
293.385773 -1034.607178 -573.352051
177.296448 -994.084290 -291.456879
225.105026 -988.453430 -594.492737
481.363251 -813.236206 -644.816345
230.631149 -1011.475037 -498.046692
603.402649 -754.503296 -585.928528
263.092651 -1046.106323 -374.813629
63.490765 -1458.831543 -327.288116
-82.796906 -1411.121948 -314.662140
181.825348 -1017.921936 -248.139023
541.135803 -798.525452 -565.187805
471.897125 -899.680359 -579.672791
501.451965 -748.616150 -655.115417
-76.316399 -1406.041870 -413.850586
276.732605 -1030.920288 -615.802856
69.479012 -1451.807373 -246.588226
607.034119 -767.653992 -536.376831
-91.416748 -1402.463989 -418.633911
21.241167 -953.258362 -486.289429
246.185562 -1523.106323 -233.876724
596.322021 -805.602112 -494.812531
60.762825 -978.077393 -456.214508
484.755341 -1571.729248 -570.265625
187.933868 -1003.944214 -321.815155
36.620850 -954.867615 -504.681641
172.293060 -1002.415344 -315.131073
-82.688721 -1422.259399 -245.564453
350.517883 -1532.636475 -531.201416
387.022522 -1056.005249 -466.128967
158.920654 -1506.579590 -252.269577
291.171356 -1047.972534 -611.229004
296.681824 -1041.474365 -289.603394
-85.014580 -1398.792236 -227.163651
186.415314 -994.840942 -510.108429
-82.718307 -1376.540405 -556.551819
280.445129 -1543.532227 -189.508224
320.073486 -1045.553833 -349.863953
385.959351 -1075.578125 -553.792175
194.786987 -1488.049683 -363.411407
-68.728912 -1388.127563 -604.557800
193.774536 -1499.791260 -213.427185
-128.376526 -1377.769409 -412.123962
500.382935 -917.844421 -550.893127
603.477356 -748.802551 -526.139587
233.849548 -1060.325684 -191.013153
348.028748 -1053.225464 -385.342407
525.271545 -939.016846 -504.991699
-5.175484 -1430.452759 -444.730133
90.636711 -987.917725 -327.694519
499.056488 -824.201599 -606.071350
446.232758 -774.818054 -679.385803
180.069031 -994.009216 -371.476715
-54.464188 -1425.718506 -273.447418
452.966980 -904.959229 -601.347900
91.260231 -1303.239136 -398.296661
468.580536 -1583.536255 -567.231323
518.391479 -977.975403 -464.131744
365.576294 -1062.934814 -523.061340
399.202301 -1550.133911 -465.639587
172.605438 -1515.736694 -258.108002
190.586685 -1507.983521 -660.285522
138.925903 -1503.302612 -355.141357
563.088074 -967.277039 -418.892639
152.830048 -983.791748 -411.112854
616.482788 -851.484863 -418.779755
582.783020 -873.758667 -465.096497
483.325592 -884.392151 -570.394470
91.010559 -1460.009888 -324.315155
299.221252 -1036.522217 -566.659485
449.214569 -819.501343 -658.095032
104.071144 -987.678345 -311.780609
40.140060 -1412.527588 -324.291290
352.354004 -1566.668945 -457.897034
-58.195313 -1425.287109 -275.258087
141.515396 -977.848633 -520.546631
207.546005 -1046.165649 -204.686081
146.772827 -1477.820435 -286.650879
617.934875 -754.935425 -524.050659
-106.259026 -1386.513916 -375.112000
-12.528187 -1437.187988 -248.510269
596.091980 -881.852966 -451.077240
517.110596 -924.558044 -521.986084
34.818943 -1456.681763 -202.230576
491.254395 -855.080200 -624.830750
-47.945663 -1436.441406 -321.293823
233.085419 -1031.178467 -360.200470
146.353912 -1497.513794 -367.049622
186.428055 -1016.896301 -285.108276
-107.373482 -1399.096436 -375.469604
230.468185 -1503.015015 -330.081970
109.141205 -1493.304077 -293.953186
181.300873 -997.696411 -550.335999
86.987625 -981.325745 -453.781677
355.147644 -1076.738892 -245.713013
-8.681892 -1435.216431 -268.314972
507.303711 -980.586914 -476.309845
101.090515 -1458.114990 -555.525696
614.164185 -764.861328 -500.005920
474.339966 -864.497131 -615.991882
-19.977198 -1390.868896 -620.464478
320.882813 -1548.903687 -214.692612
284.950684 -1467.526855 -323.596436
551.000854 -979.515076 -448.933502
33.015060 -971.175903 -444.676178
489.557037 -786.201965 -653.104248
114.055817 -1454.786377 -628.541809
551.782349 -774.421509 -568.265930
103.700111 -1005.585327 -264.782013
19.905962 -1425.283691 -715.806580
243.958496 -1506.119141 -294.227814
182.089172 -1500.561035 -393.354828
566.500122 -876.898132 -486.867737
191.057388 -1488.328247 -334.548462
495.611450 -976.707031 -539.622559
544.291016 -769.177917 -576.897949
18.084476 -1457.118896 -273.341553
301.566528 -1035.720215 -501.131317
263.226379 -1007.079163 -472.056854
376.446716 -1077.283203 -459.202454
508.816193 -900.222473 -527.824097
344.094666 -1052.719604 -353.916870
224.051071 -1532.183228 -206.375031
544.652710 -765.702942 -594.745056
135.897980 -812.122192 -636.737427
291.331787 -1038.453735 -258.397797
64.406502 -983.167480 -407.666046
378.364197 -1568.220215 -490.651581
494.067505 -832.022034 -621.030884
441.118347 -906.214905 -229.317245
261.034393 -1023.866272 -397.972931
468.866150 -979.377136 -578.309937
116.224991 -1459.474243 -555.733887
258.795868 -1022.351013 -646.358826
413.492188 -1075.990112 -561.986694
-67.518661 -1380.643555 -570.531494
348.646179 -1076.195557 -447.245026
508.943451 -821.630066 -596.105713
336.630371 -1536.424316 -450.444092
154.445877 -1475.209473 -384.199066
186.338165 -1017.013794 -335.708527
-99.728981 -1394.217651 -521.428833
-36.024448 -1378.293213 -631.842468
-8.041172 -1446.122314 -440.937561
299.269470 -1040.450439 -525.819946
469.244568 -931.322571 -580.611023
602.281799 -808.137756 -494.520782
131.221680 -1453.599609 -524.906616
251.596588 -1042.345093 -628.155396
76.171852 -1484.654907 -197.374313
115.486740 -1500.283081 -213.358505
407.403198 -1537.213745 -530.999573
111.917206 -974.896362 -431.208221
608.048828 -831.189209 -467.783691
-130.551376 -1378.228149 -315.374969
57.613956 -954.967346 -435.340668
331.182404 -1538.654907 -270.236816
292.279144 -1059.179932 -603.069336
424.824860 -888.392212 -646.189575
-112.939888 -1382.160645 -403.193085
207.725296 -1461.985718 -426.733307
570.442322 -932.032288 -432.588226
158.080673 -982.315918 -504.673035
-87.798424 -1403.412109 -457.612152
470.212250 -1561.132935 -609.039734
264.382935 -1491.946533 -347.205017
85.982864 -1471.955200 -344.413910
39.442719 -953.979614 -502.524597
-112.606293 -1387.907715 -480.029785
570.360291 -1016.555542 -447.678162
285.696228 -1040.938721 -299.333862
558.108765 -879.846619 -500.361267
297.417786 -1526.655151 -533.845398
-42.758537 -1399.472656 -278.074005
298.700714 -1539.766724 -280.476776
255.788849 -1023.909729 -323.713776
183.696487 -987.940308 -583.580078
148.391220 -995.896973 -288.711151
189.027161 -1509.768433 -251.352493
24.952942 -1416.672241 -547.007507
412.185577 -1497.939087 -551.454590
-87.326752 -1407.849243 -421.543732
-10.927947 -1424.684937 -383.606415
-106.084984 -1402.261353 -284.289398
391.328888 -910.683044 -695.403564
173.857895 -1013.704163 -255.401535
98.932892 -1384.941040 -578.855164
461.246613 -841.474915 -625.622192
559.364319 -781.466675 -581.084167
160.151321 -1015.209290 -316.641724
492.525299 -927.901794 -563.590576
565.468201 -830.338745 -515.749146
97.630890 -978.639160 -356.815247
295.775543 -1049.690308 -227.193283
261.800507 -1496.951294 -487.671143
224.370209 -1045.146484 -243.129898
-47.625492 -1402.074585 -484.981171
423.366516 -881.093323 -677.764282
338.396973 -1045.435547 -541.241333
107.703354 -1442.622559 -444.833740
350.037384 -1053.498169 -456.683258
449.905914 -884.218872 -627.018188
619.312988 -739.227234 -529.808533
2.729724 -1446.935791 -497.583832
646.524536 -782.069580 -487.722870
150.178024 -991.120422 -350.711792
430.957611 -1560.762817 -501.760773
529.245544 -757.125427 -617.424194
-42.462784 -1429.645630 -452.617157
130.857285 -1011.270874 -284.955200
458.505249 -925.689819 -594.656616
349.751160 -1056.033569 -537.315186
374.714020 -939.111023 -678.622681
313.244385 -1052.774292 -248.890167
122.699753 -998.538635 -396.775970
240.672867 -1017.249573 -393.708160
523.520752 -976.035889 -476.157074
140.818588 -979.813538 -500.161560
209.209229 -1003.997253 -357.187775
163.180801 -983.750732 -436.492065
149.921188 -1482.485229 -262.468231
391.122742 -1082.219604 -457.039581
138.627640 -986.983704 -346.903381
465.243042 -812.358826 -662.158081
233.084274 -1523.700073 -304.421539
599.003174 -882.742432 -440.960663
49.376381 -1461.806885 -226.044754
-72.701378 -1404.932495 -511.691315
73.801697 -1000.283508 -367.474030
323.036499 -1524.644165 -441.603912
248.034805 -1025.328491 -267.369751
381.124207 -917.432068 -695.161926
278.590790 -1024.658691 -288.764679
109.876419 -988.770996 -307.217072
482.326630 -829.187256 -618.233887
90.867592 -1465.669556 -397.171509
208.129776 -1059.581177 -201.515823
139.615295 -974.122437 -547.584900
467.124908 -882.576050 -619.133179
229.341583 -1029.798340 -237.560379
578.905762 -784.552856 -534.820251
487.957855 -775.282104 -644.316650
567.668762 -821.533813 -521.638855
164.158432 -1029.234619 -219.430771
134.168991 -999.238586 -469.108459
-15.550768 -1439.350464 -240.040436
-96.938148 -1408.812866 -280.094879
228.117249 -1492.541138 -406.710754
-5.542437 -1407.712524 -451.216553
137.650894 -1033.184326 -235.855728
87.892990 -985.045410 -474.126221
258.606842 -1445.706787 -379.063446
114.738632 -965.098694 -558.151672
122.270416 -971.372437 -560.509521
186.937012 -1507.574585 -245.794693
247.835251 -1033.614868 -231.049194
542.809143 -894.538513 -499.878998
492.708282 -822.959900 -627.572632
-64.343399 -1409.014893 -355.892365
255.056519 -1019.168091 -558.140198
1.463120 -1419.726318 -702.747803
191.474167 -1525.172119 -217.805344
233.758942 -1025.493774 -544.811279
289.875214 -1012.131104 -596.656250
77.145027 -1483.009644 -197.999542
-89.811218 -1415.808716 -343.588928
550.797302 -827.334900 -552.281677
269.590607 -1048.578491 -374.575043
518.262268 -1600.157104 -536.337097
147.537369 -983.652588 -479.161072
377.825623 -1563.930786 -466.123047
243.139236 -1025.930664 -259.321381
507.429504 -912.808044 -539.179810
-84.038933 -1413.029541 -467.972748
460.138092 -762.160583 -701.259644
425.784546 -790.491638 -706.716614
529.150452 -946.254822 -482.058960
342.476318 -1554.378906 -275.033661
-90.116302 -1404.287720 -307.967773
-41.191013 -1372.415405 -655.602051
502.268250 -928.928772 -553.573425
518.813843 -1008.793457 -471.424591
113.260521 -1006.375916 -284.489868
334.243378 -1544.897705 -445.195740
420.344513 -820.735657 -707.294128
41.855007 -1360.298096 -562.819153
314.992859 -1547.761108 -283.599121
93.104561 -970.356628 -451.551270
-118.028442 -1365.142212 -602.949768
507.173279 -967.811829 -506.811768
236.383377 -1016.236755 -330.157104
471.726440 -988.106567 -570.217590
309.665009 -1055.519165 -620.084656
308.034332 -1052.246582 -246.894394
92.765999 -952.442078 -431.729309
201.191620 -1002.988831 -415.235291
130.860901 -1460.076538 -742.315369
426.164063 -833.581055 -681.319519
245.343872 -1033.969360 -441.103333
224.240631 -1536.832520 -197.853378
48.742458 -962.361938 -474.449554
-115.196617 -1414.718506 -345.376526
481.286774 -1021.110291 -542.399170
247.385056 -1014.342102 -294.512238
630.455322 -812.300049 -455.516296
72.343742 -1457.321045 -477.606873
553.845581 -994.389404 -438.780701
104.010307 -959.537048 -408.847321
506.567627 -773.414368 -632.632568
315.774323 -1495.001953 -271.869293
16.314650 -1386.555054 -608.879822
482.906372 -847.365112 -597.127747
525.156006 -919.249329 -507.755096
313.094910 -1051.301025 -253.367996
424.342712 -918.551147 -632.434265
27.514769 -1419.036621 -578.048584
-82.559631 -1397.696533 -532.338562
486.808533 -875.823669 -583.270203
365.359680 -1059.951050 -369.302368
351.546021 -1525.859253 -247.319748
81.207214 -984.551514 -331.313019
556.519897 -900.011292 -477.191925
617.242310 -790.549072 -506.653442
321.326233 -1551.527954 -295.003143
242.306061 -1527.472412 -306.511932
-116.845833 -1384.708740 -538.712952
131.361313 -1015.967468 -300.887451
414.812408 -911.287354 -654.592834
185.747070 -1012.324219 -460.713348
18.093962 -1434.721191 -249.107330
135.734894 -1454.938599 -527.611084
57.781895 -1476.033691 -262.256897
-56.410526 -1417.654663 -419.386169
273.320099 -1047.136597 -277.971710
615.544617 -789.352783 -497.129395
335.401215 -1529.385376 -555.631836
488.369812 -742.442017 -662.452576
248.130707 -1454.802979 -394.748230
