ply
format ascii 1.0
element vertex 1350
property float x
property float y
property float z
end_header
-486.482391 -555.400879 1614.402832
100.701363 -431.521698 1009.896362
-748.014648 -531.687988 1195.787720
-481.970215 -381.769806 855.253418
144.412781 -467.771393 978.694031
-432.004761 -433.395325 859.066711
-837.537842 -332.815887 1133.220459
-803.324219 -627.879639 1103.835449
-575.260742 -785.988586 1364.599243
-844.816406 -379.013245 1095.646851
-342.521240 -407.277405 996.974670
-420.950989 -404.281769 891.085388
-765.548035 -592.067688 1176.054810
-757.397705 -498.205017 1147.941040
90.293938 -489.662292 991.015076
-328.006897 -573.557434 917.283813
-734.951843 -769.955017 1111.826660
-378.833832 -408.441742 936.756531
-390.546906 -304.304657 959.956909
-692.198181 -237.069733 1414.723511
-827.107910 -568.643250 1066.132202
114.494095 -395.178314 1021.351929
-86.483620 -436.185120 1120.362793
-391.313080 -360.412292 940.311646
-254.420868 -513.273682 1117.529541
-357.731049 -511.432800 941.128723
-290.353333 -319.063354 1109.134766
-31.161591 -481.656677 1071.705322
-85.703430 -514.256958 1082.965210
44.673687 -463.737213 1029.370239
-821.533325 -560.765869 1108.040771
-773.125305 -388.736755 1261.810425
-548.941040 -463.216125 1515.032593
-824.171631 -407.332733 1176.227905
-682.210632 -484.338135 1327.128662
110.887367 -509.071167 976.942139
-354.838593 -554.280090 887.136780
-399.756744 -366.956207 924.410461
-850.975525 -456.106903 1105.258911
-368.559875 -425.480255 942.972412
112.967331 -332.861664 1049.364014
-41.618584 -335.593079 1128.742676
-28.042513 -487.107483 1067.602051
-793.960938 -409.447662 1142.294678
-60.314915 -485.934082 1077.556519
-712.090332 -449.895447 1250.334595
6.856943 -382.923065 1076.935791
-425.741302 -254.969604 954.004639
-698.619202 -722.398865 1132.416138
-814.980652 -452.607910 1102.814331
-849.749390 -464.531647 1073.920166
-704.790955 -723.333984 1097.150269
-388.348053 -292.813843 1006.184387
-732.997009 -468.586060 1127.179810
-647.773621 -290.768341 1451.820435
-771.868591 -453.215942 1091.988770
-740.525269 -270.682220 1317.137329
26.694370 -449.664063 1041.496216
142.083908 -405.454803 1034.919067
76.572609 -390.964050 1041.365479
-572.964417 -469.743347 1480.054443
-854.404114 -378.748199 1123.738281
-861.091309 -402.792542 1084.410278
-852.029419 -375.471069 1089.553955
-284.387268 -558.450867 1026.451172
-821.470459 -581.939270 1036.028809
-354.163666 -253.100281 1033.270874
-412.223633 -536.619324 827.041016
-50.460812 -258.066589 1144.980469
-842.694946 -452.828247 1081.228149
-56.091713 -413.374176 1101.373413
-480.365112 -437.485229 834.190491
-856.390503 -429.791443 1055.331543
-365.028748 -390.773773 956.884277
88.322960 -303.235138 1077.418335
-649.882813 -794.788391 1224.905029
-787.069519 -638.652466 1122.366943
-321.082153 -549.228271 924.498535
-877.643127 -392.637634 1066.667480
-636.835571 -787.878357 1287.879272
130.043320 -381.461639 1019.591370
-721.166443 -400.560883 1311.843628
-665.891602 -787.542908 1222.386108
-377.035553 -413.718903 904.534119
-758.711304 -590.613831 1162.700195
-850.744873 -519.713074 1050.917480
-39.664608 -498.995239 1052.590820
-370.609161 -270.915619 1028.625610
-819.464050 -511.120667 1101.932861
-610.225952 -487.656647 1453.557739
-746.104065 -448.602234 1226.439697
-755.263611 -375.859528 1288.634766
-799.838684 -414.802124 1175.929688
-737.881042 -293.345551 1328.992920
-89.050560 -394.828735 1132.861938
-405.554016 -371.829651 914.162354
-795.596191 -641.333801 1070.594849
-818.533447 -519.404541 1099.316406
-589.881958 -465.747375 1491.346924
-806.098877 -452.166351 1161.072998
-794.364807 -337.393372 1250.841553
-714.353333 -365.929413 1344.076660
-12.588105 -354.221252 1100.416748
-390.979218 -406.635925 892.411072
-381.335846 -374.120056 943.038086
-625.001465 -370.947449 1333.185181
-804.655029 -404.115845 1156.044434
-822.696777 -302.466064 1195.465942
-397.967590 -235.832977 999.379150
-650.293457 -758.779541 1257.258911
-853.536682 -515.074341 1079.446045
23.320803 -545.520142 998.789490
-846.342468 -328.742615 1179.128296
89.558060 -307.602661 1058.765991
119.942017 -327.324554 1057.609131
98.364838 -416.128113 1024.848389
-480.847839 -600.352722 1568.821533
-432.663879 -434.213654 859.898315
-669.329163 -272.109161 1337.608154
43.924187 -453.916534 1027.210815
-436.880463 -386.832886 869.753662
-349.713440 -313.926544 1002.555542
-788.987793 -310.222900 1223.032227
60.220852 -269.345520 1094.713989
-125.851631 -344.511108 1157.522461
-228.901581 -560.634399 1111.126465
-617.728271 -793.521851 1309.745117
-801.021790 -301.448486 1231.922363
106.499138 -302.162750 1059.586060
41.545856 -380.995941 1068.864380
-374.967621 -492.864380 925.451965
-298.513702 -543.583008 994.182007
9.666058 -541.379700 1005.781128
-118.309990 -520.867371 1106.487915
-698.515625 -308.350067 1361.408813
-333.080566 -354.218842 1045.719604
-356.104706 -572.865845 890.813965
-733.230713 -388.576904 1301.193848
27.972294 -345.245667 1078.516113
-253.578552 -590.455933 1015.803162
-315.433319 -391.908386 1012.181763
-438.915741 -236.418320 951.069824
-46.588432 -452.920471 1081.974609
-621.827820 -409.898956 1409.269897
-738.753723 -449.785706 1241.850342
-473.705750 -521.688538 1595.846680
74.457886 -376.073181 1040.557129
-696.876526 -279.390656 1381.266602
-718.002808 -304.191803 1326.101074
23.854227 -487.675842 1021.189636
-869.252319 -421.754669 1039.505249
-703.985962 -710.218811 1151.592163
83.283211 -294.532684 1070.307373
-802.128418 -294.008911 1260.411621
-337.663147 -510.320251 982.990662
-415.417999 -336.298706 916.416443
-722.287842 -612.375000 1200.022949
-862.133789 -425.644104 1072.542847
33.525322 -313.187164 1082.523193
-222.559433 -536.807739 1125.167480
-471.538391 -462.989868 812.456787
-26.473965 -387.743774 1096.988892
-7.014207 -500.640228 1036.112427
22.324158 -570.751587 996.516479
-306.341675 -367.037598 1095.651733
-821.844727 -387.330200 1181.778076
-826.960205 -299.162842 1196.071289
-123.420120 -348.338898 1154.694580
-245.557434 -459.185760 1148.350708
-383.465118 -460.577454 899.249329
-366.981598 -517.074524 908.468506
-383.190094 -489.457886 884.478455
-734.335876 -680.203857 1138.909058
-639.128296 -460.324402 1130.612427
59.092209 -474.121429 1017.152222
-10.169610 -510.115753 1029.964844
7.240098 -506.441345 1051.598389
-273.683197 -384.485474 1134.043091
-790.141235 -284.140594 1259.037109
-356.433624 -467.569214 933.355835
-541.388184 -501.978424 1424.939575
-744.942017 -452.844025 1251.951782
67.742325 -292.687317 1082.281128
-406.199402 -463.412231 888.130920
-748.351196 -408.527374 1283.728760
121.772324 -341.691833 1046.335571
-717.149170 -256.943512 1354.900635
-707.380737 -358.814423 1356.965820
-256.966461 -384.627899 1160.920288
-849.166687 -339.764191 1137.628174
-490.925568 -338.714325 875.694031
-38.051689 -285.282013 1147.296387
104.101227 -416.955139 1015.551880
-643.739075 -795.027893 1242.257446
-698.831909 -518.839417 1191.692749
-271.974091 -388.375305 1152.561401
-354.899200 -323.200317 999.712646
-790.312134 -405.321075 1108.197632
-385.308289 -370.991577 947.584839
-690.786255 -412.265137 1337.058350
-698.258911 -266.000519 1374.000366
-776.777466 -334.540833 1281.091064
-30.636778 -463.855103 1078.976074
-780.630493 -260.792847 1307.983643
-246.690765 -446.164886 1136.815430
-272.706879 -519.122559 1064.026123
-832.825439 -558.189697 1063.020142
-659.794800 -633.111267 1156.268433
-678.340210 -708.097290 1115.731689
22.505363 -386.230988 1057.674927
-248.375183 -511.826019 1098.846558
-120.419914 -513.811401 1117.517700
-377.755127 -210.651825 1049.269653
-865.862610 -390.249634 1102.808472
-354.461273 -297.537689 1018.447632
-780.420593 -318.554077 1275.557129
-24.927284 -530.565918 1032.017334
-634.182678 -396.583008 1299.666138
-267.036530 -593.403687 1042.566040
-55.548458 -484.040588 1066.169434
-123.809975 -340.819397 1153.149780
-666.121338 -717.750000 1094.146484
-645.414856 -745.947693 1141.145630
-802.314148 -285.398193 1238.990601
61.083221 -411.225464 1044.175415
-822.377136 -390.501953 1162.080444
-669.546814 -262.393555 1388.402832
-101.432251 -549.989746 1062.656616
-447.624634 -391.452179 862.298157
-621.697021 -482.868103 1296.998535
-299.526733 -398.170959 1083.077759
-680.560364 -497.781769 1186.815063
-75.670059 -382.645782 1123.017456
-289.144135 -554.338135 1066.060791
-231.520752 -560.932800 1097.364868
-750.757141 -565.618347 1151.292114
-467.177673 -263.428284 928.476074
-119.651260 -578.830688 1079.338501
-5.578074 -575.051880 998.767212
-24.767849 -406.217682 1091.534790
-679.872070 -331.882782 1379.347046
-511.011871 -496.336639 1506.852417
-863.530518 -419.875153 1065.767456
-283.782166 -116.322823 989.455688
-31.601204 -469.443268 1074.954834
-823.245117 -383.970642 1193.283936
-291.522614 -518.595764 1036.347290
-805.476868 -590.084290 1110.994751
-107.010590 -396.749664 1149.906982
-325.895996 -462.279755 985.268494
-812.843750 -346.157135 1171.165405
68.455589 -279.826599 1088.953735
-682.616638 -300.425110 1400.789185
-752.186401 -391.534058 1269.245483
-759.487488 -275.346954 1318.672485
-294.599976 -222.166382 1103.266357
-28.021250 -288.654907 1132.289429
-756.688354 -413.263672 1227.319824
-33.755772 -387.809143 1100.786255
-649.901672 -386.798676 1327.703125
-346.450012 -173.543015 1115.505981
-801.393372 -630.744873 1075.540894
-596.762817 -431.844269 1347.275757
-707.615906 -674.515503 1191.753784
-375.894806 -485.150604 873.637024
-445.077911 -447.869720 863.694702
-693.795532 -728.120728 1129.846436
-792.505188 -274.449188 1228.970947
-249.849838 -430.768860 1131.035522
-259.280579 -366.135010 1134.251465
-396.731384 -300.015411 989.606445
-282.077209 -542.589050 1000.002991
-413.600037 -404.767120 884.218384
-376.342194 -516.011719 913.718262
-714.735413 -430.421600 1306.808594
-658.090210 -403.192230 1334.624634
-726.182617 -334.637054 1306.015991
77.558136 -392.127655 1034.601196
-37.419468 -578.282654 1028.887573
-102.091904 -601.258911 1057.917236
-370.453033 -527.144531 893.966980
-796.047546 -506.042633 1162.429199
-812.278687 -417.854828 1120.355103
-22.057032 -386.553467 1099.901123
-757.120972 -274.642242 1290.632202
-731.052246 -457.843445 1245.742676
-395.670837 -356.280853 960.157593
-762.299622 -290.744812 1294.867432
-384.651245 -298.223572 974.638916
-499.362762 -502.043488 1602.965454
-36.639400 -280.906158 1151.746826
113.065552 -331.344757 1047.196655
-71.342033 -294.680756 1147.507690
-70.546295 -296.600677 1149.106689
-771.283203 -500.797760 1170.401123
-158.782562 -113.249367 1020.423340
56.142723 -475.493378 1030.404907
-675.778076 -640.456970 1196.875977
73.895248 -455.496094 1007.025024
-770.870117 -703.420959 1060.596924
-45.810150 -475.627960 1075.553711
-823.034729 -359.766357 1176.795166
-119.191917 -371.373444 1157.084229
-347.501465 -456.278442 991.940063
-769.373962 -564.028015 1134.775757
-465.126648 -517.225952 1636.898315
-667.590759 -685.988586 1206.512085
-623.703064 -738.420227 1312.610596
-704.005676 -701.782166 1149.188599
-415.227478 -466.511932 885.088501
-524.533142 -499.534790 1507.379883
-415.009766 -235.738052 978.590515
-335.911469 -370.230316 1011.034485
-650.792603 -448.472595 1353.134521
-257.080170 -557.797058 1030.989746
-723.278442 -595.598633 1221.479736
-459.908508 -254.610687 935.684143
-125.692581 -305.799713 1176.538452
-699.790527 -251.020126 1392.144409
-737.923401 -663.750854 1151.834351
-216.850220 -522.677917 1111.168335
-352.533081 -291.805511 1023.515625
32.901798 -321.087677 1078.689453
-77.544998 -581.526306 1039.585815
-101.893738 -592.756531 861.478882
-799.842773 -395.387604 1224.938599
-649.044250 -400.686401 1326.413208
47.380554 -399.477753 1041.803345
-838.773865 -495.807678 1058.510498
-366.262115 -571.514893 881.572510
-714.903442 -594.904236 1189.360962
-380.842865 -341.183990 965.593506
-346.725525 -529.869751 953.136230
-864.107361 -497.859344 1042.790039
-860.127075 -350.166412 1089.161987
-487.632324 -273.104584 910.943115
-641.112244 -428.693451 1111.151611
-776.232483 -422.949097 1241.192505
-360.642487 -258.445953 1049.997559
-704.966919 -749.362610 1147.109985
-854.253174 -502.996460 1025.137329
-751.781433 -527.082031 1203.077026
-454.886658 -314.443634 915.428406
-463.487305 -347.337555 871.923645
-337.672699 -391.995514 1012.377747
-756.713440 -384.960358 1280.360229
-710.806824 -421.026154 1317.865356
71.243774 -440.321625 1026.655273
-822.561707 -459.865021 1119.679321
-723.820190 -379.265381 1289.410400
-769.514038 -344.406433 1233.662231
-715.157227 -746.605286 1124.849365
-847.316650 -425.697845 1104.913574
-750.526123 -335.111420 1315.643433
-855.454651 -497.979156 1049.273926
-790.782776 -581.430725 1112.996704
-759.440430 -713.656677 1116.253784
-745.385742 -457.847687 1150.828735
-838.444702 -371.776184 1148.558594
92.220078 -445.854797 1035.101440
-233.703308 -491.949860 1134.720215
-258.910309 -386.589172 1125.364136
-267.689697 -535.419922 1061.830566
88.953308 -419.448029 1033.578247
-89.826958 -285.483276 1157.802979
-35.262501 -412.442413 1099.532959
-728.915833 -617.179260 1167.245117
-745.949768 -695.556702 1116.803223
-827.284363 -373.339783 1154.760742
-292.084656 -431.972809 1058.423340
-482.613281 -292.340881 908.102051
-294.151520 -488.493744 1034.206177
-231.211044 -528.793152 1116.427490
-636.618896 -372.893738 1401.117188
-805.121094 -322.603546 1215.706909
-363.332733 -373.846497 977.732300
-38.893394 -570.570618 1015.583862
-46.690418 -553.107544 1030.454468
-387.040314 -322.666229 939.668274
4.595461 -412.148132 1071.859985
-650.969788 -790.457825 1232.643921
-404.996490 -213.955978 1011.746948
-712.889282 -646.682373 1197.922729
105.151848 -504.149292 979.226135
-260.440063 -491.675110 1093.206299
-767.749451 -350.597565 1288.129395
-687.976746 -563.495239 1262.352417
-727.716064 -588.007751 1219.280029
-133.830643 -520.163635 1090.992065
-387.714600 -229.668762 996.157043
-762.874390 -628.383911 1139.206543
-756.676025 -639.920471 1140.734375
113.902794 -279.468597 1085.654175
-57.637760 -307.497711 1142.257080
-234.603683 -145.492554 987.231750
-402.983032 -511.174866 858.217285
-740.084351 -525.400696 1194.813477
-773.019165 -440.553253 1243.114868
-623.211792 -559.214966 1266.768799
-723.802612 -476.628326 1233.943604
61.928459 -362.928864 1052.395752
88.476807 -419.642242 1036.512451
-369.092804 -548.124695 914.966187
4.619168 -589.042664 1001.774292
-254.644012 -409.503845 1154.868286
-748.194458 -381.033691 1254.908325
-272.955872 -347.905457 1130.594971
-721.841614 -653.576965 1156.147705
-409.399902 -491.355988 847.867371
-119.901047 -542.326172 1087.379028
58.136139 -519.900024 1005.814270
-744.844421 -444.801422 1124.120361
-804.223877 -568.399353 1074.597534
-667.744141 -480.430267 1334.643555
-810.103088 -331.141632 1217.282837
-479.183960 -493.012146 1598.454102
-56.491787 -336.714417 1137.547485
-712.118896 -721.423462 1088.298706
-359.950623 -313.638123 999.585938
-768.426941 -304.513123 1307.123901
-833.199951 -340.386871 1179.713379
-830.745544 -470.663788 1123.293823
-715.339355 -620.759705 1210.623779
-354.808807 -448.786011 944.277649
-82.653793 -345.007843 1140.843140
-772.621094 -416.145721 1229.741333
76.898224 -424.560638 1021.196167
-406.622803 -213.242020 1006.127808
-727.669495 -697.202576 1146.250000
-347.198181 -334.651123 995.292542
-827.423828 -405.156128 1141.177246
-1.316658 -558.717041 1005.847717
-252.247009 -422.732758 1138.152710
-702.212769 -492.982391 1265.779907
-59.427914 -497.397705 1057.298340
-440.009644 -352.673767 877.526550
-818.051453 -396.095612 1175.740967
-694.561218 -456.999756 1337.975708
-288.040070 -580.341614 1028.804077
-452.474243 -521.457886 1638.294800
-633.102905 -572.121338 1231.189209
-102.266846 -506.684692 1103.750732
-13.436470 -372.393036 1090.064819
-32.241169 -517.266846 1050.948853
-114.672775 -467.710083 1131.768188
-741.090576 -392.261719 1308.742920
-831.477966 -321.767914 1189.778687
-402.424225 -272.204712 965.985657
-452.606537 -399.572296 837.915222
-452.288757 -314.269318 903.119263
-832.713623 -392.130798 1164.303345
88.833389 -478.798859 990.967224
-648.966858 -323.963562 1348.337891
-231.834610 -414.045746 1206.963623
-853.911865 -362.598450 1101.573975
-395.636688 -256.951569 967.604431
-806.184204 -507.098236 1117.670410
-338.190338 -490.410034 962.914856
-89.649139 -337.056641 1147.100830
51.751995 -439.934174 1037.535522
-782.054382 -584.493408 1124.481323
33.536644 -313.221924 1084.242188
78.808701 -374.589478 1038.372437
-345.490692 -376.471039 991.148621
-1.135636 -302.273468 1111.514648
-765.614319 -469.077301 1181.616211
-329.846649 -476.357117 987.920227
-103.821045 -409.098145 1129.215820
-662.378235 -780.974426 1208.006104
-280.659760 -593.259338 968.688904
-26.631239 -527.016235 1037.383423
28.057854 -511.624298 1024.285522
-787.422058 -265.653534 1245.604370
-75.964714 -567.299377 1044.622437
-667.407349 -506.963837 1294.505249
-849.431396 -484.709930 1064.708496
-785.069580 -335.658051 1242.887451
-245.758774 -533.485046 1138.964111
-653.862854 -249.014709 1458.704468
-63.515247 -511.792480 1069.456665
-678.633423 -604.305481 1266.282593
-840.548828 -348.981506 1163.632813
-333.552795 -552.470154 985.927612
-747.311646 -464.863861 1141.051880
-759.384583 -377.643738 1279.109497
-701.530457 -465.292542 1321.086914
-726.739624 -685.475342 1150.885986
-279.564056 -579.989685 980.018188
-780.517029 -391.043976 1201.496216
73.704453 -316.306061 1067.916382
-709.671997 -242.784439 1401.812744
-646.159668 -320.482483 1354.206665
-51.332378 -307.792816 1138.001953
-834.129944 -556.612122 1060.808228
-322.653778 -259.974670 1109.029907
-409.662933 -550.140442 842.504395
-359.999023 -384.338745 990.797241
-332.892456 -260.409821 1069.633667
-634.888916 -467.188751 1341.260986
-748.923889 -271.356171 1345.363892
-807.532837 -523.609680 1110.056396
-356.146759 -575.102661 898.459412
-343.910461 -419.146240 1024.013550
-4.965412 -362.660339 1092.334961
-512.458618 -482.090973 1489.275879
-259.101044 -313.064972 1160.390137
-30.831068 -419.468231 1087.818481
-238.937500 -407.918060 1131.311035
-816.925964 -343.505524 1209.805054
63.595112 -508.168854 997.787048
-273.658020 -547.358826 1075.796753
-458.859344 -386.095673 865.722778
37.758724 -505.936462 1014.257385
-122.162659 -342.703003 1185.591675
-98.608315 -310.313385 1149.595581
18.981688 -304.186676 1093.619629
-701.248230 -719.953674 1103.844604
-321.186035 -543.354248 990.071838
-626.488953 -614.454224 1198.539307
-824.566650 -379.604431 1162.067261
-816.093323 -338.718811 1169.595703
46.051094 -373.281799 1062.039185
-833.470825 -310.146881 1175.001221
-695.781189 -337.062317 1340.215942
-209.870300 -468.538635 1179.053711
-59.352032 -551.622986 1043.718750
-758.091187 -432.200531 1242.781982
-391.898193 -236.622269 996.074646
-50.777927 -334.328827 1114.318970
-685.537476 -332.071075 1348.240723
-426.365021 -404.011108 872.327942
116.974091 -508.667816 984.910461
-869.146729 -385.519409 1057.563232
-718.922974 -634.897461 1195.942383
-115.561485 -296.440308 1168.009766
-608.729309 -482.138885 1448.494873
-120.106110 -282.506134 1172.210693
-435.839996 -296.245331 927.733582
-826.886841 -353.263794 1199.321411
-104.748009 -351.034485 1157.772339
-443.679230 -279.738892 921.468994
-581.513123 -428.776947 1484.407227
-725.810913 -424.988068 1289.625732
-419.512817 -244.757980 989.042419
-353.667480 -534.256226 879.079529
-716.252258 -355.569214 1308.734985
-624.497620 -390.575134 1398.608887
-767.282043 -309.554840 1257.390503
-758.855164 -451.748779 1261.487183
69.224968 -292.005798 1083.229248
-697.176880 -353.104034 1347.909790
-729.738770 -409.733032 1277.481812
-28.493670 -299.888123 1122.531006
-353.275909 -382.166656 985.788879
-830.662903 -377.021576 1158.780762
-476.097961 -264.168457 930.523682
-435.179382 -411.235138 866.934509
-740.417175 -689.971069 1114.730103
-99.026939 -315.419464 1168.732178
-624.647156 -501.991211 1306.380005
-315.035126 -535.073425 981.844238
-765.512634 -329.062286 1289.571411
-637.280701 -440.102722 1319.823975
-362.708588 -409.726807 988.046021
60.656105 -322.961212 1068.651367
-278.345551 -580.712891 1013.178894
-674.530029 -788.352600 1169.799316
-210.838577 -489.360626 1137.123291
84.463387 -395.913757 1036.695801
-749.059326 -457.657501 1245.763306
-293.104858 -571.934204 960.318359
-439.932526 -279.161316 927.190857
-726.993042 -720.882080 1133.567017
86.506264 -554.432312 968.106140
-378.599365 -338.714447 966.747131
-728.749084 -603.835754 1207.938721
-631.123108 -448.158295 1345.741699
-779.524658 -386.617737 1258.825806
4.346972 -441.079712 1069.534424
-839.839478 -482.990265 1123.217041
-754.843994 -573.750183 1173.589722
-636.644348 -731.683838 1272.524902
-770.349426 -341.358917 1289.155151
-455.191864 -460.093628 817.367554
-778.887268 -544.248901 1147.584595
-110.581360 -483.231720 1112.763550
-327.111755 -580.554810 932.573242
-444.443359 -206.182083 987.389832
-90.279129 -277.565887 1151.481934
-656.478882 -580.802185 1239.699463
-705.600769 -658.749451 1221.675537
-365.770111 -326.604858 969.228943
-713.112366 -329.566498 1343.518555
-731.367432 -453.120331 1239.965942
-872.684326 -459.799957 1046.565186
-142.463272 -165.531250 1099.121582
-668.396423 -410.970184 1348.185303
-99.997360 -266.186493 1163.063843
-617.672791 -399.523132 1321.203369
-798.479431 -581.720520 1072.865479
-703.487610 -602.357300 1260.160278
-478.685944 -342.101959 879.591553
-32.378727 -460.879242 1081.029785
-745.254333 -279.242401 1344.719849
-398.742462 -322.484314 937.196838
-631.953735 -321.865021 1394.324707
-753.567444 -342.432434 1289.255249
84.521339 -371.527863 1050.558472
-723.205261 -426.755219 1298.864868
-648.803101 -436.902100 1345.119995
11.431000 -617.228577 994.114502
-739.763245 -408.704773 1284.054443
-760.966858 -662.713440 1145.713745
-355.493134 -359.136230 986.193604
-345.973297 -381.529480 973.607178
-868.101501 -378.932220 1081.406738
-714.888672 -367.438019 1305.649658
63.869137 -305.772125 1064.537354
-671.441956 -689.298218 1133.536499
-403.373993 -526.579590 843.496704
-594.301941 -431.716766 1431.725220
-432.985901 -269.622894 928.905701
-394.075928 -245.090057 976.355713
-382.124634 -322.837158 1002.170898
-723.682007 -387.220154 1311.918823
-261.062042 -530.013306 1074.247681
-558.299133 -456.679810 1173.010620
-733.857056 -723.778625 1119.541626
-596.146423 -753.191284 1309.433105
-465.268127 -487.996735 1486.806274
-467.924164 -377.983429 856.907837
-784.043762 -607.036987 1137.210205
-678.259949 -753.725220 1177.183594
109.205528 -309.902283 1063.399170
24.443840 -284.020081 1090.570435
-440.292389 -232.861053 960.140015
-761.403931 -244.631104 1338.816040
-612.270508 -743.895569 1318.290161
-99.838142 -344.098328 1154.711182
-724.515381 -256.776428 1336.591187
62.682526 -284.066437 1078.722656
-699.587891 -681.329773 1202.328735
-810.243835 -398.895264 1177.053223
-389.827667 -235.968689 1002.081665
-427.262756 -637.499634 1598.802734
-331.430237 -525.495056 956.885925
-76.222961 -471.905090 1079.135864
-394.216980 -353.429688 933.652771
-305.576263 -349.074829 1117.689453
62.042564 -398.014313 1047.086548
-2.593034 -306.118713 1101.524658
-727.930481 -602.857178 1206.500610
-731.265198 -652.501099 1142.619385
-868.299744 -395.059235 1096.999878
-604.467102 -460.570404 1336.351563
-667.221375 -653.725586 1206.807495
-442.251923 -572.415588 1613.359253
-875.895935 -454.741180 1013.453308
-787.314392 -358.955658 1258.279053
-793.375854 -403.642456 1200.545654
-709.200745 -360.050476 1341.079956
-676.569946 -726.406738 1109.501709
-849.661011 -374.632690 1137.516602
-356.968262 -199.059479 1058.452393
-805.385681 -363.499237 1202.231567
27.839792 -393.657593 1059.009277
-852.991638 -460.220032 1111.452393
-774.890564 -648.452698 1129.550537
-457.913116 -243.297974 938.064148
88.801003 -377.933167 1035.094116
-736.631409 -272.620789 1344.607422
-734.836060 -261.758850 1348.025513
-581.077576 -491.608917 1306.382202
-428.339844 -325.246185 929.963440
-95.760857 -375.855530 1144.857422
-692.145325 -419.693939 1330.807129
112.752739 -503.971344 975.995911
-589.056519 -441.864136 1497.418091
104.926086 -292.376984 1075.437256
-710.813416 -466.062286 1315.781616
-653.661987 -662.987305 1153.403320
-667.254761 -275.212189 1431.147217
-696.936157 -239.102875 1396.400146
-358.522675 -329.219086 1009.821960
-360.686676 -442.709930 942.981140
49.995995 -558.055298 999.044617
-688.309937 -747.761169 1142.965088
-755.722778 -577.308899 1174.448242
-11.093151 -323.729736 1097.248047
-15.498764 -428.485809 1073.265259
-700.017273 -461.201080 1286.038086
-706.756226 -298.546844 1352.584106
-771.003784 -567.044250 1191.390381
-772.349792 -342.650604 1284.726318
-7.483851 -511.162811 1030.819824
15.042642 -345.041107 1091.576172
-781.966248 -679.080139 1081.266602
-618.093689 -502.973083 1454.803833
-773.913818 -263.160156 1313.648682
51.196163 -459.740631 1034.510498
-661.908997 -538.417114 1260.662842
-102.846283 -536.958069 1068.304077
-801.427063 -367.877228 1203.390747
-841.527344 -495.507782 1053.500977
-295.712341 -555.565247 1008.458618
-826.541931 -480.647430 1075.386963
105.199318 -358.213776 1039.903687
27.110867 -526.000610 1009.184998
-560.962891 -513.953186 1470.789795
-347.703125 -396.361816 988.301697
-713.969299 -645.887207 1168.707520
-737.023376 -647.010254 1154.020142
-841.159851 -545.320496 1092.316772
-325.223083 -475.142639 1034.394775
-451.282959 -401.189728 866.807434
79.607292 -310.153229 1077.284912
-368.472473 -460.584229 947.748352
-773.829102 -346.097229 1277.804077
-830.526245 -330.779175 1195.392212
44.403458 -327.168365 1070.897705
-771.338257 -528.863525 1165.436401
72.616501 -440.601990 1030.834717
-36.873886 -488.886230 1075.943115
-10.832938 -554.241272 1022.502991
-354.511627 -387.666840 977.941345
-809.237610 -484.103363 1140.481934
-367.643921 -362.136353 947.023804
-414.509949 -507.603119 874.251465
14.398349 -310.981628 1101.638306
-475.792755 -402.151825 841.862000
-719.322510 -576.570557 1231.971558
102.953346 -352.833191 1035.331177
-400.344238 -436.055298 911.050598
46.232197 -535.137085 1004.257324
-740.483032 -717.064514 1119.325562
-292.011902 -467.473022 1072.585815
-785.895386 -422.156036 1206.585327
-62.629959 -458.032959 1094.492065
-413.519531 -345.550629 916.155701
-121.838097 -457.904022 1134.503296
135.912399 -368.242889 1024.536621
-792.613159 -569.011780 1139.535767
-811.067017 -592.189209 1109.463623
-568.484497 -687.068970 1365.740845
-404.023407 -354.049652 954.861389
-726.502380 -516.915283 1214.213989
-714.011292 -240.568085 1346.518555
-453.267731 -549.980530 1607.353027
-768.142761 -458.910004 1216.250732
-255.764694 -372.818604 1141.018188
-280.255737 -417.850372 1059.480591
-740.888672 -449.697266 1179.753052
-408.847839 -240.004410 972.278259
-228.448074 -544.453430 1078.566040
-295.962036 -479.900055 1027.261963
-419.203949 -358.418030 910.404480
49.593925 -292.404999 1092.098999
22.065718 -310.960602 1087.142212
-562.049438 -491.516022 1279.006592
-798.404297 -525.430054 1101.442139
-269.679230 -397.165375 1124.971436
-669.726501 -651.703857 1245.877686
-734.123962 -325.155670 1296.214966
-813.199402 -538.837341 1104.797241
-16.702738 -272.205933 1128.889771
-747.569458 -353.080780 1313.672607
-777.981140 -460.473175 1167.368652
15.949270 -388.979767 1074.404297
21.488493 -504.753815 1022.435120
-649.919250 -322.968719 1401.552856
-18.358427 -487.846100 1055.210327
-635.769836 -523.100220 1431.119751
-672.031799 -659.874512 1231.761108
55.206802 -559.057007 979.617981
-613.517578 -437.713409 1463.953857
-381.420898 -380.533142 936.983643
-427.407623 -198.150101 989.952148
-686.260559 -415.348145 1321.293457
-396.707031 -479.344391 881.901550
-293.793793 -400.371307 1044.689209
127.143372 -340.313538 1035.030273
-793.012634 -291.435089 1245.091797
-868.006287 -340.277710 1141.168579
-107.782845 -553.131287 1078.577148
28.387310 -367.055634 1061.802002
-688.230713 -385.160767 1341.021362
-743.665833 -453.002777 1275.293091
-802.341919 -338.886810 1237.456665
-321.063141 -462.949951 975.840698
-393.942841 -399.430542 909.571350
-701.774048 -414.914764 1107.363281
66.706474 -461.454987 1022.533630
-831.005249 -512.856140 1055.637085
-263.766846 -418.932495 1124.216431
-108.291000 -597.669861 1054.740845
-350.373322 -192.611298 1078.761230
-789.775452 -668.320984 1045.877197
-720.490295 -391.837860 1316.202515
-791.404846 -283.618652 1265.928589
61.664364 -387.218231 1038.937866
-749.740906 -353.448608 1312.217163
-270.375122 -376.219757 1093.527100
-109.556229 -542.421204 1069.455933
-739.654175 -477.243286 1203.893921
-835.221008 -356.668823 1171.711670
47.089085 -323.954437 1077.894897
-438.849487 -461.207397 828.376526
-379.517853 -340.245270 944.951538
-817.823730 -388.362061 1162.245972
-346.053741 -328.105133 1015.925781
-772.391052 -484.098938 1166.388062
-521.524536 -466.229797 1576.348755
-601.340210 -439.437042 1438.468384
-14.778930 -470.893280 1059.943237
-564.545166 -463.716583 1510.595581
-659.044617 -488.831512 1345.702637
-855.690918 -450.873901 1109.062866
-131.666824 -485.677124 1104.205933
-51.759342 -471.907166 1082.139404
-811.215698 -395.591675 1161.376953
-27.507990 -570.929749 1016.834045
-389.763153 -381.846466 932.402954
-781.569092 -396.930969 1243.888184
116.444412 -397.720184 1037.770874
97.603249 -385.781189 1030.844849
-8.652591 -478.378906 1047.037231
-613.674988 -526.685547 1216.505249
-701.617676 -292.977478 1358.969116
-277.943848 -610.527588 1008.937195
-358.524597 -374.888184 985.453247
-713.305542 -652.851685 1185.856201
-261.097382 -418.871399 1096.531860
-806.341736 -425.657623 1127.885742
-743.826965 -639.819214 1153.151123
-850.608398 -359.779785 1147.548462
-338.574402 -430.399811 956.417725
101.274803 -448.672546 1006.395752
-737.648682 -306.431671 1341.813843
-260.412018 -514.035950 1071.571167
-723.457275 -511.348572 1213.758057
-253.402481 -399.432159 1117.852783
133.908325 -442.635315 1019.618652
68.539940 -269.069733 1082.314087
-301.658997 -409.655304 1033.652588
-286.982544 -398.974487 1063.801025
-136.403961 -288.247711 1205.662598
-439.412323 -247.443451 936.018311
-841.982544 -360.690826 1146.293335
-69.699516 -590.154968 1026.930054
-725.086426 -293.128601 1356.026855
-84.807007 -547.611145 1054.308105
-648.557373 -749.158691 1133.540405
-838.344910 -551.189453 1049.588745
-753.205261 -329.827637 1293.877197
-652.509216 -765.350586 1240.282959
-563.980774 -488.655334 1451.977417
-595.632385 -602.688782 1298.023560
-331.768372 -529.462769 919.129395
-238.346558 -461.347351 1128.166138
-17.450350 -492.021606 1038.274536
-630.951172 -448.371521 1317.251587
-781.289001 -437.954041 1176.446655
-416.473633 -471.816681 846.625732
-649.383545 -396.394592 1351.022583
-796.355774 -279.648926 1251.221436
-718.663879 -708.314453 1126.135864
-810.571289 -415.355652 1168.079712
-640.754211 -417.742371 1323.040039
-469.802399 -280.141907 881.830261
9.919746 -292.738617 1095.151001
-733.935425 -497.449371 1148.888672
-796.645020 -481.598846 1147.724243
-784.846741 -604.338623 1114.186523
-24.465528 -335.788391 1116.264526
99.483559 -362.159546 1036.292358
-694.845459 -249.563217 1390.996704
-804.279541 -318.675354 1240.010254
-677.379578 -546.287354 1217.667725
-641.050598 -752.672485 1233.570190
-668.940857 -508.501007 1185.416504
-37.139343 -543.358521 1029.699097
-366.285614 -357.714172 970.155212
-576.580872 -574.000244 1437.883301
-350.262115 -494.679810 985.426208
-281.545746 -561.059387 1034.554688
-860.789307 -498.390564 1017.066772
-357.093597 -275.027161 1010.840454
-555.662598 -472.840332 1463.148193
-290.842590 -350.395660 1126.071167
-679.400818 -299.806000 1381.657104
-662.147827 -512.035034 1259.233887
-726.839294 -234.568039 1367.591064
-336.986084 -518.236633 942.075562
-875.084839 -379.743500 1108.027466
-661.197021 -509.020844 1221.986450
-445.166504 -497.303986 812.977112
-27.577034 -293.299164 1132.997925
18.124197 -319.071747 1093.384888
-855.540161 -367.645355 1117.627930
55.446533 -330.315857 1073.228516
-422.135376 -468.318909 839.626343
-745.049805 -316.131287 1311.696289
-340.523010 -442.653107 976.809631
-781.705688 -422.261322 1113.132446
-435.260742 -258.597443 929.300049
-47.646015 -464.536774 1091.844482
-77.459297 -459.868134 1103.970337
-643.796143 -351.836334 1317.500488
-789.589539 -326.399048 1241.423218
45.518066 -396.055878 1049.106812
-99.581635 -465.179535 1130.147461
47.643414 -390.175659 1054.188843
-34.681202 -581.681946 1012.099243
-658.729553 -324.093109 1347.440308
-874.828491 -450.906128 1052.745483
-694.825562 -319.389771 1367.158691
-710.873474 -282.218628 1336.303101
-888.350891 -371.884491 1093.949341
-91.977196 -365.500549 1138.496216
-669.852051 -607.858093 1267.213135
50.860332 -286.548492 1090.920654
-694.455444 -656.256531 1205.614380
-648.672058 -630.012634 1265.392578
-365.750275 -262.234344 1039.353638
125.196297 -397.363892 1032.650269
-444.263916 -259.900513 954.486206
-239.220428 -448.711823 1164.000854
-664.170837 -291.829224 1319.013428
-460.671204 -231.598740 973.111450
-821.098450 -309.234924 1196.920532
14.331758 -399.354340 1063.297241
-108.076088 -303.186401 1165.606445
71.139160 -376.516510 1047.409424
-781.104248 -378.086426 1241.453003
20.905893 -486.009949 1029.589600
-820.702209 -297.904388 1200.675781
-605.807678 -476.867310 1456.040161
-86.207130 -469.075531 1114.628174
-387.686310 -295.234406 991.325745
-405.739136 -478.002625 872.380737
-639.422974 -615.648315 1250.875366
-316.643402 -330.613953 1061.718140
116.588890 -302.043762 1051.506104
-730.799255 -727.069153 1105.841553
-271.088806 -318.399017 1137.230591
-413.589935 -284.652435 929.271912
-622.180359 -540.951477 1274.459961
-797.282593 -569.297974 1115.042969
-365.906677 -271.914307 1020.721863
-703.982483 -260.606476 1346.949341
-848.894348 -502.577301 1053.685547
127.982674 -350.369812 1025.753662
-260.598083 -557.902954 1087.114014
-836.670044 -492.138580 1125.328491
-788.838501 -320.886566 1256.709717
-350.731293 -296.796570 1065.171997
51.543861 -461.160339 1020.353210
-318.361115 -339.489166 1046.239380
-439.579742 -224.146698 970.885376
88.153320 -278.083221 1089.200928
-31.637537 -307.979797 1124.791138
-392.591705 -242.834930 1016.239014
-242.053467 -609.224182 1024.809204
75.216110 -476.340302 1017.246765
-309.910522 -432.624512 1046.117310
-703.827026 -685.836426 1189.822144
-727.876343 -465.545288 1178.275513
-761.040039 -616.252686 1146.765259
-745.497437 -239.917038 1364.126953
-246.877029 -516.228027 1067.683716
4.934190 -337.991791 1096.789185
-51.892593 -559.648865 1029.192749
-698.736511 -424.174622 1331.496826
-38.111099 -498.323395 1067.541382
-581.807556 -539.972778 1428.872681
-260.825226 -568.641479 1018.628418
-809.643738 -585.768372 1085.854492
-304.848755 -218.672150 1122.224365
-776.460693 -342.548645 1256.130249
-47.323170 -336.301788 1110.719971
14.291733 -568.377380 985.348511
-754.070496 -372.603088 1281.560913
-478.693726 -417.568878 864.156860
-382.760437 -288.071014 1017.346436
101.099739 -361.893982 1036.135620
-342.518555 -304.833099 1031.134888
-446.360382 -228.714951 961.616333
-795.786316 -573.895813 1143.883423
-216.159988 -107.999344 985.609253
-778.987305 -309.048157 1263.364624
-811.394653 -583.885132 1059.890625
33.986057 -336.875519 1080.240112
-713.582458 -544.887512 1177.152954
-821.507690 -509.996124 1124.298950
-24.836203 -379.086273 1098.533447
-871.113220 -432.322449 1075.411621
-444.036285 -338.032166 881.397583
33.358692 -554.571960 994.838989
-604.005432 -486.502045 1214.758179
-92.922462 -349.998413 1144.264404
-823.342712 -561.967224 1076.706055
-326.305328 -435.196228 1035.238525
-640.634338 -587.869873 1249.335327
-69.591202 -534.703125 1064.919800
21.112211 -546.179993 1011.955627
-23.874929 -320.198334 1114.748291
-786.381653 -392.348511 1236.231445
-680.976440 -430.714935 1363.153076
-56.493767 -518.552185 1065.759033
-634.589844 -417.107239 1349.871826
-320.416382 -289.504913 1091.320068
-110.530594 -495.242493 1111.878296
-368.842773 -512.452271 906.141724
-339.321594 -188.979813 1076.669312
12.374476 -414.132843 1058.447754
-752.232178 -618.226501 1160.048950
-776.818054 -284.664185 1274.310669
-536.189636 -639.343018 1338.613892
-441.655090 -410.174805 864.292358
-405.536560 -296.999115 970.502563
-642.153809 -392.545013 1339.402222
-83.173126 -539.417358 1069.090332
67.166222 -456.411957 1022.353699
-780.137512 -540.782959 1157.199707
-683.351257 -589.009705 1229.021729
-709.506287 -490.497528 1284.055542
-811.125122 -413.142609 1170.995850
-468.561432 -222.808914 962.111938
-379.994202 -300.504028 978.697510
-681.773438 -479.793365 1306.462891
24.414892 -419.815094 1058.195435
-663.934875 -616.577881 1272.652832
-392.512146 -228.233887 997.356018
26.243149 -256.911041 1102.361694
-383.825562 -336.259735 993.304749
43.047276 -254.982742 1096.643799
49.607758 -484.787018 1024.788696
-263.082062 -371.923401 1146.231812
-340.253967 -436.059387 982.100159
-264.998779 -502.932495 1077.877197
124.718437 -299.886780 1066.247681
63.730427 -421.847107 1025.208984
-693.866882 -689.254456 1111.954712
-391.469421 -400.412628 937.917664
-812.513184 -423.104462 1132.168457
75.848007 -285.640137 1073.806641
-758.382751 -463.926361 1200.387817
-837.629578 -554.403442 1093.962769
-495.743378 -494.306519 1511.878296
-29.102190 -535.685913 1040.609253
-533.307983 -460.768402 1504.725342
-21.435410 -358.258453 1090.747803
-433.398315 -381.712402 902.240540
-302.862274 -520.168091 1006.843567
9.292636 -392.983398 1072.655884
-659.151733 -468.149445 1139.775269
-384.853027 -368.776733 936.908691
-637.552979 -404.803772 1343.351685
-460.505768 -240.926010 935.550476
-54.868252 -377.093475 1120.657227
-676.447021 -498.371094 1255.617920
81.350952 -534.107849 981.903870
-871.293701 -410.862061 1063.542725
-724.271790 -543.588196 1226.958496
-670.160706 -450.598114 1343.107056
130.731293 -344.987946 1032.628662
-769.391052 -383.297150 1217.884155
-740.425293 -315.691315 1300.384399
-380.989410 -311.491180 967.968323
-867.867249 -483.071625 1018.494263
-391.826660 -533.578613 862.481201
-329.983398 -482.046173 946.190674
-684.433533 -637.460144 1232.188477
-399.914337 -272.637817 954.626526
112.147156 -296.465210 1075.943848
-826.779358 -507.054779 1091.906738
-754.157959 -571.585022 1154.768921
-365.728088 -231.105347 1040.427368
-877.846558 -400.596893 1072.258545
-414.482452 -228.670242 980.661987
-883.209229 -425.392883 1040.270386
-137.730530 -394.570984 1135.519043
-332.668274 -319.432678 1044.831299
-682.064148 -283.741302 1379.229248
124.463692 -395.781006 1038.411133
16.752962 -358.971802 1080.799927
-766.279358 -699.778564 1087.647095
-590.117737 -530.905090 1432.253418
-724.198547 -472.604523 1275.334717
-301.555969 -443.802643 1050.409546
-427.097717 -392.029938 888.790527
-119.749817 -452.621918 1105.689209
77.638626 -339.719055 1051.910889
-818.997192 -398.602386 1155.074341
45.404392 -420.370300 1039.127563
-752.987305 -323.188965 1319.649414
-874.545288 -365.209320 1095.362061
75.649475 -359.860352 1057.150024
-342.243774 -477.893036 952.700500
-758.611450 -294.389984 1303.416626
130.419144 -348.078613 1032.178711
-636.544617 -356.742950 1365.675049
-338.628082 -345.127380 1032.681519
-713.626587 -641.341003 1173.791382
71.324036 -348.227234 1050.765015
-791.372192 -645.469604 1102.618042
-411.813477 -441.446960 855.309998
-472.219299 -490.996796 1641.519653
-102.077843 -179.701797 1114.427734
-453.482269 -326.101563 891.760864
-373.317261 -255.459030 1006.670166
-312.980194 -389.745026 1075.671997
-347.545807 -589.053650 899.934265
-29.517653 -471.534882 1067.801392
-713.312927 -430.228455 1316.741455
-639.555420 -394.506775 1348.969971
-244.182068 -486.799194 1087.759766
-819.680359 -395.661560 1131.660278
-689.475464 -599.940491 1253.295044
-316.935883 -358.176453 1032.431274
-714.919006 -255.830353 1375.454834
-596.463135 -444.001648 1457.365479
-259.969147 -614.289124 1048.415283
-462.369446 -455.379547 851.884033
-32.512459 -309.306610 1125.987549
-820.417297 -472.784241 1087.368164
-684.301025 -301.551331 1358.495972
-440.665771 -219.242538 995.344482
-816.998901 -468.241882 1092.875366
-264.349670 -595.839844 1084.386963
-575.077942 -510.991730 1418.755371
-244.378723 -617.373047 1088.318237
-10.582609 -408.858521 1085.567017
-252.518997 -394.877777 1164.835327
-544.280029 -501.914825 1292.762695
21.719091 -441.996613 1049.399536
-716.668457 -301.373749 1354.048706
-824.423279 -569.170898 1087.568970
-435.079559 -283.742462 917.901306
-414.221161 -255.362961 960.863586
-119.963806 -293.735596 1174.041870
-226.899902 -427.188477 1213.374634
-725.044006 -531.892822 1233.619629
-772.588379 -337.357330 1236.831421
-94.548279 -441.759918 1110.380249
-725.224121 -344.173553 1327.698608
-809.768250 -512.606323 1112.866821
-772.232300 -456.666626 1115.409668
-115.275490 -313.825287 1161.081055
-437.053284 -317.158264 897.939514
68.924927 -349.921753 1065.400513
-619.840515 -589.899231 1217.368774
-62.902565 -412.838593 1093.056030
-245.748062 -482.347473 1139.009155
-718.044861 -236.675034 1405.770752
-635.241760 -740.750305 1283.055664
125.171852 -342.332855 1030.791382
39.000713 -269.488190 1093.107544
-880.286316 -418.256683 1047.341309
-84.972229 -468.311951 1108.625366
63.407612 -345.493958 1056.583740
-61.384712 -377.516418 1123.224976
-569.849792 -463.990082 1511.300171
-766.477783 -576.989624 1156.546021
-350.570435 -451.838745 1000.042969
-65.703934 -529.021912 1063.830566
96.813560 -440.464294 1011.999451
-409.277985 -250.286545 956.526672
-667.862610 -674.207275 1156.388184
-17.320019 -559.174683 1024.489746
4.875038 -277.372284 1118.523193
72.540665 -320.431793 1058.405884
-680.219543 -508.661835 1284.877808
-672.762939 -302.979889 1399.351440
-789.159607 -626.227295 1127.278564
-576.460632 -458.187195 1519.308838
-55.287701 -613.279297 1015.339478
-620.515381 -561.132019 1228.023804
-758.085693 -693.752136 1090.116455
-737.690308 -749.240356 1097.480347
-767.609070 -616.041748 1104.297241
-774.293091 -654.407837 1102.713257
-773.123291 -665.990723 1099.391968
120.577759 -410.311768 1032.889404
-807.258423 -318.599121 1191.487671
-742.781189 -671.454285 1139.163330
-820.705566 -430.708130 1125.389160
-727.794861 -371.540497 1287.506226
-274.372864 -579.705566 1040.544312
-621.321655 -360.048065 1372.805176
-634.862671 -491.233398 1295.119995
-565.662598 -421.474213 1478.113159
-191.174072 -103.527473 994.379211
-50.141388 -316.922638 1119.061035
-641.594299 -696.148499 1250.925049
-416.838470 -486.229828 862.223328
-723.744995 -394.403778 1319.056763
-747.895325 -422.548584 1261.728882
80.346336 -483.289612 994.705139
-453.157288 -475.703979 848.368591
-319.629303 -193.353836 1073.085571
-726.507019 -406.721283 1310.617065
-729.761902 -226.616898 1397.193481
-664.026733 -364.112396 1411.384399
-302.371735 -486.622772 990.621765
128.888000 -419.628632 1008.572083
12.239701 -444.824738 1055.196045
-292.141113 -353.198700 1068.369629
-436.483612 -361.729584 881.246033
112.026321 -382.697968 1030.892578
-54.346935 -556.702332 1031.441895
-103.453888 -405.330658 1143.989746
47.155315 -549.674500 986.242676
103.770393 -443.673523 1014.014893
-675.622314 -594.478271 1268.514404
95.377899 -436.248505 1026.084473
-324.173737 -206.448654 1098.643799
-5.137184 -303.308014 1111.302368
-738.566650 -691.668091 1094.384033
23.102779 -293.359131 1095.602173
-597.775391 -529.834717 1420.710449
-232.461166 -487.158722 1133.386353
-821.454895 -513.827209 1092.326782
-815.101501 -410.330933 1191.917358
-571.117249 -581.926086 1274.958862
-289.677063 -327.092987 1127.655640
82.025589 -394.287018 1030.804443
-14.480700 -389.662659 1086.468384
15.101166 -283.538971 1103.312866
-65.317406 -530.318542 1052.892578
-510.927612 -470.343567 1590.642334
-853.181946 -470.898193 1071.409058
-448.509613 -339.976440 906.245728
-72.773308 -422.126099 1119.309814
-803.025269 -366.341034 1201.049316
-379.732941 -430.349884 922.888794
-434.314514 -269.058197 943.408142
26.667761 -521.983643 1010.568115
-447.726471 -278.212769 923.705322
18.461098 -306.550323 1101.301758
-272.994568 -410.400757 1113.340942
-241.000031 -517.941833 1110.874023
-379.360779 -208.733734 1027.181519
-809.065857 -411.050720 1082.755981
-728.231079 -705.053772 1081.859741
76.033249 -495.383698 998.722961
-426.060974 -552.962158 829.857300
-784.650635 -386.271881 1221.943726
-676.401978 -648.068726 1212.398804
-671.401428 -257.213684 1403.002808
-357.893738 -511.411224 946.048828
-412.053497 -404.746307 903.311646
-451.907288 -278.817535 918.413635
57.212772 -287.406708 1087.866333
-655.316650 -292.436462 1365.378662
-792.310181 -511.839325 1143.037720
-673.625183 -423.126801 1325.493042
17.756351 -321.764099 1088.500610
-424.834381 -286.169891 930.666382
-383.952148 -437.807037 950.472656
-305.774231 -352.452820 1046.151489
-127.021324 -576.396606 1065.842041
-406.307220 -332.825165 946.250000
25.326632 -461.597931 1029.405884
57.065685 -416.381897 1037.033936
-105.472176 -554.302368 1056.003052
-714.067566 -573.271301 1247.264160
-463.809052 -328.761475 880.147705
-344.744171 -379.993195 1038.908081
-20.377396 -596.481873 1007.976624
-326.790527 -566.350647 973.858337
0.702201 -301.448792 1116.772217
-789.452332 -574.196716 1118.362305
-430.355194 -314.436890 932.818726
-805.177551 -599.829712 1077.890137
-693.934937 -648.114502 1211.232788
95.848373 -312.358093 1067.994263
-390.386963 -409.273987 946.086243
-755.541138 -562.940918 1176.897461
-724.144775 -718.850281 1098.518799
-687.186707 -200.699387 1426.081177
-622.515259 -455.423279 1330.520752
-605.680542 -412.844543 1445.230713
91.650627 -430.059357 1032.470215
-369.852539 -224.901627 1039.646484
-614.036804 -421.002411 1441.402710
-92.341057 -395.710449 1120.392578
-430.034790 -282.956848 926.001099
-760.455200 -692.349243 1097.883667
9.666757 -395.206177 1088.061035
-281.218201 -584.279175 1006.505249
54.657604 -447.439056 1020.697571
-474.901764 -391.170471 858.401184
84.203751 -395.158051 1054.442749
-797.207092 -439.034760 1146.812134
43.961174 -338.800873 1062.907715
-354.097961 -478.410431 971.218140
-799.915039 -607.914734 1090.602783
32.639801 -545.586670 999.376648
-344.372101 -266.706635 1047.230957
102.226013 -539.861938 984.128784
-742.571594 -734.766235 1096.773926
-232.447113 -426.152039 1190.403809
85.922554 -388.892853 1030.282593
-862.805847 -411.868744 1069.068359
-878.020447 -411.340790 1067.387939
-679.022217 -290.922913 1424.651489
-302.488342 -471.442078 1024.843628
-832.016113 -325.671509 1145.187256
-365.079376 -251.708923 1026.994873
-820.434753 -486.582642 1104.351807
-745.213806 -692.639282 1081.981812
-810.605469 -499.988495 1141.635864
-731.126770 -477.725037 1199.391968
-847.359314 -333.957703 1143.399658
-721.026917 -651.307434 1184.457520
-792.977112 -297.438507 1248.456787
-768.070129 -715.379944 1085.374878
-720.240845 -680.459045 1144.527588
-763.432556 -326.467621 1260.491943
-731.769409 -348.679169 1290.394287
-701.127930 -239.048401 1396.660522
-22.013821 -397.300079 1092.509399
55.401493 -543.515259 984.903137
-366.306915 -305.953644 991.967590
-325.054504 -493.620941 968.218384
-386.039490 -244.071777 1018.977295
-779.043152 -398.138336 1254.637817
-639.726013 -347.792877 1372.036499
-632.975708 -287.460480 1473.606567
-742.272156 -529.813843 1212.773438
-423.244629 -451.808655 858.519165
-621.465332 -461.794891 1432.492310
-871.669312 -352.863770 1095.979614
-698.067627 -314.587921 1338.211426
-366.711975 -221.654678 1044.138672
-653.060364 -465.320007 1296.125854
-736.848145 -721.731018 1083.671753
-292.333679 -561.350220 969.893738
-753.302551 -265.369232 1333.723022
-294.690643 -559.086426 993.678101
-666.214539 -286.691803 1352.555176
-439.588043 -322.299652 900.163025
-762.434448 -430.050720 1150.775513
-812.448730 -530.538635 1147.796997
60.322285 -506.714844 1013.482971
-561.208923 -520.734253 1507.657471
-10.941561 -333.143402 1101.726196
-768.319702 -514.449707 1170.431641
40.498184 -410.867126 1048.348633
