ply
format ascii 1.0
element vertex 1373
property float x
property float y
property float z
end_header
-865.566040 561.208008 -154.226196
-921.280945 749.471558 81.711006
-1161.714966 1071.528442 -301.197632
-820.836975 643.377625 -219.227448
-1185.422729 1091.332642 -110.518623
-673.749878 823.549011 308.096313
-1243.539795 645.763489 -376.192535
-856.977112 663.788391 -102.276321
-751.009644 788.945129 318.824280
-875.615540 731.105286 307.177887
-1213.051147 736.817993 -404.136200
-1222.523804 775.910339 -387.660522
-919.733765 579.993164 -57.898670
-793.205627 871.405029 -77.695313
-608.277710 908.591309 226.168549
-963.796997 780.578796 107.619888
-913.479675 547.762573 -78.400314
-805.002380 666.631348 -185.246307
-1399.750610 577.250366 -128.964767
-1223.154419 791.836426 -377.297791
-965.847534 553.447144 50.502510
-663.217957 783.078552 383.029358
-831.756714 786.344360 -83.682999
-1191.908691 921.293701 -384.035706
-810.798218 844.577881 218.688354
-1165.371338 949.502380 -266.348267
-600.963806 910.752808 255.761093
-1235.321655 1041.896606 -224.352646
-799.160034 795.945435 269.850372
-716.549866 799.764893 340.627319
-1214.158691 865.580750 -352.000214
-605.778198 856.491394 352.708740
-856.476807 812.445129 -37.485218
-638.481140 857.381409 313.741486
-1244.670532 1060.143311 -148.360626
-1283.327759 654.175232 -312.254730
-911.099548 693.998657 19.289175
-782.831238 881.091370 193.300980
-811.858093 704.778381 -187.194931
-871.258179 728.817932 -38.644253
-844.050842 637.473145 -115.215553
-1178.293579 959.757935 -369.993652
-965.598938 688.715271 130.996307
-1170.202026 1007.653687 -261.217712
-865.695984 729.003235 -47.280083
-1381.452148 667.322449 -151.135910
-841.460449 728.062744 -51.038353
-707.298462 890.297241 201.773727
-641.305786 836.088623 344.922974
-790.633057 833.546875 223.482147
-1207.674561 778.360535 -307.703522
-1288.977661 1017.341187 -197.421448
-804.256470 721.723877 -148.657364
-1248.386963 1129.483643 -163.574707
-1156.842163 948.918518 -372.949951
-921.927185 533.538452 -68.772926
-830.408386 626.819153 -202.164673
-787.821350 818.105713 -174.046127
-818.082458 647.088562 -139.485016
-916.640015 810.731567 95.763466
-1363.872559 696.178955 -139.697510
-905.818481 639.590942 -50.568851
-1159.191040 968.268433 -369.004547
-1292.663696 810.167664 -193.012695
-924.269348 522.209900 -30.677406
-908.446777 547.915894 -143.292786
-1310.917847 1244.007690 -42.167831
-1130.386841 780.092834 -172.735123
-1147.000244 956.798584 -419.266266
-1157.489746 985.089478 -362.197510
-933.676208 483.665466 -25.331076
-1313.896240 607.598816 -262.501251
-882.013428 600.708801 -62.398529
-808.037537 764.278992 317.858124
-979.703430 739.024353 130.844666
-903.981873 619.722412 -62.147957
-1136.198853 1045.371704 -400.047180
-1117.581665 1018.228516 -417.794922
-1369.528198 678.063049 -155.897110
-849.694824 741.445679 329.698212
-1382.808228 573.164978 -169.619003
-954.994934 589.538879 62.775459
-655.720337 893.695923 219.087296
-745.308960 785.363098 330.928711
-1181.223999 676.611572 -329.095673
-1188.500732 1017.887329 -246.739578
-870.192261 684.514221 -43.324703
-1161.960693 928.350647 -408.422760
-1183.719482 747.806274 -478.785706
-1425.363892 856.686646 -3.264062
-932.657166 549.304199 -16.389614
-831.282410 802.600220 -66.401062
-730.712830 848.214478 249.103729
-802.604248 821.272400 249.451828
-1193.821411 884.964844 -161.787918
-705.371887 921.654175 163.451309
-1227.140503 1144.601685 -95.745598
-1176.300903 850.611206 -213.529617
-887.475586 681.945618 -29.675598
-948.816101 669.999756 95.887314
-1204.885376 722.514832 -413.459320
-779.620056 773.739502 -194.068771
-911.525818 858.308228 78.771103
-696.140076 879.367676 225.051956
-1297.893066 779.204773 -241.316010
-728.144592 863.238098 232.741165
-606.101196 869.971191 293.333801
-1310.640991 757.713745 -225.743988
-629.571289 873.590637 285.279663
-1103.736450 1037.755493 -421.216095
-814.507935 636.083740 -226.539093
-924.271057 869.705444 108.512123
-1213.206543 849.353149 -336.576874
-704.119324 815.161011 301.386627
-1315.953735 652.862915 -267.636322
-782.526428 787.644592 292.311615
-862.371887 752.980103 -56.023613
-1401.112549 679.949036 -74.399239
-804.605591 674.151245 -216.731674
-1232.231812 704.412720 -396.196442
-1257.286621 1194.290039 -111.136276
-1330.588135 809.880859 -190.998032
-804.606934 811.043030 241.336563
-710.145142 786.237793 351.751587
-1374.313965 575.535339 -151.391830
-874.373108 876.733887 8.655051
-750.617249 785.642334 331.815765
-744.573059 780.668396 351.866180
-1165.919556 855.633911 -412.657318
-848.141479 734.042664 -86.691582
-612.332703 928.847107 226.771851
-941.071960 523.649170 -50.096630
-688.293030 928.398071 163.110031
-1128.037109 768.238220 -177.651245
-889.125916 808.241333 46.992882
-1240.515747 601.136475 -387.819397
-725.077148 932.476135 145.143936
-1214.266602 712.407104 -387.537506
-927.398376 531.823181 -4.195893
-860.665955 749.929321 -18.002199
-901.777832 547.231934 -137.709488
-1256.339233 774.849365 -133.450912
-787.740295 734.903320 -188.026520
-931.892822 579.033447 -0.390364
-1249.091064 821.377075 -280.279602
-599.459961 915.755371 254.440125
-1184.108887 882.260681 -363.241455
-792.601013 807.291748 -188.101685
-1234.357910 848.024963 -355.461823
-968.136902 570.243835 83.385559
-858.671875 741.668579 308.105713
-1211.288574 762.380676 -311.533478
-789.237915 784.286743 -117.082870
-721.702393 844.063049 259.215637
-1289.794678 576.494507 -312.189545
-726.724854 917.868286 167.244705
-830.673767 896.959473 154.360687
-1229.590210 744.567200 -329.623840
-709.135803 931.206116 149.670898
-760.492432 840.599854 -168.738358
-809.310791 843.296082 198.749084
-835.232239 828.147766 244.060150
-853.308899 596.798462 -177.599960
-1154.075928 882.904175 -437.783997
-839.383118 625.859497 -135.837662
-1116.367554 988.467407 -424.972137
-1301.559570 752.125732 -219.835220
-1152.669067 901.015930 -403.522858
-801.449707 852.233582 216.866028
-1228.516602 635.355896 -432.361603
-615.168396 891.363647 240.529282
-1230.318726 888.781311 -295.595795
-1386.646606 569.136536 -137.179352
-887.748840 748.116394 28.707109
-1356.909668 594.261292 -112.072189
-1401.627197 748.468140 -47.972622
-978.936218 726.838623 102.102745
-635.479004 872.507690 285.098206
-945.296265 579.671936 0.294084
-1355.568359 595.433044 -224.059921
-1295.204590 800.816406 -195.997742
-724.832092 828.564331 280.257935
-743.496948 937.105774 117.360855
-1178.593384 844.197815 -432.527863
-895.889343 895.340088 95.636627
-1189.192505 714.813538 -335.904297
-1197.977295 889.666260 -390.885498
-918.394958 797.917419 57.879356
-825.495972 664.877930 -217.331894
-1263.616089 1090.181641 -112.286690
-669.867310 815.832153 405.326477
-659.323059 836.994263 336.587494
-1195.773560 922.681519 -346.862091
-1412.265625 784.603333 -52.024208
-874.793640 776.637268 -8.525606
-825.850220 856.612305 198.656067
-773.608215 788.234009 -158.559006
-889.973022 813.189026 220.518372
-1206.302368 634.237488 -461.008301
-1285.763550 1058.066772 -117.092712
-1305.857056 796.654297 -139.375748
-865.947632 797.789551 232.171494
-707.783386 838.966125 292.163239
-1231.491211 648.230103 -379.831299
-752.517761 783.483154 331.484283
-1238.526611 790.863892 -339.081482
-918.973022 752.823242 76.403503
-881.149292 573.914063 -52.174011
-1316.040161 728.755493 -233.035507
-964.458435 610.201965 67.586311
-889.023254 517.233154 -128.711990
-1118.621826 1072.612671 -326.739532
-619.806641 901.289185 241.050522
-924.938843 614.653259 34.186550
-841.006836 867.192444 152.332306
-857.060425 605.923767 -202.801620
-877.680603 572.000732 -107.482788
-1390.880859 630.906677 -142.540115
-933.719727 801.134644 128.751465
-1285.681396 642.585449 -315.975281
-902.863220 511.807159 -138.076721
-879.429138 839.067810 16.191004
-790.718018 814.480591 -148.964752
-742.371826 952.158936 85.829094
-1336.563843 766.549438 -147.564621
-828.582886 768.536682 -66.149895
-785.495728 929.652405 127.492729
-923.851074 524.727783 -45.369076
-871.423584 766.701050 281.891205
-878.010620 558.673157 -77.370956
-903.885254 534.537354 -129.508347
-842.351257 690.336853 -69.727348
-866.600647 654.812622 -38.236153
-716.968079 738.659485 419.528290
-1169.270752 931.156677 -407.152191
-950.041260 729.581970 64.587921
-780.462646 753.484497 -157.614410
-946.992676 674.241943 41.456367
-858.519531 894.351807 22.216604
-1255.878906 1147.210449 -141.919357
-1267.179321 1156.411133 -119.090195
-1169.847656 851.616638 -442.327850
-734.450623 857.841492 238.520187
-1305.380493 721.276672 -256.010742
-1360.258789 725.467590 -152.711014
-804.375000 714.196838 -241.355682
-786.100220 787.850891 285.904297
-638.251709 870.345093 262.276123
-967.533813 624.387451 55.409168
-1307.949829 685.724609 -264.153229
-840.351868 677.895386 -72.790382
-932.015747 813.457581 53.034634
-1197.621460 1076.965210 -127.700165
-947.437744 715.782959 72.825211
-1235.247192 747.645508 -297.539886
-749.725708 881.120911 183.208313
-890.960144 564.687378 -81.826035
-1349.034302 696.888184 -168.954147
-890.191406 818.636108 9.928873
-584.353638 929.521606 295.013580
-1179.566040 702.773071 -486.238342
-1137.703857 872.826721 -447.615967
-1379.108032 614.418945 -197.155029
-1195.591187 670.753784 -433.096252
-873.327393 832.937744 210.570053
-1329.642212 803.257690 -154.368637
-871.913330 761.801880 278.678314
-1338.720093 670.196899 -224.006561
-1228.663696 1049.255005 -213.672745
-1212.108398 1017.524658 -247.732376
-1125.914307 864.830811 -466.642578
-1196.128784 912.172852 -153.437729
-1176.154663 822.948486 -427.899872
-711.284241 924.418396 157.427322
-1128.616211 1088.668213 -368.513885
-1184.842163 701.866699 -450.065552
-828.887939 674.920166 -118.351776
-961.270386 564.056519 74.178314
-947.570374 743.919800 89.080482
-1221.432739 616.446594 -429.293518
-914.044556 523.216797 -38.844234
-1178.984009 848.695007 -189.546234
-581.590088 931.742737 280.140533
-1262.011597 709.399719 -333.291016
-596.206543 908.562927 249.702972
-768.598633 830.202271 272.959717
-961.498291 804.448730 149.648056
-633.513245 842.974976 315.637360
-968.408020 759.523071 102.487587
-914.515747 514.745361 -95.458527
-720.206665 811.999634 313.560883
-1338.907471 731.887817 -174.242599
-1194.750732 968.823486 -329.753571
-924.127869 642.507690 17.661890
-788.371643 877.152710 191.725662
-822.978760 636.793091 -177.107529
-1255.957886 711.358215 -324.250244
-937.023499 523.504089 -16.958530
-873.302917 606.711121 -99.325371
-861.576477 838.148499 211.685852
-944.719238 652.498596 44.826401
-1324.861206 633.694397 -224.177826
-772.267151 849.860352 229.912689
-1186.140015 949.650330 -215.010361
-770.635620 872.664063 193.650253
-706.806946 951.112427 127.546196
-840.403931 758.352417 300.226959
-997.259338 749.100159 142.971344
-898.164673 544.788818 -128.240555
-917.274353 767.134460 78.841370
-1230.143188 597.630981 -424.948792
-1422.872559 712.377686 -51.821182
-619.627197 875.657410 267.967957
-909.679810 548.946899 -59.073723
-1132.785889 1021.562683 -348.016937
-1328.770752 756.510193 -190.092941
-1169.728516 939.879639 -253.891098
-1311.416626 770.851135 -231.477219
-930.762573 537.294556 5.317011
-984.585449 627.272705 100.444893
-913.795776 526.005737 -102.476128
-795.996277 823.810059 236.345383
-669.436951 801.949158 366.863159
-958.918091 674.455383 113.257095
-929.954834 701.851624 50.705364
-1360.051880 639.424988 -182.911270
-1131.345947 1004.293457 -302.682892
-774.214172 803.356934 301.338654
-664.345886 810.349487 348.883118
-767.630005 857.227417 232.874542
-762.296326 904.037292 -58.996956
-1111.286011 1039.621338 -440.763245
-622.606812 881.624268 280.470612
-780.573486 721.281555 -215.042511
-810.583069 715.321838 -162.559143
-613.724243 917.965881 209.565887
-835.209106 624.448547 -171.651047
-924.533142 865.485962 95.015961
-870.545044 799.164001 222.563171
-1254.727173 648.056519 -405.890503
-599.055481 921.426208 286.450500
-1320.122681 650.625488 -234.129150
-688.245544 779.190796 375.608429
-1154.783569 895.967773 -407.242798
-833.236145 625.434692 -137.907394
-1267.575195 674.269104 -328.955719
-609.752808 862.520203 335.927307
-1235.234375 1082.891846 -160.074356
-884.622314 639.482727 -50.695175
-890.188049 714.878113 -14.518126
-777.229065 777.532166 328.474274
-771.422668 870.362061 -103.011101
-1256.695068 843.552612 -244.723022
-941.540955 507.589569 -37.521618
-678.938965 859.372742 -96.548874
-591.896545 934.958435 221.048340
-761.095886 835.786560 265.627747
-934.660034 760.553284 107.286263
-879.942200 595.673889 -96.667236
-1173.099243 694.387939 -483.378937
-971.970032 562.754700 68.454605
-1170.194092 919.609863 -367.744873
-1198.904419 815.597107 -158.680099
-832.512085 718.537537 -69.805305
-675.460327 899.367859 204.950760
-760.013367 842.826477 256.818390
-1382.669800 602.758118 -162.190125
-696.857666 841.310242 -139.961151
-876.987488 903.758850 18.995876
-766.421448 751.272278 374.317932
-1172.386108 734.096924 -452.158722
-609.981140 867.952026 291.834717
-1256.663208 819.706787 -255.673477
-1220.051270 832.089844 -362.749634
-1274.053345 1199.186035 -58.786690
-1181.231323 936.345947 -390.326172
-1264.628052 654.781189 -389.585541
-872.342041 559.027344 -148.874512
-866.943665 768.897095 -31.371435
-860.641418 822.361023 -2.351053
-885.633179 538.299866 -133.927521
-1090.125488 758.482666 -232.299881
-709.663574 852.596497 264.552216
-665.545410 894.360046 242.999878
-867.374512 484.588348 192.189240
-1220.806641 700.984192 -335.971924
-1309.082153 625.977356 -291.247955
-918.798462 679.252747 34.019623
-840.817322 839.494263 197.444992
-604.887329 861.374207 -63.849297
-675.218689 909.581177 211.502075
-942.077087 522.519409 29.337955
-806.006042 896.230530 130.432877
-1234.166260 649.960510 -436.186829
-859.077637 813.777466 -11.988825
-1219.309937 946.200562 -268.203064
-1160.907593 970.939514 -352.208435
-774.475037 797.953430 -166.180908
-860.831726 749.708801 -34.682999
-745.918396 775.950378 363.762054
-1223.857788 680.590027 -350.323608
-766.311646 837.219971 -147.122055
-1204.476074 665.905334 -461.998596
-1261.699463 1094.023071 -120.140823
-1210.493286 933.212952 -202.716034
-787.589966 746.538513 -191.860977
-1209.518066 901.320435 -334.728058
-1305.812744 692.340515 -298.685791
-641.681152 841.508789 347.572784
-1235.124756 1096.587036 -182.596222
-877.883118 830.891907 -8.686673
-870.401855 572.245667 -135.908997
-861.490173 592.167175 -100.729530
-662.015930 865.126831 259.323029
-1298.134399 625.145386 -337.083832
-1310.912476 814.010559 -183.105637
-978.141602 645.637756 93.122162
-1110.621826 1062.658936 -431.230255
-694.298950 804.507080 355.517120
-1228.639038 804.658447 -324.099335
-949.136108 522.747253 14.653464
-852.305603 519.672974 240.823227
-863.401733 851.890015 -16.723951
-1181.318237 811.274902 -428.274536
-907.578491 696.766479 6.150759
-611.855713 903.377869 283.123077
-1404.021851 580.604858 -121.295601
-897.135254 552.495422 -82.742889
-860.870850 722.630005 -57.001671
-788.594666 780.066406 -161.057388
-872.917847 723.996094 347.883728
-913.181580 653.786743 10.196604
-797.120422 887.558533 -84.876610
-1203.933350 748.068970 -410.584534
-881.277832 770.271851 281.769958
-840.429749 648.693481 -215.474167
-640.106873 872.346191 312.046967
-934.237610 736.373413 67.261047
-1232.139038 607.286743 -422.797516
-1292.835938 673.103943 -320.345856
-867.520508 691.602600 -44.458179
-627.758057 924.531128 203.714050
-675.843567 830.132446 297.427277
-676.663696 947.318787 101.858315
-1188.408691 1021.378052 -246.817261
-625.171875 897.355530 238.972061
-1186.751587 673.228210 -419.596741
-712.095154 957.199646 65.232574
-976.631775 637.066589 135.768204
-925.235840 606.397278 1.479233
-1123.731323 971.125610 -371.912201
-1236.601440 851.795288 -315.866638
-780.012573 796.118530 -155.302429
-1202.809204 823.794678 -357.089294
-842.652832 617.097351 -150.547791
-1139.929077 1096.809570 -325.385712
-927.190491 715.767639 27.224798
-1209.953003 715.574890 -349.780396
-948.017456 534.022827 -0.396266
-1174.719727 839.397400 -424.007813
-1231.141479 798.786560 -354.608093
-1246.061279 771.062622 -242.988083
-1213.444702 834.032593 -391.981873
-651.445618 849.016541 290.729767
-901.139465 868.259460 30.437984
-1292.299438 742.833008 -263.338104
-1215.321533 771.108887 -404.775940
-805.948975 817.628174 -95.277069
-835.955627 763.533569 296.937653
-1092.244873 766.436829 -197.860550
-914.417664 640.039612 -1.696393
-1344.845825 630.200317 -266.220337
-799.023804 749.575867 -225.512680
-1070.248047 795.304688 -189.173950
-1333.490723 601.358459 -121.869820
-822.164917 729.630005 -147.565491
-884.810059 892.289124 28.200871
-1136.899048 1015.818970 -406.850464
-1175.085938 797.970642 -439.805573
-1299.671387 713.826721 -295.069885
-989.772156 781.457642 156.158234
-1234.053101 950.737671 -275.563446
-1277.829346 629.719727 -334.095764
-649.011414 945.684143 166.340240
-695.027039 783.697998 409.613831
-679.493164 850.337219 283.383759
-921.826599 699.699036 43.349682
-1150.828613 993.017883 -379.281250
-861.810974 783.988464 -21.720892
-892.507690 862.595581 30.054743
-676.304443 790.670166 378.574036
-875.272522 567.012085 -69.540390
-817.029724 702.951294 -129.677002
-1190.481201 965.534546 -251.514038
-855.966980 819.327454 -20.736713
-996.089844 688.034546 115.180962
-1203.691895 925.607056 -255.292984
-710.119019 789.390442 338.864319
-838.166077 817.782166 -67.287140
-800.679443 817.672241 -125.662010
-764.178650 883.236633 185.464569
-871.409607 531.616760 -156.873428
-1233.859009 671.202026 -377.656982
-1330.179077 716.878113 -161.717896
-680.517578 797.920837 354.271118
-910.631836 753.493591 33.868881
-884.135620 703.309448 1.871526
-591.414673 926.251038 224.219315
-681.235718 944.075134 135.839218
-1155.868164 878.157898 -453.878265
-803.626526 658.635925 -208.750565
-1251.316162 844.477417 -261.377136
-803.050476 773.837646 319.591980
-1169.394165 749.259949 -336.491211
-1353.640503 748.652954 -106.795753
-1194.217529 962.565308 -254.157959
-1215.322754 968.277710 -298.102600
-1141.516113 1083.287720 -373.848877
-797.058594 896.043518 150.767960
-1189.220581 640.263550 -478.573090
-1280.450073 578.631409 -328.041992
-854.537415 591.407227 -113.268089
-1320.571167 720.472351 -236.037277
-1227.403442 773.899841 -367.331055
-794.123413 762.091248 338.052307
-903.005920 783.591553 26.761675
-865.929382 567.224854 -152.250626
-1414.699707 769.428223 -46.221584
-1307.343384 680.993713 -113.554459
-687.785278 798.615784 386.847992
-870.957825 679.353699 -88.895424
-1190.776367 936.403625 -331.647308
-1192.256592 951.562012 -246.595398
-1187.918335 697.312439 -443.943146
-1244.586304 777.999512 -335.551636
-625.680542 944.759521 172.149521
-1187.863525 723.904480 -450.787048
-815.306641 727.136414 -116.354637
-739.003174 780.018616 358.266327
-1310.119751 1192.432129 -24.229597
-1181.081543 664.756836 -481.259735
-1265.730591 674.745422 -337.218018
-1002.256592 674.148804 155.299469
-680.815613 890.699524 212.980255
-741.911194 825.608643 281.772736
-730.712891 817.159058 279.991943
-945.973877 487.665833 -21.135715
-965.758057 580.162659 59.994106
-790.030457 713.963440 -188.746323
-1184.044434 776.050903 -458.880951
-1314.845703 739.451233 -194.854691
-1192.746460 674.526733 -405.391327
-1196.069702 747.250427 -457.184662
-633.433838 856.658020 331.214935
-707.289734 891.232971 207.042679
-1325.717896 713.167603 -186.484192
-1086.482788 780.123169 -177.822113
-741.956238 914.100830 136.956085
-1385.310181 682.173462 -141.494400
-776.497620 754.911377 -160.743546
-1193.682861 795.897278 -415.248993
-1327.724731 612.763611 -164.172134
-871.430725 766.349182 9.983198
-853.410828 634.954529 -142.817734
-726.442993 909.132568 173.856598
-891.471252 790.092224 227.483368
-788.760864 727.327759 376.226868
-1196.484253 747.474243 -402.779602
-985.936523 702.377808 130.944046
-1141.055908 974.380188 -430.786591
-906.117432 543.079712 -52.325100
-1355.164551 740.158081 -109.769753
-1238.407959 715.850891 -331.718933
-1342.295776 767.538147 -129.236633
-1290.071777 721.388916 -126.065941
-640.101685 923.215637 195.100388
-1128.144287 993.452820 -378.758209
-952.175537 801.111084 119.717789
-1203.510132 715.402344 -428.084808
-817.979980 671.931458 -158.570404
-1232.368774 772.673096 -239.383255
-910.970642 561.646973 -77.218216
-796.734924 789.384216 -154.178894
-1184.603638 649.138672 -454.250580
-1287.646851 1023.936829 -157.742783
-1248.610718 651.757080 -367.800598
-764.488647 854.895386 206.153671
-766.162292 933.462402 100.088806
-697.266785 880.248535 231.511017
-870.299988 613.523743 -50.189827
-838.578369 857.336609 208.440842
-878.781555 730.346252 -18.861238
-1141.120605 753.276367 -248.666687
-1327.373413 715.069641 -144.407776
-864.609253 798.574341 247.222000
-1240.414429 838.095581 -259.668274
-925.668945 632.730286 -23.791925
-724.006836 954.944824 120.983734
-883.420166 552.578308 -126.092644
-844.354370 611.771606 -188.267059
-1184.087280 996.294434 -345.893158
-793.035645 735.180115 -141.329895
-1143.563965 1059.639526 -379.563690
-800.898315 696.943909 -208.884125
-1368.873657 650.959351 -118.984161
-934.892883 574.577515 -20.750072
-1238.416748 1132.684204 -98.803352
-867.292725 739.144165 317.983948
-860.982117 578.564636 -150.805435
-903.652832 570.861389 -41.084221
-1245.611084 1126.595093 -137.290512
-617.427490 892.001038 296.473053
-938.895630 506.089966 -79.108620
-1195.170898 698.813538 -423.593781
-801.984985 815.433899 262.282684
-1194.968384 888.807129 -338.950287
-734.242310 833.724426 268.636597
-690.347412 803.882446 350.904541
-917.231873 522.931030 -109.069412
-1210.163330 1072.921631 -134.579819
-784.295593 821.230591 -134.081451
-1364.523315 591.383057 -205.070831
-1204.381714 955.881714 -329.806335
-873.221863 729.396362 317.304779
-936.001404 533.382935 -54.775585
-943.626038 570.463318 -9.226965
-1172.671875 874.612793 -414.443665
-1118.312256 1005.365051 -439.414063
-1274.792969 1022.286255 -172.285919
-809.961060 696.951599 -141.359680
-830.063599 817.744568 256.610962
-1164.917603 961.786255 -404.059113
-1145.875000 778.126221 -476.531555
-1230.935547 954.334961 -272.994446
-892.856140 636.697449 -8.604507
-705.626160 829.472778 292.316711
-1240.411621 721.845703 -295.681061
-725.014282 777.366333 354.049255
-670.201721 839.833374 290.916748
-813.316040 642.021057 -177.940506
-888.308167 732.626831 310.929718
-835.159119 764.209290 295.548889
-1335.769043 616.635193 -246.854050
-1245.036621 1027.544434 -213.147385
-1192.104126 1087.301025 -116.897705
-804.760803 811.166626 -102.446404
-1270.660767 1041.406860 -150.472565
-870.333313 637.934387 -72.370987
-757.360291 879.130005 201.032867
-854.703003 603.406128 -170.326706
-1205.143066 883.359009 -382.426941
-803.507751 911.989868 144.876297
-821.776917 745.719299 317.719635
-818.565430 645.714844 -219.869003
-1213.297241 791.784729 -355.657410
-704.398926 862.561096 250.865051
-1310.858765 738.120117 -247.362488
-797.383484 809.038818 281.966980
-1225.764282 845.024353 -311.061859
-779.997131 765.568909 -193.744324
-791.101990 802.040771 293.156219
-1218.124634 588.415222 -429.717865
-955.432190 768.789429 111.119072
-898.383423 646.039124 9.224497
-770.477539 770.680359 331.912445
-955.292480 723.437988 86.607422
-785.533264 889.751221 174.590942
-1226.156982 752.418884 -313.681702
-1260.151489 793.526794 -264.207733
-1354.474243 883.145752 -64.849808
-1359.217041 619.965027 -118.592621
-1270.307129 1187.499390 -90.777573
-871.232666 790.569946 -5.716644
-800.245300 865.313171 190.020096
-1402.969727 830.397583 -40.760921
-881.279297 562.700989 -135.383484
-851.309631 859.867371 -37.308197
-1201.276855 762.934692 -406.130066
-908.892029 513.719604 -124.126320
-1338.311523 733.157471 -174.501617
-807.365295 671.991089 -165.402817
-685.690857 787.607056 363.565155
-860.838623 710.414368 341.030701
-675.989624 882.474548 230.531326
-619.718018 854.264954 307.678223
-916.288513 529.923706 -59.979519
-1155.958252 971.632629 -374.036957
-841.748169 840.996948 -12.517523
-1264.346558 1167.825073 -89.402489
-1132.292969 914.154663 -454.565186
-1166.075928 764.918457 -467.526947
-1240.764038 580.643860 -397.039063
-765.315735 861.283813 197.440048
-722.322266 809.414612 309.732849
-841.241394 575.148071 -187.020660
-832.522278 635.639343 -155.772690
-727.266785 824.564514 273.543030
-844.867676 789.778015 272.943909
-1148.621826 874.456177 -472.534668
-1302.419556 670.264099 -281.248688
-840.252686 585.229126 -146.255829
-1296.490112 611.542175 -308.063934
-801.566833 837.453186 234.952896
-798.905273 725.804504 -217.103119
-909.635803 871.035706 85.794106
-1152.506958 941.207397 -418.083771
-1260.810791 1049.191284 -181.181488
-786.895081 752.900940 -182.326752
-665.994446 917.920410 193.590103
-1158.196655 905.074951 -441.685547
-1206.114136 736.364380 -421.272278
-1118.949097 1004.327087 -407.688110
-1313.903564 789.429871 -202.814255
-1268.602051 1178.122559 -124.578323
-921.176880 742.007141 52.182308
-1279.371704 671.690002 -285.843903
-762.593628 949.821655 63.314674
-1253.427856 841.971069 -284.139343
-1326.098145 590.852905 -243.583405
-790.329163 744.297791 -164.318314
-1244.411621 705.367249 -354.819214
-1283.630005 584.789734 -314.496490
-1115.593750 973.131165 -432.951721
-796.485168 827.531799 226.445877
-1225.593262 866.601746 -336.197113
-1104.517578 995.447876 -439.136505
-1298.916138 648.500671 -318.120911
-808.660706 681.056335 -236.734573
-1143.659668 1025.351440 -380.749054
-659.622498 852.796387 280.477386
-646.940125 884.478577 251.778625
-840.703918 820.690430 238.473145
-848.993408 627.603943 -86.234787
-927.823181 654.994873 6.242500
-875.548523 566.684570 -134.515961
-826.070129 760.852905 297.082642
-1186.588135 851.428223 -425.216522
-834.935242 704.882385 -70.873795
-861.044922 583.935913 -119.999084
-849.828308 775.273010 291.068176
-799.474976 710.844360 -232.553467
-776.805786 917.176147 146.047104
-1255.787842 616.155579 -379.125458
-901.851074 555.134521 -25.781351
-761.556213 775.352295 344.867859
-1151.285278 887.325989 -466.923828
-1297.067627 1017.435974 -145.636887
-907.674683 535.669861 -38.308636
-666.196106 904.997803 206.804260
-1130.067505 1004.861206 -440.084320
-734.282593 849.452759 231.581604
-1326.405396 799.804443 -192.884415
-1238.652832 881.369568 -185.298157
-844.360657 851.579224 157.880951
-901.344360 739.205872 22.921005
-811.124634 833.525879 -107.671875
-1129.155151 897.661194 -467.357330
-854.874817 709.676392 -41.660191
-1157.776245 780.401001 -473.797668
-1231.952148 657.250366 -435.551270
-681.526062 836.264221 295.022461
-1221.885376 852.074402 -366.913757
-1177.857544 713.032837 -468.873688
-1124.447632 1064.866089 -409.079010
-689.479248 766.923218 401.596283
-1338.637085 665.094482 -225.075836
-734.344666 790.114319 330.627136
-1363.894775 1167.129761 43.217678
-1339.720825 642.750793 -195.517532
-745.680908 888.618042 188.453354
-1152.035400 822.020264 -442.121765
-926.998901 784.485352 247.576233
-1400.896973 778.273193 -70.758156
-819.296692 836.775024 233.671005
-1260.148315 661.625305 -120.023125
-1263.517700 738.794983 -22.747469
-772.377502 817.730591 254.911682
-1285.577271 592.183960 -343.998169
-1178.957520 889.224426 -420.568665
-860.022888 580.760193 -135.867676
-916.066101 528.609009 -108.297615
-868.917297 742.899414 -2.095919
-1271.354736 878.529663 -236.005325
-825.357605 818.670288 240.682266
-846.555664 694.319763 -76.247978
-724.601135 896.072083 170.750671
-934.837646 516.400818 -26.591124
-874.835266 700.312012 -31.314980
-1139.358276 924.229797 -470.992279
-883.880493 631.035156 -46.005516
-803.856873 838.846436 245.641586
-869.422302 805.635498 -7.126061
-1182.076050 757.437988 -459.712524
-823.403320 634.084412 -180.364304
-957.077698 581.723450 45.209400
-655.551880 862.673096 275.196747
-869.176575 818.878601 -0.816617
-1166.048462 840.524109 -433.991394
-1161.930786 824.813171 -216.937332
-1152.353516 867.000793 -469.547516
-1320.809692 593.146790 -282.651855
-826.188599 885.003540 -12.159285
-779.172424 917.477478 111.205338
-1209.224976 1094.542725 -131.178574
-1358.222534 642.280273 -172.694412
-1335.099609 645.571960 -232.449066
-837.607300 691.353577 -71.847649
-966.124207 805.164429 148.363312
-824.337830 812.922058 249.035690
-665.511719 814.528137 339.534576
-766.591064 838.625977 234.481979
-869.797668 936.565491 21.471046
-826.876404 797.179504 -73.358795
-809.763550 673.483643 -157.351395
-939.326050 509.859314 -79.691505
-867.526184 577.992859 -151.065948
-759.247864 964.942200 74.445244
-791.040833 774.008972 318.103424
-787.995544 830.927124 248.416931
-742.450928 909.514038 173.072189
-947.992920 696.066711 68.591850
-908.597412 534.218018 -83.545654
-802.107178 726.185974 -181.690765
-1186.038940 705.238708 -336.324371
-918.111145 500.072601 -94.440094
-1343.369263 629.867615 -214.937592
-1295.917236 721.695984 -271.617981
-824.400818 640.926086 -161.429459
-1247.995239 1102.341187 -149.355255
-1130.006714 1022.899780 -418.438568
-799.127441 718.388733 -154.518295
-1257.203857 1211.510010 -119.068565
-1173.813965 915.466797 -280.997742
-650.314331 931.929688 176.624664
-953.789185 559.611694 -0.955057
-1152.375610 1017.769958 -352.818878
-1416.875610 631.059204 -98.960388
-800.559875 654.100098 -193.713303
-808.871033 795.500488 284.334625
-805.475037 733.270447 364.452087
-1173.262939 1040.247559 -309.635315
-1234.485962 588.729614 -403.742218
-770.686890 813.222107 -118.758850
-1124.370239 999.384277 -324.309479
-827.912231 642.884705 -230.306915
-1221.045898 901.803101 -312.511841
-1254.686035 1113.971558 -143.093750
-1267.842896 857.861572 -236.890244
-823.448914 810.413879 250.408737
-801.635498 833.913269 -94.782135
-624.234192 832.328430 379.301361
-819.535339 675.576355 -183.119308
-596.104004 921.060608 261.705078
-804.127380 837.797852 233.549240
-601.233337 916.906067 248.157806
-1256.508667 813.470276 -236.225601
-657.503967 857.492432 283.477661
-852.741760 598.903870 -164.129257
-1212.442505 909.466797 -221.456589
-1133.450806 1013.050903 -377.770844
-744.168274 917.159424 129.889450
-847.025696 759.010498 -30.007017
-1191.959229 951.000610 -324.516785
-1126.682007 991.979675 -452.424377
-906.420288 533.697449 -147.121613
-1375.666382 674.699463 -153.935120
-759.987732 802.645142 -117.781044
-1221.548218 1023.637329 -235.104050
-1155.702148 957.871033 -390.702240
-964.581726 610.693115 30.076529
-1315.292847 732.356750 -241.447357
-724.973938 878.998962 234.369720
-1175.484009 752.906738 -478.013550
-898.189026 738.036621 35.644497
-858.493469 696.979065 -69.951683
-915.796143 863.787537 50.023098
-868.677734 829.881287 10.602569
-622.334351 903.784180 242.192200
-927.041138 509.013519 -8.836164
-1265.588623 1066.544189 -211.366531
-842.606018 873.870300 -22.331301
-1324.102661 733.948547 -170.373184
-1234.082642 646.786682 -401.780640
-1146.349854 1005.159912 -379.464661
-1240.141357 996.439087 -256.931244
-1318.920166 756.229004 -209.656387
-825.448792 640.985840 -189.739105
-657.173706 813.159180 351.097229
-1235.912109 776.078125 -348.753479
-810.192627 793.215210 292.975189
-836.203308 892.647278 -12.238799
-1229.300659 894.926331 -253.786026
-950.756226 487.760651 -6.138129
-801.807434 834.164063 234.242615
-898.232666 789.413208 34.684578
-675.636169 899.667236 207.674606
-1148.755859 882.386841 -448.202057
-851.003906 602.119995 -137.316025
-804.871948 653.081787 -182.731216
-1141.590454 793.797058 -466.099182
-1221.756104 697.246948 -361.462555
-622.620239 884.308044 272.196564
-1217.733887 648.714905 -422.137878
-1136.741821 965.001160 -423.802460
-1103.194824 1074.196899 -414.650452
-950.255371 601.517334 46.027367
-768.291809 825.269226 277.211182
-1369.833740 670.460693 -152.737961
-724.710693 766.148499 359.638885
-865.920044 595.671448 -98.136238
-1165.194702 774.892639 -462.801117
-1301.208374 1245.225830 -24.487579
-1261.810547 836.390869 -120.281242
-684.934326 890.384644 221.910507
-907.235168 523.825256 -82.871162
-685.885437 930.694580 151.037369
-948.104065 804.851501 117.202950
-1324.668213 806.336670 -167.730225
-731.299255 932.015259 135.180435
-830.854187 638.726318 -140.675217
-798.494446 773.495239 326.119263
-1224.098145 777.246399 -401.795105
-1344.096924 700.363159 -133.698181
-780.978699 802.373230 -174.718369
-1330.840820 604.011414 -251.007111
-1285.866821 1034.819946 -137.128250
-864.067749 780.055054 -15.971816
-805.675537 768.924438 -129.846420
-784.232483 810.019287 279.362732
-1248.143555 941.499207 -249.389755
-972.690918 800.361023 125.061882
-903.955811 537.648865 -70.150764
-760.348633 817.361206 262.970062
-884.907837 708.446228 -24.715263
-794.053101 856.479431 -131.852768
-818.679810 669.930298 -240.911087
-1352.013550 625.246155 -237.381699
-1311.826050 598.751892 -296.647522
-655.127991 947.389099 155.127731
-1151.741821 842.119751 -484.993286
-710.570923 943.704163 144.250687
-1239.928223 616.832703 -396.161163
-1333.449341 1151.447388 -14.430911
-928.625977 702.728516 6.096522
-794.380432 735.520020 -182.511520
-621.728943 869.870178 320.483307
-801.194092 671.016968 -168.317490
-1116.215820 984.399414 -449.781921
-954.086060 641.537231 69.353340
-1336.996460 684.558899 -242.379059
-1374.207764 665.895935 -141.775665
-905.481689 597.088806 -17.589830
-674.306274 916.500000 188.597977
-755.043274 864.465332 -95.907921
-1247.882202 1054.017578 -69.552223
-1167.186646 875.098816 -422.155029
-795.769897 774.296814 -131.596802
-1214.767578 636.354248 -458.527863
-815.891113 686.992188 -195.770386
-933.582397 556.186035 -25.629705
-772.204529 828.552002 262.023224
-1166.907959 791.852600 -463.676239
-1190.616699 725.364075 -415.186920
-1286.157349 720.445496 -152.578415
-1319.049927 708.208069 -242.651749
-1162.170654 886.446960 -424.987152
-1188.812500 701.218323 -474.166870
-815.656555 654.634583 -202.087311
-750.739258 773.189392 360.384064
-946.642761 634.292725 48.330864
-796.936340 712.553162 -159.307831
-968.175964 810.613098 155.852570
-919.190918 788.619873 95.581261
-789.217163 735.341553 -166.486969
-1339.562988 765.280945 -157.142365
-1258.239868 862.145691 -226.237946
-1297.463135 1207.242065 -3.997725
-907.992615 550.513733 -50.573280
-1246.268188 711.459167 -361.482941
-952.283752 689.818970 34.397964
-1240.688721 1063.518799 -178.209213
-820.032043 765.907654 307.130646
-1201.056152 867.536804 -341.143677
-1269.955078 1073.269531 -130.072876
-919.201843 679.538452 53.455399
-1199.081787 1087.604614 -135.533539
-917.184143 830.520203 55.120251
-1177.768921 864.459717 -126.614868
-763.890076 759.006775 349.166931
-786.226074 831.669800 244.787354
-666.724121 938.674805 132.316681
-850.232666 603.147217 -157.199234
-907.018250 793.332031 24.065485
-707.816650 924.997681 165.964890
-882.773804 826.316833 191.647583
-796.154297 811.568787 -144.330612
-817.286682 641.151367 -178.312775
-1227.883179 642.607361 -434.258820
-959.580139 830.663330 141.065277
-879.025085 746.956482 306.955017
-907.522278 904.676819 67.674545
-1156.402588 1103.531372 -288.292908
-891.034180 548.110962 -52.553493
-720.376343 853.007996 251.154404
-740.607239 811.066406 297.685089
-726.902100 862.254578 243.164124
-977.786072 797.256409 114.420830
-814.981873 659.027588 -162.702621
-785.257080 775.907349 -165.633224
-967.686279 548.630920 39.396446
-1218.445557 786.176941 -378.670227
-854.041382 659.937378 -92.481064
-1316.540405 786.518372 -198.595825
-871.571289 724.973389 -26.253014
-785.418579 733.931580 -198.558716
-690.495667 885.568970 224.464737
-641.575806 879.193542 259.980255
-811.999573 667.037964 -156.988617
-1174.598267 970.055786 -305.499542
-1297.397827 598.387451 -317.324280
-699.297058 850.158569 283.625031
-815.872925 778.779541 -74.226128
-890.849487 593.356628 -94.047104
-795.850586 773.325500 -179.532272
-841.607666 678.911438 -138.071625
-778.878540 866.346680 -124.772072
-1164.057739 956.312927 -412.695953
-763.816223 949.851685 89.000778
-1229.399536 877.989197 -291.677460
-701.503418 917.093079 165.728256
-1242.279297 855.968140 -284.093445
-628.583862 867.868469 286.790558
-786.772949 740.045471 362.420288
-860.544250 574.244629 -115.697136
-1338.836670 670.549561 -221.528351
-1162.797119 1054.140259 -326.808990
-1390.319214 649.834778 -87.787270
-1213.566895 669.547546 -415.822266
-1230.780762 617.041260 -396.540344
-802.482971 708.435120 -180.492310
-877.817444 730.061401 -36.677944
-1269.796143 604.197449 -338.470734
-1266.682007 791.307800 -165.222427
-793.576172 717.320557 -217.657120
-754.064453 803.412476 288.611053
-933.087402 762.074646 70.028358
-871.084167 773.573914 276.294556
-1254.707275 801.388245 -308.883606
-1113.709473 1004.400085 -424.573914
-1192.001709 741.168945 -407.095856
-636.181580 856.963867 324.060699
-650.749268 833.354004 309.437378
-1277.413208 639.626160 -304.094635
-1132.299927 1009.753479 -407.434448
-870.054749 782.215698 -13.606918
-1328.206421 607.482544 -255.953857
-891.870605 588.392944 -24.353144
-720.984558 918.599731 154.595779
-1181.214844 727.206543 -475.555542
-1296.775146 830.568726 -184.331055
-1246.546265 924.091064 -257.129669
-818.177368 821.094849 -75.261848
-895.798157 533.470093 -70.266296
-852.356323 620.814697 -210.636124
-837.684204 595.803162 -200.404312
-1160.714355 888.777832 -400.459503
-1208.219482 708.964844 -419.549896
-823.460632 656.512329 -201.461823
-653.297302 815.058350 345.224121
-819.168701 830.961487 235.935944
-931.358154 522.073120 -96.045570
-670.500122 918.639282 182.311935
-677.168274 781.368286 375.112396
-645.732300 838.507813 304.175110
-811.768494 785.556213 300.861481
-605.995728 891.024658 276.161957
-938.923035 689.140808 85.448593
-792.963257 840.442871 212.492905
-876.268433 574.163391 -154.245270
-1193.775269 972.285645 -268.909729
-824.397339 751.166504 -118.410477
-821.867737 638.947388 -189.538239
-692.352051 916.135803 175.356766
-584.778809 880.714966 295.635132
-965.512939 705.332275 57.882278
-1126.509766 746.236755 -219.460831
-1182.059814 698.075745 -467.806580
-936.167908 523.289551 -59.440388
-883.810974 566.858765 -85.994919
-848.520325 846.594421 171.724472
-1197.368164 708.878967 -427.434021
-770.867676 743.618530 363.082520
-904.290100 793.407410 241.111588
-1207.065063 802.449829 -382.435638
-1274.359375 1039.627930 -151.686447
-1234.620117 658.814392 -410.495941
-734.993958 788.358398 349.963928
-1255.891113 1082.060913 -55.735561
-907.807800 714.061279 12.761284
-836.407166 627.614563 -173.974075
-873.736023 748.738708 -13.518174
-858.746887 604.925903 -175.811768
-944.253479 489.831421 -81.507156
-701.057556 841.901367 277.991852
-1161.499268 951.688843 -267.551910
-940.318604 728.158691 57.665279
-849.918701 791.931030 267.297638
-1357.191528 593.570984 -143.882324
-936.320801 515.109863 -31.725420
-880.649902 612.068604 -38.606499
-933.908691 674.847046 74.448051
-1229.403809 650.463440 -443.592621
-818.647888 792.347107 277.500275
-1127.385132 973.616211 -300.376343
-764.711731 749.338501 348.363800
-1156.172241 835.257507 -142.493347
-1178.147095 933.424683 -258.023804
-772.342285 878.592163 206.491180
-1270.838745 1090.405151 -160.217880
-849.604736 600.570984 -167.408920
-866.041016 712.036987 335.232025
-1296.868042 569.202515 -297.999420
-1326.343018 1185.116943 28.391239
-966.516479 593.786987 69.898453
-749.060974 976.433167 95.712440
-839.384094 622.693054 -182.827026
-1300.461060 595.557739 -307.203217
-1215.638672 686.825378 -409.959106
-806.174377 831.904114 244.443130
-819.192993 753.632629 -130.699310
-1339.971558 743.828430 -165.223480
-925.751038 594.950439 -23.269989
-1183.306030 702.412415 -361.198608
-806.785034 713.270020 -212.984924
-768.624817 860.862427 227.956253
-919.638123 762.371765 254.458237
-816.304626 765.282715 310.324677
-724.446533 751.570068 396.930054
-709.123230 809.783508 316.591705
-603.144592 846.939209 351.218811
-648.053162 815.988770 348.888458
-802.098755 696.067383 -208.363876
-1137.907715 985.576233 -425.276093
-883.023865 606.987000 -68.139946
-930.800781 890.343994 84.680435
-789.636780 884.636841 175.426620
-1240.048584 728.535828 -271.239380
-1238.643433 981.665222 -205.038513
-1318.281250 620.499451 -296.302032
-738.562561 785.667725 347.205658
-765.393250 811.329651 267.472565
-1149.081543 836.487671 -440.962402
-1392.044312 596.384399 -138.494125
-810.365112 880.780396 173.678024
-819.988403 650.598511 -183.882538
-869.945129 738.244629 -24.060240
-802.651306 752.365662 -230.577957
-1356.961426 658.744446 -201.280701
-1173.784790 641.169434 -476.005829
-988.589844 651.412537 128.150452
-1130.195068 1007.618286 -434.660278
-1251.555298 841.079041 -331.349976
-914.623535 728.421509 42.929798
-829.406555 628.710388 -164.288040
-888.379883 562.322998 -52.933903
-1191.670898 810.561768 -423.937836
-1407.041626 620.709412 -109.178413
-1124.917725 1080.118652 -375.247345
-577.317749 883.768433 307.294708
-741.330444 734.226318 395.645813
-1154.774536 1031.508667 -335.604401
-911.271912 594.179688 -17.456215
-732.630066 932.834167 124.131104
-1161.357300 936.008423 -258.074677
-921.752625 702.272400 -3.783158
-819.775879 699.131897 -232.264648
-787.970215 725.015137 -243.491730
-1267.025513 653.514709 -339.237915
-1191.349609 828.074585 -405.540131
-878.961365 820.903381 22.164278
-1327.603394 765.416382 -202.626129
-1228.212280 697.061096 -337.771790
-626.035767 863.922913 290.139679
-1331.597168 772.496582 -159.942444
-695.822144 914.309387 172.961670
-893.586792 620.902222 -32.929031
-1219.522583 906.471313 -281.162628
-684.127686 801.134460 372.080353
-1319.903564 782.653564 -196.072723
-659.361206 936.656921 166.344833
-1342.716309 713.100403 -177.402664
-1197.478882 714.075195 -386.526459
-844.926147 832.487732 185.749557
-1205.365479 790.401062 -159.978760
-887.972046 561.692139 -81.433105
-755.167542 767.961609 356.405304
-1200.842041 815.146057 -113.354668
-706.016479 827.032654 306.887268
-923.558167 506.498901 -47.352478
-1200.948242 798.124207 -399.189362
-1148.235229 960.316284 -402.819458
-1306.650757 653.491150 -281.429321
-1234.361206 922.928040 -281.463501
-987.387817 621.883484 108.394859
-659.806091 904.787781 213.966522
-1363.189331 564.107727 -193.404007
-806.694214 702.366333 -161.767502
-1143.199097 1051.977051 -400.475128
-848.967224 604.991028 -196.609253
-1275.683716 1026.714355 -189.225174
-805.997864 707.409729 -224.226700
-1263.164185 1085.367920 -151.284256
-824.402161 746.067383 324.747009
-1169.600098 957.600647 -322.089508
-943.720520 815.920837 115.000259
-642.435120 866.995361 278.540955
-1183.715820 962.202148 -288.836212
-1362.366699 632.690430 -178.343185
-1153.109985 1089.811157 -324.881927
-798.704102 828.977295 -90.818069
-1356.022339 743.385376 -157.665619
-954.466125 532.754883 8.775115
-809.938110 743.984497 -133.629669
-975.469849 596.803284 98.255173
-832.209900 854.925598 208.588074
-824.033569 634.821655 -162.061432
-778.118164 860.490967 218.982513
-1382.669067 612.780701 -182.142822
-975.024658 539.284973 45.829147
-719.549011 968.024048 59.512608
-889.161743 566.993713 -61.834427
-853.702881 898.906006 -12.330413
-879.109192 787.326416 234.204407
-1231.285889 767.424194 -303.585297
-686.822021 810.195129 341.747955
-786.774353 741.825867 -221.284668
-865.752014 580.990234 -139.942337
-847.189270 821.890869 223.759277
-866.974121 632.685303 -73.201302
-1149.866821 960.691589 -401.742462
-1233.018921 822.554565 -345.025330
-871.371155 494.886688 172.290680
-822.310791 628.703491 -154.149246
-1268.236816 1037.335815 -116.072678
-1230.312866 744.962219 -361.897064
-1223.473755 686.420837 -369.674957
-1131.838013 927.212646 -426.214935
-771.020874 836.684570 229.883194
-1184.123169 945.332703 -334.662201
-1239.644897 768.890930 -235.864319
-826.727966 622.895081 -210.212921
-1212.477783 917.970337 -217.785889
-686.145081 859.806885 256.307983
-1149.760864 958.826843 -421.673645
-1237.576538 1178.948486 -133.956024
-910.251099 667.542603 -12.506282
-615.172546 889.054504 246.566116
-787.004578 700.205139 -210.862488
-1422.789551 810.911072 -7.730153
-1342.832886 597.422974 -241.114044
-1322.297241 709.706848 -222.537506
-958.503723 483.699341 -71.670860
-787.095886 706.605835 -183.301987
-1004.235413 572.666016 97.904045
-765.486389 854.938477 237.275070
-1279.143311 728.884766 -288.455322
-1226.787598 886.728882 -314.203674
-1258.809326 869.788208 -182.702133
-985.765930 721.734436 92.728607
-1339.887207 711.403198 -178.259125
-860.152466 684.157837 -72.153992
-789.118896 956.131531 100.791832
-896.465942 855.250671 32.963108
-1122.248657 1055.247559 -403.389282
-1239.491333 677.933777 -411.012451
-1432.455322 849.603333 -24.238132
-838.396240 761.435425 -66.081467
-1150.445313 848.708862 -460.101990
-818.543274 706.544434 -122.159706
-1439.408569 801.133118 -32.537094
-934.544373 533.177979 -6.661549
-831.462341 697.010132 -80.211716
-1236.035278 613.552551 -420.127472
-664.106750 857.685120 262.392914
-1189.458252 989.605042 -258.822510
-791.229431 858.341248 216.729767
-788.548218 735.486511 390.274750
-877.766602 730.265991 6.834463
-678.801941 803.538818 -125.989899
-877.994507 874.198425 46.443356
-1275.743652 745.235840 -110.919022
-1293.682617 635.648621 -311.872040
-1380.883667 610.731750 -109.552727
-787.081299 739.779907 347.131927
-789.322083 697.811951 -231.567337
-1350.289185 615.851868 -167.776291
-802.875427 784.725220 333.908051
-1208.740112 852.229980 -367.325745
-638.807922 883.374512 267.383698
-796.390808 833.603760 249.821075
-712.291321 785.338440 377.002777
-824.891541 833.117126 230.488998
-608.715515 918.625061 226.996979
-845.800537 634.610352 -198.176849
-777.374939 841.692078 248.807465
-820.576721 677.449524 -223.980896
-815.435425 641.200012 -168.032486
-1232.443970 865.866028 -347.692139
-1238.989624 823.786987 -349.257233
-1203.325562 648.111572 -459.056671
-769.060852 774.380920 -184.970810
-752.638733 801.671936 289.690796
-897.254883 758.709351 6.161773
-620.502197 897.191284 231.204086
-840.117310 763.245117 285.026703
-747.863586 783.586243 324.869537
-1361.572876 597.290894 -119.977097
-1325.152344 781.358704 -153.165405
-792.293518 750.247253 375.257660
-725.574341 951.041016 120.103508
-907.161133 780.611877 44.840622
-1258.612061 836.531860 -253.241119
-1208.749634 673.466125 -463.592896
-656.302856 813.433044 353.049896
-1291.008057 691.268677 -141.602280
-872.378540 673.477783 -72.396797
-825.881104 674.708252 -122.615364
-744.845276 738.401489 376.240601
-1153.567383 1061.331787 -362.601715
-823.828735 786.921509 268.912506
-849.173462 744.699951 305.307068
-1214.856689 869.067505 -374.039490
-958.779480 587.142639 53.175037
-813.338318 719.612671 371.226349
-755.381348 954.417175 80.153954
-769.492432 852.060791 212.837341
-1238.340820 804.640320 -353.269653
-913.676819 669.615479 19.975782
-1226.942505 615.847168 -434.450989
-919.641846 803.955078 31.267139
-1155.137207 949.805664 -432.195557
-841.931091 599.273071 -145.544601
-914.657532 562.673340 2.438329
-849.574646 697.625854 -107.141609
-830.582764 650.335266 -214.663025
-1223.262329 667.480103 -421.007355
-841.770142 816.000183 -44.049149
-864.999695 572.113708 -105.168396
-882.310913 560.362244 -105.415009
-1284.884277 673.036743 -312.337463
-1139.992676 947.931152 -442.988770
-1265.524414 996.869995 -182.968658
-1304.470459 756.195923 -241.818146
-1119.991333 1000.464600 -428.230682
-923.741821 625.445435 19.877142
-1255.683350 881.698669 -284.687073
-803.524109 723.970032 -198.925735
-701.809937 808.014832 330.041626
-927.146790 709.177124 54.814400
-731.477051 897.592773 164.609863
-576.775024 854.297791 -74.041496
-772.550659 765.140137 332.667816
-1333.105591 684.778625 -245.076584
-673.889709 792.324768 369.641693
-831.555054 729.315613 341.150604
-1337.122925 601.292603 -224.764343
-640.657288 837.846619 320.627014
-1247.574707 1094.578125 -183.528427
-605.433655 917.867371 233.508377
-1124.408813 975.052307 -408.167938
-772.733398 755.488220 -222.516235
-649.287476 820.493408 341.986237
-851.631287 612.229675 -108.591949
