ply
format ascii 1.0
element vertex 1370
property float x
property float y
property float z
end_header
502.354645 -151.377609 -1445.298096
833.754272 -278.874634 -1285.869385
651.994873 141.413940 -1074.148071
733.207397 -76.535316 -904.166565
556.122925 51.730995 -1062.912720
496.939850 73.368813 -1054.987061
921.536133 -88.401703 -1383.577637
490.645905 -139.335968 -916.007202
840.886414 -268.274841 -1269.513184
578.011780 -331.689423 -1347.050171
663.428101 337.440948 -838.492981
533.337708 -282.448181 -1387.869873
398.895294 -103.522057 -965.898438
439.397003 -125.679169 -938.336670
649.046265 -164.275620 -876.785217
747.895630 239.199310 -842.937866
482.284546 -292.313995 -1404.536865
841.817017 -400.388885 -1232.541382
808.573120 -267.689484 -1332.548218
592.780823 344.704437 -909.578674
608.825745 -66.530060 -914.626953
562.893555 405.328949 -875.638062
770.946106 -426.008179 -1215.128540
669.532776 400.352875 -772.386963
568.346252 383.492340 -890.395325
740.293701 -412.053406 -1251.436523
484.021912 -147.463730 -915.427185
433.688538 -245.349243 -1426.271240
668.671082 -422.859558 -1255.175537
665.668518 225.119293 -998.282593
546.484436 -127.228050 -891.637573
592.389709 349.483673 -903.615356
598.540771 -156.660904 -1406.362305
497.422913 -295.620972 -1382.431274
694.856506 -463.357758 -1232.721436
497.699799 -140.245438 -922.096558
829.854309 -150.105057 -1373.813232
872.346436 -175.215439 -1368.446655
693.559326 290.277832 -855.461853
765.640137 293.692596 -773.079651
509.468475 -419.718933 -1297.120728
482.311676 40.101620 -1045.736450
635.295898 104.539627 -1065.358398
760.003052 328.347321 -748.198730
946.781677 -351.159363 -1221.889526
802.117249 209.812988 -853.022278
751.909485 -105.816574 -867.183350
722.146790 -418.479767 -1232.743530
641.770752 81.229919 -1062.375122
522.470398 -300.756989 -1379.685791
771.153931 162.450439 -940.397766
727.911438 -220.095810 -1342.595581
586.411560 347.340363 -937.928040
624.803589 271.241150 -999.696716
646.731812 404.931763 -822.293884
747.539917 41.483654 -995.149597
735.030701 312.958038 -775.795105
919.629761 -135.707230 -1375.781128
513.847351 -15.700619 -1004.186401
503.422180 -366.658356 -1330.909668
790.482239 -300.570923 -1291.621094
716.646851 -420.275574 -1247.457886
977.961121 -294.454163 -1265.219360
781.303772 180.210510 -897.963440
551.853882 315.322998 -1012.863892
727.268616 297.217072 -814.093384
580.008423 -329.533142 -1289.837402
759.052307 7.425401 -691.405212
870.570251 -173.706818 -1335.851807
883.423706 -390.349548 -1233.714600
752.992371 -388.258789 -1246.747070
959.466797 -376.494110 -1221.202637
582.618408 -412.048248 -1249.183716
643.946960 388.396088 -807.186523
748.524597 216.912918 -885.894165
919.364258 -258.579895 -1265.714111
678.205139 276.944031 -887.172241
396.861145 -121.377884 -960.932312
449.731018 -228.915283 -1420.304688
634.295471 392.495728 -830.626465
595.004211 -31.169268 -978.830200
616.389832 323.338501 -927.250122
586.101196 -119.632385 -920.783386
438.953827 -104.593178 -938.623230
718.267029 232.890533 -924.699951
602.956726 431.073273 -819.067505
675.380737 260.058838 -930.829468
579.456909 -137.239807 -1445.193848
912.211487 -175.333145 -1352.696655
601.280579 -331.170135 -1328.441040
655.415527 -191.541931 -1386.273315
721.935242 290.478485 -828.021912
521.937317 359.669739 -995.253845
435.090515 -34.840298 -990.640991
559.955566 39.893196 -1018.598450
501.951324 -252.587234 -1420.083252
526.585693 -343.220734 -1360.600586
565.983398 -123.023918 -905.448669
388.886414 -86.209259 -972.696594
603.497559 41.808910 -1026.827026
609.499207 115.208755 -1066.037598
559.717529 431.525818 -887.797180
645.841187 -406.065582 -1281.590210
671.715210 -423.777557 -1257.949829
626.826477 251.078506 -1002.573120
384.044189 -84.158470 -989.015381
564.006897 -426.894653 -1273.666016
443.111725 -80.169586 -948.297302
841.580872 -363.121887 -1238.184814
782.441528 233.129059 -836.533447
431.570953 -356.727844 -1340.186646
598.849182 -297.853027 -1366.661377
652.747437 -310.062439 -1262.828979
861.752625 -349.752716 -1259.747925
628.979492 285.915802 -957.088623
631.204956 346.891083 -888.305908
615.558411 445.068390 -793.209717
717.390137 108.910622 -1026.089478
867.870850 -334.004456 -1186.502441
688.537598 -384.418823 -1295.392578
691.249084 97.088470 -1035.907349
465.512299 111.457100 -1071.110474
630.790527 362.862518 -849.672668
694.690735 -135.007339 -863.374695
743.249023 209.116318 -1089.392456
777.337463 270.895782 -781.266235
718.326355 326.371521 -773.574524
1045.142090 11.964899 -1443.929688
641.104919 389.195648 -802.526062
556.381653 373.001221 -918.857117
543.647217 -402.884918 -1314.160034
616.543030 377.673065 -852.668274
656.198364 353.720306 -843.693359
542.358337 -231.149216 -1395.754272
548.821411 -185.472595 -885.404053
751.372925 245.329895 -829.051147
690.151489 -402.476166 -1249.566528
617.075500 -270.353333 -1287.121826
568.282532 302.077759 -998.042480
700.369263 -443.092133 -1246.936523
515.061279 -444.744995 -1276.902100
821.325378 -92.683029 -1401.674316
733.004456 383.519958 -736.620911
588.347839 312.496033 -968.270447
710.150574 345.194275 -768.647217
526.364502 40.068829 -1031.235229
614.804749 -240.831085 -1398.058472
492.948853 -44.316074 -969.607483
519.067993 -325.939301 -1357.214722
465.667664 -156.191132 -1487.063477
529.028625 -443.906464 -1270.529053
1020.233887 -52.587337 -1421.074829
586.852905 -423.328796 -1282.613403
414.322815 -141.307068 -954.409119
806.625732 -444.252045 -1206.384521
420.716888 -242.459702 -1433.925781
585.100769 372.885468 -907.227661
543.854126 61.664066 -1023.507324
691.416138 57.420139 -1029.033447
707.014099 306.474365 -826.928833
623.363281 -454.514465 -1243.134888
633.075684 32.863232 -992.486206
827.287292 -207.038818 -1300.381714
760.481995 -67.725761 -859.001221
690.408142 -132.304489 -887.830994
950.028015 -318.416718 -1263.764526
754.970642 -373.809784 -1291.519531
561.614075 -63.655155 -939.736084
820.347473 -286.087250 -1317.391846
599.315247 -99.892586 -908.070557
462.997162 -29.702887 -1010.062622
783.485291 -248.098785 -1325.259155
680.549744 -127.921753 -875.951660
832.433411 172.145996 -914.621338
477.567596 -140.980911 -941.976501
973.401123 -323.404510 -1244.046997
511.043274 -21.930992 -982.067566
732.016174 323.582642 -783.182983
390.006073 -261.621918 -1409.349976
1042.851074 -34.372570 -1422.111206
512.565186 -324.506409 -1363.189453
758.806946 -379.542480 -1283.041870
528.822449 -47.489658 -959.162659
486.833618 -33.946999 -962.406006
748.602661 258.055511 -815.914185
418.074249 -228.785294 -1428.144897
868.206299 -301.358185 -1217.075073
536.687622 -192.115631 -891.462830
850.803772 -426.040680 -1210.818848
591.476440 -223.223343 -898.802856
624.899536 135.964111 -1084.497437
409.120728 -29.869764 -1004.257751
729.363037 267.622955 -843.047424
777.072388 177.994217 -918.297974
694.592102 362.999786 -774.448853
647.123535 -495.635559 -1208.585205
457.554596 -73.017891 -961.430359
785.393250 232.380676 -816.273682
769.986633 312.809540 -751.283752
720.399719 -76.050385 -845.054565
536.953308 -410.541962 -1306.877563
697.648438 -377.390167 -1287.194824
782.928650 -407.966797 -1242.295776
476.539734 -429.216858 -1298.044678
605.031067 -265.602814 -1387.573364
511.612366 -439.373138 -1294.608765
505.115875 -356.517670 -1353.667725
670.398376 29.886711 -1002.329590
629.594360 -257.553253 -1383.785889
569.184204 372.186035 -903.110962
527.515198 -407.174103 -1281.681152
725.926514 -381.001648 -1276.535645
562.940308 -306.993866 -1347.731812
513.276917 -372.941498 -1311.065552
718.250549 -73.813934 -1445.592163
873.259949 -236.551483 -1349.115479
779.452515 139.669388 -912.657227
473.993774 -257.447968 -1400.289429
784.684448 244.583694 -797.299072
752.104553 312.901794 -771.319214
497.058716 -353.805969 -1328.251343
770.791870 228.000534 -844.160217
379.151550 -14.723461 -1030.183472
549.941772 297.762573 -1020.103699
916.970459 -394.513885 -1222.575439
527.945007 -435.283539 -1277.690918
562.068665 -446.608917 -1250.967529
800.161743 -342.796143 -1291.901855
956.573059 -277.443329 -1276.548584
686.175598 219.594666 -946.556091
665.835815 372.766876 -793.365784
655.228027 380.288574 -818.766296
495.404236 -160.135620 -930.560608
560.617676 -242.674194 -1405.610840
800.321655 -187.079147 -1321.158081
721.418762 341.616119 -768.945740
712.294434 -58.789619 -919.924866
416.635620 5.938978 -1027.051636
730.797424 -177.673965 -1299.437988
680.015503 219.642944 -1007.285583
602.199280 -259.786041 -1386.709351
558.995972 -98.353729 -921.063232
558.798889 -217.617538 -1416.968750
544.718018 415.596436 -886.720276
940.744873 -281.952759 -1276.981812
613.386597 -350.448090 -1318.718994
472.940125 -82.862228 -973.885925
878.149902 -211.479889 -1380.838623
696.722351 394.889740 -742.708740
574.875977 358.761871 -904.742249
516.122009 -189.944656 -1388.322632
511.514435 147.505295 -1124.785156
655.240662 8.873915 -981.972839
690.691650 393.713715 -745.059204
662.382019 289.075439 -913.546936
485.623505 79.526428 -1047.005127
322.115784 123.507103 -954.459595
764.069824 68.119011 -1011.763977
513.439636 -154.073746 -904.984436
783.307861 -174.675873 -1313.132813
769.417236 277.207703 -783.443970
461.209686 -308.954132 -1384.342896
566.966003 -220.689667 -1409.655029
852.539124 -374.155212 -1225.361694
434.941528 -89.008911 -965.384888
930.902710 -11.994193 -1470.540894
579.175964 -140.551453 -893.068909
472.165375 -186.720993 -910.881653
723.026062 -21.647282 -722.609009
694.137024 -438.919373 -1250.434448
787.757263 -323.793427 -1292.927124
651.221375 4.265549 -991.373047
773.513550 -350.934570 -1282.590698
680.910034 240.751587 -949.176270
724.003784 -69.182304 -838.673157
625.851868 -78.515862 -911.629883
467.924591 -190.919144 -1434.317139
651.801453 50.939354 -1023.013062
583.955261 139.604568 -1086.238159
590.181763 304.450043 -968.763855
596.082397 53.388821 -1039.473633
871.842224 -301.381165 -1243.712646
585.015991 -218.118210 -872.882751
615.376892 -108.544777 -1484.964478
641.142273 -131.514969 -868.731262
958.065186 -68.116943 -1379.812500
636.238953 -374.910858 -1258.622070
576.037659 -325.003601 -1302.361084
572.852905 -250.022141 -1409.639771
614.937866 326.140137 -899.589050
645.032043 254.138214 -964.817322
451.800568 -231.876602 -1434.397339
468.067871 -106.511765 -924.642273
470.399445 33.070374 -1051.989624
563.263916 420.694275 -867.015991
464.680206 -341.297089 -1340.809692
388.449493 -136.444565 -980.913574
584.803101 -169.755646 -1425.695557
500.099976 -375.600494 -1330.514893
718.508118 221.580139 -903.467224
655.133240 279.953644 -919.172729
725.052551 213.078705 -916.177917
761.311401 -3.253749 -692.003784
727.994446 -125.636757 -868.899048
601.067078 401.524445 -840.305969
465.073212 -398.785217 -1316.414063
715.317749 -394.956085 -1286.182129
699.471985 233.460648 -945.226563
677.066772 260.730774 -942.464050
656.993896 309.932739 -892.242920
668.401550 -38.656898 -941.774597
586.241882 -266.540192 -1385.302368
498.593536 -251.432983 -1396.265747
910.668701 -403.976654 -1219.722046
673.452515 -183.961548 -869.284180
678.547302 -453.366028 -1240.925049
758.226685 -181.310867 -1321.737427
731.592285 317.407593 -769.536743
744.705933 282.331055 -798.393311
659.425781 -470.005920 -1239.543945
497.604095 -152.456192 -906.145020
658.493042 -466.560242 -1217.419556
534.478149 -106.454964 -906.763367
610.109680 -62.182087 -1520.135132
634.395569 293.762115 -914.725464
529.445679 -116.550903 -1484.482300
664.780823 266.312164 -957.700439
676.998779 -76.083458 -899.226135
597.565674 332.084717 -926.387146
593.875427 -492.763977 -1228.937256
549.339050 -264.878387 -1408.631836
645.219055 290.393677 -943.034058
715.147644 -139.243332 -878.747437
859.723389 -322.026703 -1275.270996
496.412506 -116.715843 -922.669128
475.985809 -437.587952 -1292.268066
477.054810 -372.068878 -1335.252808
518.602966 -173.302322 -905.840271
836.295410 -238.827576 -1313.571777
478.427887 -179.693314 -895.449829
621.623840 325.164459 -939.407043
652.175049 -197.605530 -868.938721
511.983490 -88.251076 -937.694702
698.727661 286.916351 -878.222839
331.072021 109.830032 -964.802673
530.745850 -113.599884 -928.123535
614.765686 382.134033 -860.450989
792.423767 249.668396 -802.780701
525.091370 -179.030258 -895.322632
514.410034 -214.029358 -1424.027222
851.622620 -310.226227 -1173.488770
693.650818 207.449127 -959.401855
691.809082 -189.345551 -1302.341187
702.523071 226.344498 -938.347778
713.773987 -63.053204 -753.093079
551.235352 -191.165527 -1439.373779
686.406921 292.470062 -881.971985
364.800842 -101.737076 -996.765503
892.275391 -403.529877 -1215.932617
606.478149 -160.729141 -870.829285
778.721680 -232.616394 -1324.352295
477.114288 -423.976990 -1294.833862
688.526978 351.831726 -811.755249
881.938293 -110.393890 -1401.991699
820.656982 -415.372131 -1243.289673
764.677979 237.806931 -819.285950
711.107788 -92.466339 -901.489258
733.014587 -303.266235 -1338.501099
627.513367 322.645630 -919.495056
631.031128 424.069550 -822.120667
804.971985 200.243317 -842.325745
613.616943 -56.711266 -922.795044
464.036987 -452.232727 -1264.328979
603.657715 393.807983 -841.619446
520.833374 -155.553253 -918.732544
597.179504 251.768372 -1014.863831
581.825378 39.882843 -1045.260620
607.988342 -417.250305 -1251.744385
808.020874 220.898132 -796.315979
523.350098 155.368210 -1089.885498
708.158875 327.518677 -804.242004
613.699097 -415.752716 -1266.922241
802.119080 164.053177 -877.209412
607.171448 -304.695892 -1349.019409
622.170227 -173.658813 -859.686035
605.713440 251.934494 -1027.352295
701.050537 -120.130569 -872.032043
529.323486 144.805191 -1099.913208
430.025543 -178.147324 -1481.310791
706.967163 -379.916687 -1300.755737
624.571777 -248.630447 -1176.510864
517.074951 -313.051697 -1371.194336
538.411743 -390.150757 -1305.085938
651.720032 334.797638 -874.707825
475.278534 -1.817981 -1005.477966
684.371704 -34.457752 -918.422546
585.717896 -7.559391 -1005.960266
545.368103 -457.295685 -1249.112183
654.602112 352.922272 -825.388611
747.661499 255.113129 -836.848816
635.512268 356.069336 -868.062988
759.914490 -372.626251 -1261.369873
648.290161 -261.186218 -1243.779297
783.189880 190.239746 -879.971680
544.424927 -170.656158 -1436.214355
472.362396 -138.553070 -918.087158
579.826172 -401.555023 -1227.519165
717.543518 50.120190 -996.993469
797.491211 -371.102631 -1244.435059
734.011597 -392.251221 -1280.121338
734.208801 -56.014652 -905.119873
406.827606 0.481120 -1003.947388
576.961182 -1.355092 -969.753601
619.810608 -148.710266 -889.090942
618.981384 -80.987831 -922.094177
697.948242 -154.353271 -870.981079
655.383911 -129.570435 -865.468994
437.249084 -126.453217 -950.897461
796.614502 -231.843399 -1263.200928
887.505859 -364.112396 -1215.364014
539.510193 -81.654320 -920.374512
761.406555 317.065430 -749.847168
595.496155 291.691467 -962.905884
413.875092 -194.604324 -1422.613525
580.376709 -352.087524 -1350.232056
562.106201 24.692627 -1024.168701
611.142944 319.772278 -919.332031
630.819885 -247.440918 -1389.886719
439.737152 -312.788239 -1365.187744
590.253113 -135.836792 -887.099915
768.644348 21.734791 -971.145264
528.896240 -475.990112 -1245.056396
655.003967 346.953979 -861.317261
792.858032 157.432373 -909.221558
801.875732 -26.474913 -904.195679
973.118591 -108.279655 -1383.757446
580.841431 -175.399109 -876.325806
488.936707 -112.320969 -923.979675
899.116089 -372.616364 -1189.120728
580.642700 -435.254456 -1223.466309
462.622070 72.780670 -1063.494263
768.136475 205.410950 -876.046692
739.270447 -312.843628 -1319.813354
679.622864 55.230515 -1012.134644
557.766724 -385.464355 -1280.091675
680.556702 263.221863 -899.033142
764.915344 -206.201965 -1281.842773
570.889526 -345.214050 -1333.182861
719.047607 -352.907593 -1279.980591
450.052979 -244.691925 -1437.043823
665.702271 -199.118683 -870.638245
803.021973 -335.690460 -1293.686890
617.980347 330.567444 -902.468933
767.781738 194.317291 -907.988220
556.273193 -19.368513 -971.992432
648.639709 -194.710037 -865.796692
716.760559 216.675018 -954.700439
637.627747 358.223846 -864.518921
637.979797 -459.433716 -1247.734375
758.346436 -430.346924 -1238.691772
507.195862 -87.788025 -964.222351
972.769104 -316.623535 -1242.872192
551.363647 -89.764908 -946.844604
522.157532 1.266208 -996.780334
914.226563 -353.802521 -1197.021362
899.936035 -143.112778 -1391.827515
709.577881 35.285091 -995.930115
386.409241 -11.641092 -1011.283325
573.015198 -128.605820 -897.896362
648.155029 61.842625 -1014.174133
970.132935 -305.060944 -1260.821167
435.478729 63.412022 -1077.231201
498.962311 -462.830750 -1264.779053
758.509766 275.210297 -805.367188
521.845886 -185.765579 -1423.137939
572.213440 -11.892374 -973.253418
685.720825 -157.259689 -849.584412
1034.999512 0.431896 -1474.171509
929.277283 -390.595184 -1223.114868
701.947571 -37.453697 -938.152283
572.736145 -205.148926 -884.286194
561.360229 -322.452515 -1353.170898
559.979980 -10.165584 -983.164124
721.153137 -455.147064 -1237.093018
617.891296 -153.840012 -882.673218
466.168640 -166.318558 -921.836731
629.088501 315.128021 -926.903320
457.346466 87.503418 -1072.285400
587.347961 -461.095398 -1229.436890
672.445984 -90.324059 -895.611267
652.096863 -470.902283 -1227.878052
717.346497 346.659821 -778.892395
510.127136 -322.301666 -1345.017334
455.333130 -318.205353 -1375.286133
482.044159 97.873779 -1084.514160
509.592804 -215.152390 -1401.089111
733.455017 -423.026611 -1241.412842
777.204590 -22.245434 -905.948792
660.835938 249.752808 -939.577393
709.130737 -168.366074 -1283.339111
607.323242 352.058502 -897.206482
495.726135 -150.810928 -918.556152
602.320801 -414.571228 -1245.265259
623.632446 320.196625 -917.995789
780.499329 264.878632 -777.712219
559.780884 -484.357117 -1239.359497
769.024902 -27.607994 -865.373840
416.272034 -102.291557 -1466.343262
425.468323 -350.323334 -1342.866821
578.553406 -57.921631 -939.758423
563.218811 21.276365 -990.246338
812.909973 -407.469299 -1218.819092
395.084869 -83.408859 -999.642639
739.558960 -285.012604 -1335.215454
440.105072 -166.264740 -961.604736
398.287170 -57.253654 -1017.127808
763.670349 -231.970428 -1262.273193
641.312500 300.376373 -932.065796
515.270874 -379.147919 -1320.930298
913.631104 -267.788452 -1296.476807
545.005249 -364.385223 -1302.551514
622.153625 -42.319073 -926.429871
428.487244 -133.616577 -970.872070
732.609863 -321.404022 -1330.792480
593.570435 309.134338 -952.675110
978.292847 -125.607079 -1371.111694
499.637573 -320.949951 -1367.470215
754.368530 361.336151 -746.079041
419.057709 73.648651 -1048.610107
636.784058 -134.125305 -875.599915
710.318237 244.654663 -885.857849
736.781555 -432.057281 -1255.045532
551.608398 -189.548569 -1402.809326
599.594666 -511.318909 -1213.809448
583.778931 347.991089 -919.746887
660.671692 -3.362876 -960.515747
642.748474 213.320953 -995.084106
397.499451 33.501934 -1060.695313
460.979218 -161.528931 -920.064575
481.003601 24.440142 -1027.162598
729.541199 211.541061 -946.449890
727.695129 -350.363678 -1299.686157
562.962830 -189.125626 -1411.056030
434.670715 85.299843 -1098.908813
546.329407 -201.835999 -1435.275024
432.875702 -242.396606 -1394.148315
730.810181 326.123993 -778.691223
861.055359 -439.110443 -1206.940674
774.070618 221.132309 -827.479858
556.856628 413.726013 -865.390137
476.143127 -258.876587 -1418.287598
578.614380 -68.376823 -930.096863
478.438171 -347.020172 -1354.475220
496.724030 -420.933258 -1300.885010
605.646301 367.208313 -878.895935
466.891571 -168.119568 -1433.582153
437.601257 -268.231018 -1431.126831
750.591064 -0.784958 -736.939331
554.072388 -220.237198 -900.200989
451.309845 -409.312836 -1296.958008
484.719940 1.775849 -1024.876221
952.615234 -386.589661 -1208.057617
616.525574 279.270233 -982.302063
557.506653 -32.453899 -963.250671
917.484070 -342.053711 -1237.899414
484.137329 -162.017715 -1379.302612
713.099121 371.112457 -770.661316
659.385315 47.828613 -1012.305725
471.129608 -408.232483 -1296.835693
602.392395 325.287598 -933.341309
642.067261 -367.134552 -1287.636108
756.932251 -23.933065 -769.802551
651.544495 324.260406 -871.150696
854.470947 -346.603516 -1262.365601
439.795013 -124.430252 -964.730896
560.225159 -185.082733 -1378.076904
882.763977 -411.951355 -1225.481079
747.960144 -423.679871 -1238.878906
425.273895 -166.337555 -1469.047363
579.750244 372.164551 -888.161865
746.110291 -83.592888 -884.281311
708.603027 202.012512 -950.430359
716.094055 -116.719017 -867.448608
650.901245 -39.870358 -964.607117
525.656738 -86.952782 -932.550354
622.003662 375.160278 -836.576233
894.463684 -192.118057 -1363.947754
742.345093 -337.079071 -1313.386841
644.800293 -161.484818 -1371.157593
951.611938 -136.763382 -1348.300659
610.895630 319.199036 -938.030029
828.557739 -312.990143 -1282.968872
653.580444 415.865448 -824.448730
727.068298 -456.428589 -1238.639771
730.594910 272.058685 -851.002136
590.570496 -348.177032 -1309.348755
426.791779 -146.050201 -945.951111
373.023773 -106.865074 -1020.830688
620.663269 274.226532 -964.344421
899.522827 -92.662041 -1407.803589
882.476074 -104.523193 -1413.051514
709.434448 -456.896912 -1234.176147
525.720032 -320.929840 -1344.811890
709.477661 -122.935547 -872.942444
796.432739 161.610336 -900.914063
608.914490 425.125763 -812.640076
560.413391 -191.755951 -1423.915161
710.959412 -266.632935 -1335.677368
389.264008 -73.348747 -984.517151
508.250854 -82.874840 -963.748840
738.272278 302.167786 -796.681091
520.399963 9.471302 -1020.514404
549.885864 -31.609591 -983.294434
505.502380 -100.415466 -917.132446
714.632446 -190.409943 -1253.108154
628.580017 -25.546946 -950.449280
800.539856 211.718353 -839.287659
706.147095 -316.643372 -1327.835083
671.049316 -493.333832 -1205.718994
646.035400 -191.688843 -874.010376
519.797485 -186.416214 -905.632446
818.472778 173.124557 -880.254761
762.471375 336.633179 -754.001648
596.189575 33.085224 -992.378113
891.688538 -259.186554 -1254.621216
493.628967 -25.884645 -989.276855
630.843262 -172.791443 -868.620972
524.285767 -398.950470 -1318.724609
934.147766 -291.733063 -1272.341431
695.257080 366.153564 -772.342834
545.074524 -67.213585 -947.616821
651.255676 110.089813 -1034.616577
740.096313 -73.808701 -1391.625244
605.788940 -389.109863 -1250.618042
815.494629 -435.536194 -1212.809937
760.354492 334.184723 -736.235718
404.820801 -202.493958 -1471.752808
572.255554 20.928087 -1001.076355
544.216553 -158.623489 -886.948120
672.903015 -133.561829 -1266.040649
561.019287 -470.015900 -1232.242554
575.064087 -67.032394 -1302.935425
784.609192 259.873535 -784.287292
765.956421 -289.406799 -1329.363770
562.240662 -293.333160 -1346.104736
704.158691 302.327301 -841.054810
572.438843 -331.773376 -1299.535767
791.523010 58.049850 -703.200500
445.354828 -56.309826 -991.136841
591.127563 -447.702972 -1241.327515
616.424438 400.311920 -826.121704
902.577576 -248.545593 -1284.483521
719.828674 -447.355469 -1208.346436
483.016632 -146.692001 -913.004761
776.448303 -408.948364 -1255.482666
427.314392 -119.410370 -942.363342
802.334412 -141.399551 -1399.151001
803.856323 241.021683 -762.975220
455.247009 -284.182526 -1402.845337
721.931946 -295.780365 -1322.110596
440.962494 -167.129471 -931.252075
531.443481 -305.335358 -1374.149170
525.813721 -477.366852 -1273.834717
599.578552 -443.054047 -1242.824585
616.596497 -203.839905 -869.513062
501.387268 -4.198298 -990.277161
769.016968 178.656265 -887.307495
980.893982 -339.214020 -1226.354370
640.614441 99.410553 -1048.593018
672.103271 365.395721 -819.875061
749.434021 262.721313 -822.459839
747.896606 359.913361 -737.786255
778.799194 -19.716162 -938.329651
668.001343 -197.389130 -861.205505
1046.038818 1.928076 -1437.186768
715.243835 -240.256104 -1344.748901
607.559875 -406.891418 -1264.437500
370.840790 -23.945717 -1021.072266
574.950378 101.633675 -1064.191162
691.811279 351.302643 -788.457947
454.341919 -74.901871 -966.245483
701.959534 314.836426 -814.692688
668.461975 -86.022858 -890.182739
671.869324 245.100372 -971.082947
426.849884 -239.801041 -1451.790405
669.671387 340.640045 -821.991028
615.372375 35.978344 -1000.939209
776.909058 54.857262 -976.061279
705.448608 -459.486237 -1224.917603
684.751953 -57.088039 -917.909302
751.824768 185.520172 -954.006470
425.998749 -166.926682 -951.493347
636.300842 -156.609146 -886.399658
983.200317 -296.861755 -1252.775513
495.841248 -458.516937 -1270.363525
761.587708 221.286682 -872.682861
678.557007 297.686096 -892.513794
602.602356 318.307739 -920.750793
643.641968 27.619156 -993.828491
830.877808 -261.098083 -1253.014893
772.682068 -295.200256 -1309.361450
658.580627 -120.808014 -885.658142
659.425232 -503.701965 -1213.600342
963.573181 -381.663116 -1226.130005
525.108032 -453.566071 -1257.056396
711.346375 -462.973389 -1217.931274
903.455933 -167.932144 -1360.786499
921.465820 -296.308197 -1263.544434
853.092896 -150.338608 -1397.285522
668.976257 -245.084549 -1300.856079
442.870331 -274.772919 -1425.081421
605.392761 -292.786835 -1365.099365
887.606567 -325.969452 -1195.958252
622.849426 358.171631 -880.410828
738.078796 355.987000 -762.517578
740.517090 -454.918762 -1201.602173
545.333252 81.776726 -1037.286865
634.941650 -55.391850 -1516.962524
756.420471 369.157318 -762.339355
716.274536 -476.159088 -1188.773438
541.787292 -45.385677 -957.225281
544.313416 -173.202744 -904.708618
416.784576 -257.282806 -1421.596436
744.533936 336.099701 -749.769470
662.745483 -138.586853 -862.790955
754.527893 245.892319 -843.523010
372.451019 -113.112198 -1007.454529
719.056274 372.078278 -766.709656
581.022095 -81.188965 -925.689819
700.749146 331.740875 -796.107971
461.879303 -93.402611 -960.151550
678.787964 194.157211 -991.332153
657.618164 18.205193 -968.449585
735.934814 266.634003 -847.118591
540.656494 360.707123 -939.092224
827.838196 -393.926544 -1225.802734
775.835083 -261.297455 -1263.788818
783.386963 -37.787834 -902.135254
747.811584 272.189819 -809.550232
642.640747 274.672119 -973.833740
640.047424 279.678101 -967.305725
663.309204 252.024857 -972.189270
720.105164 -360.397064 -1293.815796
686.879395 387.883606 -751.256653
534.688354 -192.915024 -910.380371
611.548279 -274.270569 -1392.090820
457.767090 -284.732056 -1403.852295
765.467163 217.343155 -854.728333
471.848602 -117.649048 -938.569519
971.661682 -370.786743 -1203.601440
563.344360 81.213753 -1051.333252
628.798950 312.774323 -932.285706
816.261902 -286.184784 -1283.547607
587.160156 -154.102280 -882.433350
910.453979 -383.172882 -1224.026245
549.726196 -432.845001 -1227.317871
728.700012 -366.674591 -1301.366577
475.592682 -231.344803 -1419.683350
522.398987 -229.873993 -1404.109131
688.293030 243.989166 -968.450256
623.499390 -430.316040 -1262.317993
798.969543 227.180817 -819.744202
844.455200 -165.946991 -1350.508301
465.811249 106.571838 -1091.213501
984.596436 42.170662 -1518.048096
624.017334 -315.036407 -1338.827271
500.722595 -62.137680 -955.492432
713.425171 304.966980 -823.019836
778.997131 -357.033997 -1285.072144
593.455872 -310.010284 -1375.349365
859.706543 -247.627136 -1297.555908
636.125488 296.054047 -944.831726
571.002075 -61.197712 -937.901245
635.946045 275.475403 -980.739868
516.086060 -346.239197 -1326.923340
652.009827 254.958939 -981.008118
663.651917 358.620453 -831.522949
432.757385 -183.848618 -1439.011963
887.528870 -22.248848 -1380.398804
568.098083 322.583374 -957.918579
651.750610 -315.188690 -1320.866211
767.235229 -402.537842 -1251.643311
587.096436 -98.417519 -930.360107
418.797607 -19.568844 -995.144287
430.862335 -77.210693 -966.790222
727.751648 239.955765 -886.934509
762.093445 289.911041 -792.008667
803.300354 -255.086823 -1317.106445
740.086670 249.302719 -842.360718
860.330872 -301.239990 -1298.225220
712.935791 -275.574524 -1331.738403
944.742310 -337.738708 -1245.670898
508.131531 -157.009445 -893.228333
517.017090 -170.676971 -899.346802
702.187073 317.904785 -817.619934
584.240051 16.068630 -994.301575
420.338379 -185.954987 -1412.673706
747.164734 20.800600 -979.082947
619.706238 -294.071503 -1294.865723
598.913574 -114.458038 -1486.747925
635.331970 -474.866577 -1232.241333
914.322021 -321.612915 -1246.590332
536.024963 33.334064 -1041.275024
724.531982 -343.618195 -1284.755249
433.227020 -55.798077 -1000.604126
817.548279 145.640961 -864.394775
616.945618 362.340393 -869.967957
661.128723 382.010925 -800.339050
844.893738 -290.523041 -1303.426514
592.343140 -317.950226 -1286.117920
658.803345 347.668610 -833.550110
433.790955 -177.432983 -1479.571899
445.116577 -14.111441 -1006.407715
682.993225 -242.847168 -1246.002563
444.300934 38.051060 -1035.859009
633.272034 9.657990 -987.572815
543.680847 -186.613495 -1386.883301
788.515686 -277.188934 -1300.441650
454.051178 -205.169174 -1429.641724
647.889160 -111.484535 -887.135864
528.177856 -333.568695 -1350.487671
717.742432 -59.449478 -914.015869
507.666107 -161.964005 -905.221130
542.338623 -196.173630 -889.732239
828.156738 -318.618317 -1279.770386
561.780945 -166.750641 -877.575378
512.284546 -26.187044 -984.230042
620.343384 302.398285 -953.955933
736.098755 240.105743 -875.531067
524.900085 -315.597443 -1362.678223
689.797852 293.328156 -874.047363
583.886475 290.453125 -997.679810
646.076538 -181.055984 -1317.980713
514.229248 -23.816498 -970.794495
602.486023 -102.684196 -1489.553345
511.503815 -123.872360 -916.339722
530.752319 -227.949951 -1402.853149
729.669067 216.892105 -917.580017
805.638184 -395.012970 -1255.022827
704.954163 312.245575 -822.935913
715.718201 323.712067 -793.712097
536.610535 -453.279175 -1267.059814
577.903076 265.541260 -1020.418152
946.128418 -352.931427 -1233.394897
499.940308 -173.585068 -1432.950806
461.012878 -136.614929 -1494.390381
961.714966 -130.972549 -1364.719238
613.484924 110.574211 -1077.589722
658.535889 -166.180893 -861.838013
730.587952 -87.337555 -881.711243
395.079620 -50.219200 -996.179749
528.506165 -418.716187 -1294.544800
741.260803 -102.393036 -722.792480
612.164001 262.675873 -983.615662
956.303894 -366.687469 -1211.335938
622.119080 -414.072052 -1249.146240
445.238586 -145.506317 -945.463379
556.085999 -342.277557 -1339.690186
839.100281 -399.675323 -1214.038696
639.083679 -278.304138 -1247.293579
592.150757 409.998077 -838.694519
475.927734 -259.440826 -1407.905762
740.715759 -376.442444 -1275.528442
692.333801 -109.582886 -892.057190
468.337280 -17.179781 -1002.070923
885.714600 -333.636902 -1232.580078
628.977844 81.513046 -1041.767822
533.331177 -440.525391 -1269.524292
840.984131 -241.664841 -1267.490967
702.674683 391.275970 -747.559082
622.550964 110.957466 -1055.524780
417.762451 -246.287842 -1439.629150
556.551025 -431.412964 -1252.643921
519.752502 -138.145874 -1446.675781
839.621948 -118.345871 -1408.794312
395.046478 -138.765747 -956.632629
480.481354 29.153599 -1013.331116
609.228394 -332.769928 -1324.085205
573.099304 408.015106 -878.811707
486.401428 -185.730209 -921.288879
770.027100 197.240082 -898.785950
584.193359 -246.604507 -1153.862183
630.938721 -407.825745 -1257.969360
660.524536 -205.419388 -877.049438
1009.741150 -26.267891 -1446.307007
605.770569 -435.549866 -1236.771729
459.031219 -4.001575 -990.047852
902.720276 -398.351196 -1221.460327
557.687256 -427.407776 -1273.714844
666.435852 56.864426 -1007.938049
590.215027 -328.254700 -1193.678955
608.851318 -392.591461 -1274.900391
579.343445 -207.255966 -896.148315
980.096863 -346.241425 -1219.427246
566.800293 -205.302628 -871.606812
809.340759 207.280930 -845.007813
713.838867 130.009232 -1049.021240
533.865845 389.353302 -922.150818
523.307922 -159.982498 -906.293030
541.333801 -173.145966 -889.257263
643.057373 260.684387 -959.114563
722.790527 -340.502686 -1321.631470
814.096985 152.718094 -924.362000
521.880737 -393.673096 -1293.578003
654.361694 -191.447525 -872.466736
751.665771 180.845810 -945.153687
661.489075 -469.981232 -1224.146606
492.795044 -312.274506 -1376.549683
382.740662 -48.150711 -1003.130981
388.848267 -59.878506 -993.102661
602.376343 -417.075531 -1251.907837
650.167236 318.903229 -870.907166
476.941589 -141.201172 -915.711609
772.042480 293.485229 -748.541077
667.868286 376.243866 -807.905151
809.017456 -183.288132 -1323.650757
680.557434 371.885590 -803.065552
883.697266 -316.614746 -1194.855347
521.052795 36.452881 -1026.823242
654.343872 -123.622467 -892.214417
421.345032 -42.983356 -997.880005
628.883545 -262.183594 -1383.030396
615.384827 -74.888168 -1510.352783
676.227905 -183.847290 -850.647827
595.479187 -514.445190 -1229.187378
698.734253 332.357117 -815.950439
759.220581 -241.514496 -1270.115112
578.086426 -215.678101 -868.170898
534.096313 -316.784698 -1343.318970
613.012451 -291.822815 -1190.655029
747.887268 -42.597393 -928.434143
679.399109 -356.503296 -1286.746582
474.555664 45.276543 -1037.036133
575.784302 370.380829 -911.694458
528.759949 -139.913361 -897.046875
698.222290 -137.119598 -884.086487
566.850281 387.279510 -906.843384
588.567078 321.434418 -947.678833
587.356750 -26.219799 -978.276184
849.431030 -300.040833 -1268.039307
672.352417 -480.427551 -1201.375610
534.576294 329.031464 -979.418457
557.747864 -506.007111 -1225.833984
554.036011 -196.068985 -890.756348
529.540222 -139.021149 -913.712585
805.419312 178.396362 -883.234985
658.551147 -222.259155 -1386.145630
666.507690 -103.083435 -895.744995
658.554871 6.357836 -991.221680
734.373535 72.238838 -1029.573853
630.614380 -164.323441 -1398.976196
727.221863 309.380371 -807.781189
410.906647 -175.660873 -1429.874268
721.945679 334.405548 -769.697937
473.511414 -208.051910 -1435.687256
776.296692 -317.460144 -1310.627319
692.794617 28.087255 -983.222107
725.080994 -20.623178 -934.505920
715.817261 380.415527 -745.722717
662.422852 248.714798 -984.902771
911.077393 -169.632034 -1357.916138
728.265930 279.224091 -826.030212
471.509857 -167.464523 -943.539246
753.516418 -44.264034 -693.946106
642.121765 116.713364 -1040.913452
580.218140 -55.025917 -942.581238
1024.710449 -92.087929 -1418.947144
772.541931 263.885529 -795.919861
745.579346 181.572067 -949.352051
740.068909 -272.309265 -1328.709961
772.761597 236.387924 -832.496765
760.253357 -293.617126 -1306.146729
636.851685 317.815277 -885.990906
598.696533 5.540344 -992.128540
469.565277 -186.355545 -1446.291138
786.398987 219.720245 -839.696960
552.016235 -417.654602 -1268.738037
529.824341 -93.221107 -927.350098
764.831909 310.171051 -744.865234
838.854126 -139.287781 -1399.959351
921.993408 -403.148865 -1203.986572
728.764282 -42.496494 -692.921204
787.351196 169.656570 -882.543457
557.139648 147.297760 -1079.161255
590.576233 -440.336121 -1242.078125
505.038055 -321.106415 -1367.440430
619.412415 -447.605103 -1232.651855
887.593201 -306.840454 -1233.959717
614.452148 308.135223 -952.797363
793.715576 218.876892 -823.605164
700.759827 345.611298 -781.960388
700.291626 -252.429626 -1343.949707
647.934326 -434.960419 -1255.931152
578.456177 -322.504303 -1371.115845
554.533997 327.030640 -989.593994
608.861084 158.055481 -1101.658447
796.456787 -15.841407 -893.559265
716.058777 -118.369080 -869.204773
493.747467 -432.872772 -1300.442993
596.856323 -485.393799 -1215.058228
594.161377 -184.013855 -869.855286
608.615051 -329.961823 -1280.153564
752.148315 -401.436981 -1267.468262
875.186340 -275.821320 -1254.597778
683.227600 364.181061 -779.562195
399.396484 10.472646 -1020.229614
593.489380 -347.445435 -1196.042603
642.987549 315.631226 -911.953674
696.137329 372.789612 -761.833557
714.162048 -307.001251 -1311.954468
433.518433 -216.246933 -1460.874512
737.966309 -15.753732 -746.957153
548.569153 -172.051315 -876.202881
809.523315 -434.962463 -1228.400391
667.310486 422.555634 -776.682373
717.437622 -454.494476 -1207.782227
583.856750 -116.882538 -904.715515
591.436646 322.978821 -951.538818
518.665649 -83.982300 -935.980652
382.337006 -206.838547 -1442.564819
685.659485 -486.928680 -1223.351196
575.286987 -195.365479 -894.005005
583.733704 -172.528152 -1346.422729
716.260254 230.796371 -937.092407
408.773865 -50.801929 -1006.010315
657.784302 252.715591 -946.485291
575.269897 -167.556793 -1428.140259
661.673889 -484.556641 -1229.461670
517.327759 -162.399063 -900.110840
725.821594 79.191597 -1036.918579
751.889526 -342.621185 -1305.229248
677.010559 -101.278000 -904.194946
673.465698 378.621765 -772.804260
377.233368 -25.294476 -997.374207
676.820679 -424.009796 -1240.142944
740.647461 299.709991 -799.633667
987.691956 21.580635 -1508.252319
642.103027 290.693481 -931.743774
600.287354 -153.500809 -891.615967
492.761017 -65.827492 -960.287964
587.649048 340.531525 -943.257568
598.348145 -444.542389 -1247.944946
757.841858 299.642822 -776.083801
702.843018 372.589508 -765.396667
517.344421 -132.534241 -1477.785034
843.060913 -263.396698 -1348.557861
662.192871 -92.191750 -1492.840576
486.781433 -349.678040 -1351.832764
965.162537 -138.156723 -1374.920166
429.043732 -90.937134 -956.301758
609.402222 362.267944 -862.997498
575.492188 -118.910378 -903.137451
701.185364 204.771179 -954.984131
495.983734 -231.960693 -1416.738770
646.066956 -56.278942 -926.604492
693.027405 362.154541 -773.644836
751.557617 -19.574833 -919.750427
762.616760 -451.125916 -1225.109009
613.873352 372.552277 -874.850891
539.549927 339.664673 -982.945618
504.476837 -332.958984 -1354.335449
743.989319 250.625961 -846.903992
609.660706 -317.228851 -1348.834839
499.746582 -387.812500 -1316.262329
572.470215 -450.179535 -1257.252441
655.914063 -29.370768 -971.442383
611.826355 -225.446899 -870.855225
582.588196 417.487000 -846.346680
695.567810 83.515823 -1028.922241
457.879669 -323.211334 -1376.161377
504.703491 -354.786682 -1339.056519
553.048950 -384.945770 -1305.454590
601.506775 -17.086735 -961.097717
475.306244 -171.390152 -1430.216797
613.536560 39.902657 -989.716003
747.490967 -284.988922 -1314.556885
527.100464 -144.185364 -1385.044189
726.250732 263.001801 -862.439880
916.651123 -326.809753 -1199.417236
615.926941 -192.008316 -1332.855713
624.633423 -57.174385 -917.032898
603.339172 408.429749 -832.234863
739.498169 252.350815 -856.912842
787.032593 96.628273 -1016.834351
963.280457 -138.927917 -1371.795288
789.413391 -460.856659 -1213.613770
574.890381 -55.060825 -927.444153
581.341736 -248.057968 -1408.421021
806.786560 162.586777 -907.698608
533.009888 -351.941925 -1340.359497
774.387695 318.659027 -754.297546
545.712036 412.649048 -924.016479
508.637390 -228.612869 -1422.624023
336.171875 144.962311 -945.466125
849.162415 -331.007202 -1275.585815
551.412231 5.138264 -1008.673584
599.210999 -141.058105 -887.635742
603.283081 -162.032928 -1355.529053
362.633545 -201.506927 -1452.705933
768.770935 54.314644 -977.708740
525.453125 -119.632309 -913.939880
398.443542 -137.571960 -1450.183105
570.563721 -427.182556 -1265.750000
584.871399 -189.766876 -874.530457
569.832825 323.665527 -959.368896
431.682190 -100.714684 -959.537048
518.220093 -486.213135 -1243.091431
564.628601 -365.102875 -1324.726807
591.622314 256.571228 -1033.977539
855.927490 -295.069244 -1289.190430
609.052856 -301.779968 -1331.362427
499.773773 -41.265366 -976.765137
471.611633 -332.442841 -1365.668335
418.046173 -215.652100 -1443.552246
644.157776 315.051086 -881.473206
749.877258 -8.451109 -694.153564
639.275269 304.426025 -898.026794
786.728333 -295.069153 -1315.747925
835.396729 -305.741943 -1210.419922
658.265930 288.932587 -916.875122
700.835205 231.957184 -937.202759
568.427185 323.376892 -980.408020
522.505066 -348.802307 -1340.637085
378.797394 -107.270210 -992.289124
784.859802 154.139496 -911.949280
436.678223 -53.609764 -978.710632
737.973572 407.782684 -773.945190
456.065216 -47.522984 -979.498840
818.752502 -312.732727 -1279.519409
512.219055 -426.563965 -1270.708618
713.622925 -246.970978 -1327.354980
512.274475 43.453930 -1035.161377
543.238220 -452.551727 -1275.651367
582.982422 -119.776993 -911.486511
629.398376 258.460999 -993.770020
601.710266 -170.833649 -863.645020
716.251587 248.657852 -875.209106
609.459412 -16.456968 -951.604797
535.456482 -161.338608 -889.112061
560.608826 173.319916 -1118.270874
864.883667 -141.585266 -1365.710693
458.309265 63.976910 -1053.379761
667.437500 -344.384613 -1298.627075
656.329895 -408.908905 -1276.968628
458.656738 -434.338593 -1282.504517
527.756775 -230.957840 -1412.789551
1023.051331 -58.438019 -1438.194824
729.221741 260.179810 -880.460388
462.208008 -391.062378 -1306.855957
660.729492 -18.835106 -950.894043
759.149048 280.753204 -787.072876
624.162781 -82.982117 -1545.660278
569.880981 -434.362823 -1248.672729
499.245392 -91.829674 -941.857727
653.523865 274.311523 -941.260498
593.620972 -501.268860 -1214.052002
750.742493 17.850805 -965.466431
638.382446 -436.093201 -1233.912964
533.861389 -477.477295 -1244.561157
1002.218018 18.856880 -1459.188477
581.122375 -98.641884 -915.292908
970.709351 -310.875275 -1243.180054
850.559326 -406.726929 -1239.832642
696.354736 -105.970757 -1427.599731
584.903748 81.459908 -1049.439087
652.578979 281.901154 -928.427551
610.557434 -83.065750 -930.612854
637.096252 -211.861359 -1402.685425
587.974060 -7.793400 -983.100708
620.378418 -250.778809 -1356.652832
628.005615 -206.090118 -865.588745
437.768646 -91.239998 -962.474243
522.955750 4.391153 -982.546570
779.353760 -451.905121 -1218.275024
655.959045 -52.808765 -935.312927
433.141022 -231.416718 -1423.479248
661.939575 -205.982071 -1281.818237
572.872864 -11.671372 -962.903503
738.577271 342.691589 -740.788269
715.467163 68.654984 -988.717041
445.868530 -174.760880 -1478.588867
645.853088 216.730774 -980.085938
573.245972 -465.768707 -1251.273193
581.801758 -453.334167 -1266.245728
467.673828 -279.037567 -1412.796143
593.007324 388.922729 -883.964966
718.625244 283.993835 -829.174927
756.244690 -354.800385 -1301.486694
729.292236 -434.174957 -1255.247070
780.065002 170.574203 -895.246460
467.260162 -340.524994 -1374.654663
765.701233 -231.431152 -1257.392456
472.832001 -130.430222 -1489.581909
972.581970 -383.417786 -1211.565552
638.551453 -287.049622 -1247.334961
584.704529 -149.286148 -893.571716
429.550385 -225.209732 -1415.881104
867.033813 -275.948181 -1257.756958
414.592621 -51.931236 -994.382019
614.960205 -81.479362 -1510.522949
963.510071 -337.677338 -1224.222656
549.482727 288.179718 -1033.103149
882.369568 -369.411011 -1228.820190
625.738708 -189.110291 -1335.611572
576.663940 -429.869720 -1250.104614
915.547180 -126.511429 -1397.417603
524.293030 -213.317657 -1373.586792
748.184143 249.265549 -846.819336
569.528809 -47.186001 -937.516235
507.960419 -107.231194 -912.970459
967.327759 -316.001373 -1261.465576
818.070251 -379.616486 -1252.870483
585.144714 -77.921112 -909.758972
565.679199 -201.465622 -891.164246
682.684753 -455.427887 -1212.119141
512.325439 -202.593735 -1428.750732
634.588867 78.885399 -1062.915894
720.436768 -447.020844 -1216.522339
900.780090 -218.287247 -1348.009644
576.895508 -462.324738 -1264.686401
579.768188 -226.528717 -1425.074097
614.123535 247.921692 -997.896301
425.041962 -205.790558 -1447.851685
783.415161 326.867310 -748.297607
676.719849 -366.743195 -1279.274658
563.919861 -97.751945 -914.668152
745.400024 -409.351654 -1265.826538
860.831970 -169.800171 -1383.120117
692.094971 263.691803 -903.255188
804.247192 159.728516 -921.949524
537.479309 2.200983 -993.514160
564.846191 -407.703857 -1282.071655
791.418457 197.703278 -856.910034
515.855774 -418.017944 -1278.259277
639.009460 -195.084503 -850.975342
709.898682 372.372040 -748.765259
513.164490 -210.980820 -1434.126221
353.450195 -64.398476 -1002.241760
562.728149 352.961365 -936.499084
566.223206 303.277313 -981.915344
702.626953 311.749207 -817.452515
818.738403 93.198654 -755.445862
640.903503 288.999176 -914.985413
631.718811 -97.781967 -891.184265
635.970825 -337.684296 -1294.366699
479.881500 13.966547 -1020.404358
800.531433 55.675011 -969.226318
618.848450 -168.447723 -1342.692017
389.139801 -91.653717 -981.961670
675.973938 285.602661 -894.711975
411.318604 39.281380 -1050.620483
672.052307 50.695358 -989.545776
926.577209 -161.273697 -1367.740234
473.467255 -350.331482 -1354.887573
966.916870 -110.533638 -1381.255737
488.243927 -200.809586 -1429.683350
671.224487 -219.089539 -1244.255737
529.902039 -408.155701 -1296.159058
426.093048 -152.127716 -955.412903
716.436951 -93.436897 -878.128784
639.496033 368.098206 -849.952881
778.998291 169.744492 -915.598328
641.672485 -232.673355 -1222.457764
676.990540 336.248260 -812.033142
708.176270 264.141815 -888.114685
834.449219 -168.706253 -1338.336548
574.870850 74.367996 -1062.186768
681.283691 351.501709 -837.498596
775.115662 -382.031128 -1245.358398
606.632507 -415.933197 -1242.383057
782.563477 28.715849 -949.735840
650.008240 382.849548 -804.331848
678.592346 -444.257996 -1250.126221
746.860168 346.196594 -749.086731
687.886108 85.524330 -1022.300598
781.904358 -152.013184 -1313.046875
784.125305 198.444199 -869.873779
570.065552 -434.164734 -1268.744751
608.396545 18.689394 -974.564392
1040.656982 -40.003960 -1411.270752
666.639160 -62.667393 -919.687500
798.686829 -396.392792 -1263.316162
589.210022 -183.733673 -880.456848
527.140503 -123.606163 -899.817749
453.637421 -138.678741 -940.909180
735.121765 339.352753 -749.149109
684.697144 132.734009 -1044.875732
447.902252 -112.353828 -953.628723
636.763306 -202.776978 -1363.291748
370.390350 -55.847485 -1008.361084
740.619019 312.406342 -782.486938
871.675537 -299.196198 -1232.786011
543.560120 -491.657745 -1248.880615
780.492554 160.213898 -946.063477
431.395599 -117.887115 -971.094910
529.397949 -94.970360 -926.040222
826.598267 -322.044189 -1284.297363
787.155273 237.193298 -812.535278
586.990906 295.350281 -990.252441
929.309937 -335.492828 -1205.519531
592.695129 300.372223 -959.351379
549.334900 -69.449257 -937.251099
685.817932 347.287201 -794.770508
634.648010 -470.639404 -1228.319946
653.883789 239.111404 -1006.785095
540.332703 -219.522339 -1402.209717
628.283569 78.728500 -1032.879883
823.259155 -337.781250 -1282.104736
588.464111 269.147766 -1008.220215
577.569702 -150.398010 -895.004639
862.201965 -285.872833 -1256.606445
629.610352 -347.649811 -1308.089600
837.147644 -371.435181 -1237.045044
756.643127 186.403534 -1089.368408
979.509949 -369.071655 -1202.855469
721.323730 -50.259129 -742.271545
519.691406 28.284279 -1018.678711
835.002136 -275.702850 -1283.843140
591.445801 -400.017517 -1295.401489
619.224182 328.455017 -907.673584
703.860291 267.215118 -887.275879
809.179443 -286.719208 -1326.045532
466.318115 68.936859 -1041.710571
742.298523 107.087692 -1032.329346
848.430298 -134.677887 -1334.357910
396.647461 -5.462466 -1033.438354
676.699463 -419.629272 -1273.390381
443.336395 -294.377930 -1398.656128
624.871948 314.385376 -927.871094
420.749207 -35.852119 -997.520447
728.922119 63.366535 -992.090576
611.943298 133.664871 -1095.708984
587.906799 -73.152168 -1523.969849
939.498840 -395.127686 -1203.998535
471.788544 -42.761177 -982.820923
683.340332 102.424995 -1024.242188
655.729980 -21.126072 -962.531433
725.544434 260.257416 -866.570801
496.610382 -396.511932 -1315.058716
765.733887 -280.421417 -1339.810303
423.022125 -132.824341 -944.535400
574.648315 -350.243011 -1349.566162
631.222900 385.544830 -824.848999
597.068604 358.538452 -885.087219
798.188843 -421.813141 -1245.197876
828.045166 -139.808716 -1407.472900
471.531219 -28.810537 -969.779724
564.136841 147.827637 -1112.226685
584.598328 -270.163910 -1164.427612
580.972900 -156.484253 -881.172607
503.163452 -310.309235 -1376.962646
622.795898 338.253326 -897.316162
525.452942 -237.768127 -1436.898193
737.256531 259.028320 -838.445740
640.519348 -312.580170 -1353.039063
498.786652 -408.673492 -1330.384521
655.796204 314.746826 -912.047546
700.660156 243.013382 -927.285767
542.354675 349.724640 -944.503052
753.122131 192.858566 -945.391663
439.626984 17.064365 -1047.213989
938.979675 -43.824833 -1349.324219
541.747009 -222.490570 -1420.084839
575.597351 -441.998108 -1236.983521
659.576599 -91.191971 -1468.251953
609.331055 -419.965302 -1251.941772
519.328186 -148.245010 -921.440674
439.698456 -115.367928 -950.643982
732.291565 323.548248 -769.474854
523.756348 -377.183136 -1302.732788
