ply
format ascii 1.0
element vertex 1363
property float x
property float y
property float z
end_header
-1386.262695 -508.256989 175.913116
-1096.657837 -192.914047 349.650696
-1027.147339 -113.187111 178.054138
-1458.049683 -451.479095 220.347809
-1526.853271 -383.418457 363.982361
-1499.178833 -290.985779 301.521606
-1531.582397 -152.740601 162.666504
-1446.430908 -258.575836 185.859863
-1090.077637 -0.746488 267.826416
-1442.255493 -212.882248 -58.939396
-1440.143433 -417.692535 261.970886
-1043.398560 38.908344 561.655762
-1099.504150 13.177162 217.351151
-1441.765503 -376.669647 85.900124
-1138.336182 -253.170059 537.803345
-1442.100952 -350.296204 135.181793
-1070.838623 -20.020535 219.805695
-1462.452881 -162.338684 220.133698
-991.457458 -315.784637 242.968048
-1564.369995 -195.270706 342.909332
-1526.563843 -199.816422 157.995911
-946.763306 -17.334982 651.122314
-1097.279785 -14.490742 227.430893
-1112.179077 -137.058472 415.252533
-1125.858276 -69.704552 393.765045
-1025.104004 -127.267860 164.877609
-1467.551880 -508.016296 295.415924
-1613.945679 -93.896912 389.926147
-942.352417 -5.975550 643.031982
-1030.890259 -143.445251 173.516937
-1071.310669 -89.437164 244.787521
-902.483521 -101.656654 670.868530
-1051.076660 -122.385063 244.819107
-892.295288 132.059372 665.374146
-1156.460083 47.798237 383.765961
-960.744629 -67.153534 631.235657
-1060.906982 -69.065666 145.501297
-932.395508 -115.607605 661.556763
-1007.140991 -146.401215 622.743164
-1430.442139 -509.266693 162.974091
-1061.087524 83.549194 539.693970
-1003.678772 -90.463112 604.007446
-1008.028748 -87.175133 591.732666
-1408.135986 -516.914001 239.440735
-1511.545410 -472.502441 347.971039
-1072.559082 -85.585732 297.935150
-1650.814575 -80.204475 452.359131
-1434.311401 -251.955872 -64.940201
-1431.644165 -229.088303 327.321198
-965.288086 -58.009613 626.944519
-1468.695435 -342.753143 95.691750
-1690.060181 -42.731445 468.117096
-1435.119507 -249.226364 -55.245182
-1021.330139 129.400223 317.771484
-1020.380737 -129.153992 596.961975
-855.627441 44.934555 684.677429
-1103.851563 -64.709991 267.750336
-1512.474854 -168.177200 45.173656
-1035.985229 59.483479 549.649597
-1425.600098 -267.828491 -8.294314
-999.342590 -239.183121 198.941483
-1409.458984 -298.589813 -29.134266
-1119.261841 28.035460 196.342743
-1602.794312 -2.346544 179.130997
-1139.744995 -68.987991 423.649048
-1413.796143 -384.340576 255.887665
-1489.045288 -311.054749 173.721298
-944.414185 -15.116799 635.980835
-1064.781738 -33.699562 126.281929
-834.041565 34.292725 697.380493
-1557.351318 -75.703278 111.819366
-1081.018555 -285.754059 446.458008
-1543.871216 -162.123932 272.076721
-1061.214722 -268.355408 383.962219
-908.189270 -73.630821 665.302795
-1120.070313 51.697868 286.190552
-1418.254639 -472.172241 115.410637
-1374.578735 -348.618134 -82.941521
-1065.579590 -161.876373 308.683350
-1551.377563 -7.746845 86.225525
-1544.823486 -4.159525 66.254173
-1574.403809 -363.348022 377.421417
-1606.518433 -120.570915 246.762909
-1405.126587 -306.821625 -4.045446
-1144.833984 28.491417 357.267029
-1120.319214 -7.545070 349.878906
-1702.322632 -64.667862 524.263000
-1407.997314 -280.355713 -26.682570
-1027.207886 -21.142139 582.477478
-1538.574341 -201.924728 154.100082
-1024.003662 -298.195770 372.049683
-1700.466064 -52.115822 490.361237
-1524.857544 -119.308525 174.949921
-1426.612549 -243.598022 -36.161880
-903.897827 -66.562981 674.080811
-1491.927856 -178.997086 31.130964
-1547.637085 -45.048553 27.589891
-1005.155029 2.845072 583.393372
-1156.379150 -51.881321 429.696106
-1067.369019 -132.153046 280.721588
-1405.933105 -478.875977 89.932175
-1511.832397 -190.124695 230.359467
-995.704224 -323.911133 282.254425
-916.372803 -107.903336 664.984253
-1097.275635 33.101830 237.815872
-1530.869263 -185.432556 108.927299
-1534.074219 -199.109589 211.792130
-1094.972046 -0.292661 552.763062
-1030.753540 -167.793091 197.393326
-1424.747070 -286.704437 99.305008
-1504.776123 -152.454041 88.617256
-1523.420044 -85.936539 77.985405
-1582.467163 37.823017 103.429543
-1074.398315 -110.495972 256.526428
-1432.061157 -264.474854 41.331631
-1594.155884 -51.825275 239.205048
-1389.784668 -305.825745 -49.899574
-1499.507080 -336.678436 249.295914
-1060.054443 -142.017563 270.094086
-1084.552856 -140.130615 328.336151
-1461.935059 -256.003510 30.993681
-859.430115 84.510727 671.366638
-1480.937500 -340.591675 156.594574
-1487.865234 -157.224274 -15.830494
-1476.346924 -136.997070 -2.384105
-1698.665527 -136.857361 580.342590
-1048.612671 -193.519638 338.590118
-1349.038452 -372.344208 218.066925
-950.124451 65.621498 616.560608
-1032.876343 -288.489990 341.803986
-1476.432251 -245.503235 182.780533
-1475.095215 -360.587646 153.982056
-1534.862183 -131.952759 122.292084
-1078.989014 -157.555023 585.198120
-1052.858032 -179.874390 121.931648
-1411.450806 -476.416870 110.280838
-1458.504517 -161.467209 237.116760
-1399.916504 -487.003845 255.899658
-1006.483398 -232.961304 206.574554
-1149.946899 -118.344513 480.558197
-1072.724731 -235.512543 389.185730
-1524.058716 -120.374397 37.949650
-1094.056152 -61.325806 300.173645
-1077.262939 2.314258 144.967148
-1436.709106 -454.297882 164.240112
-941.136780 -16.626030 634.396667
-1540.823608 -140.408783 96.503342
-1550.670044 -116.717384 178.091690
-1446.639648 -416.922943 248.763443
-953.862671 -181.659256 647.993958
-1136.266357 -175.327393 426.270142
-1565.991455 -146.134323 458.017487
-1432.871704 -326.334137 17.247442
-1556.572876 -97.823242 113.571114
-873.114441 -100.224403 688.885559
-880.273376 -65.187988 678.598450
-1117.141602 1.527770 148.156387
-1507.260132 -481.145264 367.685608
-853.742065 -126.504730 707.641174
-1477.576416 -130.016296 -38.448441
-1132.946655 -5.026862 372.826752
-1438.209473 -394.567322 88.817131
-1528.111450 -122.942108 215.820572
-1383.087402 -542.548279 154.454865
-995.571289 -188.516846 615.226624
-1529.262573 -142.189484 175.704880
-949.085083 -37.645710 632.193420
-1046.515015 -74.786514 160.188309
-1519.214111 -410.662689 331.028992
-1576.437500 -124.659142 447.321625
-1098.890503 29.422794 217.881500
-1567.044922 -112.732765 191.706482
-985.615906 -316.787598 232.174393
-1049.208862 -77.236839 589.643860
-910.003174 130.281769 639.551575
-1085.718994 -72.057419 287.678284
-1524.759155 -99.227852 51.383915
-1512.384399 -127.422050 43.338127
-1434.368652 -387.917847 77.824234
-1527.996948 -92.870781 21.431244
-1027.754395 -139.434723 148.230164
-1438.259277 -299.927368 -22.496655
-1049.128784 -79.274208 116.052673
-1105.017334 -114.526550 380.406982
-1454.244263 -219.519333 -35.465374
-1144.831421 -125.680069 414.509430
-1161.552734 -201.663284 516.141235
-1043.565186 -128.543961 211.966599
-1048.597778 -157.152847 231.369812
-1469.764404 -396.361511 203.296997
-1477.138794 -335.759430 263.495911
-1440.614746 -442.007782 211.026123
-853.580139 -29.389599 727.107849
-1009.466614 -64.179741 589.350037
-1447.575317 -226.543564 -82.734192
-1117.457397 12.419722 239.062500
-1545.089722 -56.261539 198.985092
-1135.299805 -43.196758 421.185181
-1599.782471 -109.264557 450.478027
-1401.264648 -284.231781 -102.334167
-1045.528076 -169.840790 123.075935
-1142.745483 -89.446632 405.073303
-1078.003662 -16.887754 176.201385
-1068.659912 3.633866 555.603699
-1115.723755 -73.383408 371.493439
-1118.392700 -3.015311 313.789551
-1426.870605 -539.937439 261.956299
-1087.159180 -8.571178 261.471802
-1053.207153 -38.221916 569.730530
-1169.584229 -72.877960 484.529877
-1058.337158 -87.296143 192.490891
-918.908997 -37.701054 674.313171
-1485.056641 -246.968521 64.998093
-1488.300049 -452.849609 309.367615
-1030.208252 -158.171356 172.663239
-1553.339966 -84.092247 88.398499
-1562.438721 -118.049507 200.342773
-1667.669434 -94.552361 513.494568
-1100.199341 -22.511198 554.469910
-1587.612183 31.696257 140.419754
-1396.328979 -505.334473 165.532776
-1077.205078 -272.972717 391.526367
-1544.772339 -56.989964 166.755600
-974.461792 -150.546570 622.816101
-855.327576 -9.126941 699.270813
-1058.829956 -133.587006 208.134613
-1551.116699 14.018358 140.117996
-1483.688721 -284.939087 323.605804
-862.019043 19.864330 714.665955
-860.548340 1.869750 691.379272
-1009.978394 -156.876846 142.518677
-1487.586792 -261.598511 369.344452
-1074.825928 -77.123192 257.854919
-843.056580 -49.154613 709.311951
-1450.946655 -232.263275 254.210983
-893.483948 -41.365273 696.220215
-1499.076782 -220.351715 45.176346
-996.562744 -2.134014 600.782654
-1499.089722 -97.622940 -17.007591
-953.964355 12.088461 617.731750
-1559.434570 6.484977 124.131973
-884.076172 -14.222984 670.326111
-1081.518433 -279.861389 443.699432
-1402.863403 -221.113434 216.079147
-1034.757935 -133.572479 205.878296
-1535.550049 -86.802109 51.590580
-1110.707764 -158.615448 464.264648
-878.157104 47.633240 683.962830
-1714.632324 -67.718208 565.769043
-1433.751099 -222.814316 -68.797699
-1435.622925 -264.619415 -66.075394
-1065.377075 91.807579 532.900085
-1360.052734 -472.585266 202.668549
-1068.133057 -235.672592 343.827789
-1563.785645 -25.047567 137.366119
-1446.682007 -446.112518 135.182358
-1419.373657 -271.857697 -46.590717
-1043.109497 99.493019 544.183838
-922.018799 -180.145172 663.929138
-1414.813721 -480.410095 207.368332
-1497.968872 -358.560394 305.498535
-973.661743 -177.216522 637.566956
-890.578735 91.909218 662.118896
-1005.256104 -257.504761 284.804108
-1553.542847 -41.731052 104.171509
-1407.053833 -353.480988 24.258686
-1076.452881 -16.061548 154.056534
-1469.218750 -392.770538 231.274704
-1390.240845 -364.789307 -57.055542
-1056.801392 -49.156101 140.435074
-1449.518555 -281.248138 5.487568
-1356.400757 -488.880371 231.750351
-1006.114624 -261.454224 179.804596
-959.547119 -51.872452 638.197266
-968.042175 31.709404 612.410461
-1057.050293 78.156509 539.941284
-1534.465332 -49.561920 185.172638
-1426.245483 -273.774109 245.557785
-1024.214355 -188.406387 138.835541
-903.506653 120.418358 639.431946
-1015.722656 -0.951910 584.451599
-1442.026978 -279.943970 29.107838
-1067.466064 -88.877335 216.766998
-1024.300781 112.158432 562.681396
-1471.480957 -405.333893 157.657425
-1072.080078 -51.098091 214.619873
-1669.020630 -91.899216 473.039856
-1086.490723 -0.142257 124.832352
-942.925476 -150.306107 646.962585
-1039.776733 -74.617142 169.938324
-1053.094238 -176.218613 257.036194
-1418.051392 -402.058563 50.680740
-1425.531616 -461.773804 141.562912
-1521.846802 -429.507507 352.887604
-1481.858276 -363.173248 221.581451
-1045.390503 -133.929855 270.590332
-1524.897461 -188.438293 151.332581
-1668.572632 -150.549545 520.375305
-1417.157471 -251.153412 53.203625
-1546.382935 -40.496605 20.482201
-1582.638916 6.795410 115.106789
-1624.467896 -106.589340 380.897827
-1439.302002 -309.266785 -6.699593
-1466.461792 -251.218643 35.006279
-1440.156982 -329.802155 82.725647
-1471.417847 -367.832184 107.479202
-1016.528320 -166.187668 191.003326
-1479.987671 -212.854111 29.828140
-872.273132 65.226257 665.485413
-1476.657349 -197.216095 55.226074
-1453.851440 -279.902954 196.226868
-1428.759277 -289.910156 33.933044
-1435.996338 -378.965729 70.542107
-1511.719849 -182.083740 92.081520
-1427.572510 -249.118317 5.757757
-1111.734131 -85.436096 346.830872
-1448.410645 -281.897705 96.153641
-1017.359314 -117.475983 609.492126
-1497.896851 -330.794495 235.856094
-1098.150024 25.051176 235.463577
-863.875549 -72.601990 688.109253
-1413.247437 -458.497681 133.028885
-924.796692 134.554535 635.591675
-944.648865 -21.987915 624.982910
-1588.788452 42.580467 136.393311
-1173.136841 -33.946754 471.274597
-1012.606628 -313.733795 288.037048
-1456.870972 -447.533142 251.613220
-1106.863647 -43.375191 315.400970
-1467.513672 -193.185013 -49.489693
-1034.840698 -199.312424 598.036926
-1118.408936 -197.623093 459.618286
-990.187134 109.902069 586.440002
-1091.661987 -76.133957 260.631470
-965.231079 132.921753 589.959412
-1529.347168 -407.871735 354.460938
-1498.775269 -183.611572 18.794754
-897.194214 40.453773 666.559814
-1428.793213 -469.988922 215.445526
-980.802551 -29.802765 613.316589
-1540.768555 -159.484009 118.174446
-1597.919067 -169.148682 369.058838
-1061.250732 39.936611 548.332520
-910.545227 -111.588226 660.658386
-1408.563354 -377.389069 -5.493954
-962.332153 121.779678 590.061523
-1017.771240 -180.478897 136.276382
-1026.816895 -299.284515 258.455994
-1442.290283 -474.026886 285.749023
-1419.975098 -271.439331 -0.381920
-1542.034790 -171.413605 180.277664
-985.087524 -176.330978 620.946716
-1080.958984 -228.677658 447.201202
-1024.308228 -330.823822 360.576019
-1011.662048 -226.349091 188.876846
-1021.569397 -286.973022 171.454483
-1421.797363 -239.314896 -47.784733
-1393.213623 -277.480042 -86.764267
-898.883057 108.218704 640.905212
-1079.337646 30.070040 548.438354
-1462.261597 -135.960693 -33.351711
-1591.491211 48.967373 139.891937
-1420.938721 -515.339844 219.553070
-877.668762 13.569962 674.751892
-1153.659302 -10.164919 375.116180
-1116.682495 40.041840 226.434982
-985.453125 45.915680 596.129395
-1077.298340 -71.957397 204.350983
-1083.513672 50.146885 524.317810
-1640.330444 -142.139145 369.701721
-1105.473999 -109.033325 321.283234
-1428.009888 -233.349380 6.938867
-997.825745 27.080711 593.321960
-1169.524780 -63.061176 429.518982
-953.455200 -184.330994 659.737183
-1048.692505 -230.647247 264.354980
-1488.833618 -128.359222 225.657242
-1530.378052 -181.633163 116.338646
-1047.629761 -82.412125 585.154541
-1448.800171 -359.274200 55.602913
-982.811584 145.504196 237.258820
-1384.480103 -523.715271 125.165276
-1556.968262 -100.707863 173.824707
-928.846436 -18.091152 655.602905
-1031.952271 -290.725586 294.833130
-1393.482788 -324.028839 -82.153717
-1384.613647 -351.118652 -50.079865
-1110.079468 -205.110886 387.495941
-1024.373901 -193.138962 147.807190
-1539.578369 -137.854065 113.028542
-1539.388184 0.050818 129.334717
-1114.004028 -195.795425 504.284973
-1480.402100 -178.316666 315.661102
-1508.443604 -132.177216 213.774048
-1010.680481 -191.294327 611.420715
-901.105530 -20.334185 660.029175
-1483.344727 -307.593811 247.997345
-904.226135 -106.147964 677.616333
-1425.439575 -467.103638 248.204193
-1412.982544 -346.384460 -9.724932
-998.275208 -231.183472 187.055695
-1114.001953 -12.661536 299.556396
-1550.954590 -418.950623 453.201416
-1543.326904 -134.710251 216.336639
-1006.222595 40.833508 583.498474
-1071.675659 -263.463898 462.561432
-1051.494019 -142.899185 105.292076
-1069.018311 -87.358032 242.991669
-1014.596497 -233.150177 185.047913
-1505.373657 -476.746429 350.184021
-1050.415894 -76.862030 184.656677
-938.154297 -20.009478 639.156555
-1435.390381 -334.711548 -25.840902
-995.146423 -18.722155 592.208801
-1135.187988 -149.248764 466.762329
-1409.896118 -335.098511 -41.437626
-856.216248 -15.318092 740.096069
-1126.718262 -178.307755 407.458984
-1141.971191 -210.733047 515.949219
-1473.394775 -204.202576 214.031830
-1616.413208 -89.579079 352.455750
-1041.058960 -98.099930 581.093750
-1046.100098 -129.080261 224.188461
-1369.574463 -524.309204 229.492386
-1535.107666 -124.970589 166.113617
-1450.674927 -276.455658 130.066818
-1056.333618 -196.582626 327.569183
-1084.933105 -36.919079 221.211319
-1444.146729 -345.227448 243.171753
-989.194214 19.991718 599.317139
-1072.527832 -199.272293 396.385864
-1084.741943 -279.242249 438.020966
-1436.319092 -238.944061 -53.232456
-1704.276855 -115.479546 578.946045
-1102.916626 -15.565311 135.855652
-1141.869019 -96.415352 411.510681
-1056.473511 -162.798187 594.560974
-963.285583 -169.355011 644.768372
-1120.446289 49.563911 256.780182
-1436.922729 -396.737061 99.607750
-1019.234192 -143.996185 166.811447
-1502.438110 -252.201569 220.113815
-1041.995605 58.736317 566.901550
-1468.421509 -391.396912 141.487259
-1148.356323 -93.613602 468.459839
-1065.449097 -4.739199 568.825134
-1509.174683 -441.000702 345.464844
-1419.951050 -312.487366 263.380707
-1103.504639 -22.453072 321.981598
-1552.577759 -199.321411 208.922455
-1047.857300 -58.699059 162.643463
-1426.991699 -418.727661 133.634415
-1026.805054 61.617050 574.708252
-1543.057495 -31.632874 72.857635
-1615.087646 -90.684967 440.070923
-1554.814941 10.095376 79.620003
-1047.040405 -117.833847 258.780945
-1413.776978 -288.847351 6.348454
-1103.625610 -160.473282 441.395477
-1002.664124 102.701530 572.951599
-944.441650 -50.044888 634.797791
-1037.399048 -285.340729 396.550720
-1480.553101 -190.794037 -30.438986
-1024.991821 -17.746067 583.790283
-1016.327942 -164.998489 215.273209
-1455.966064 -338.969116 60.817711
-1123.163086 -58.032085 324.644653
-1466.760254 -189.077209 -19.422880
-1414.978638 -403.131500 270.185547
-1001.986328 -44.312260 612.379822
-920.847534 -96.189003 653.236938
-1030.594971 -301.113373 270.544373
-1083.215454 -37.758892 543.469238
-1035.110840 -1.106431 576.349121
-1088.141846 61.487743 532.018311
-1561.065552 -119.050362 189.208221
-1006.224060 -253.561859 171.613251
-1445.559448 -378.625702 91.804741
-834.341187 -32.733524 719.719482
-1055.009766 -277.705719 324.914307
-1036.798828 8.143095 582.868225
-1441.576904 -292.944275 32.588722
-947.444885 -160.651978 639.452576
-1486.298828 -144.577240 235.218781
-1031.687988 -124.524719 594.526794
-932.174988 -126.269508 649.281433
-1041.057495 -125.261833 135.493652
-1436.748779 -440.350433 156.373123
-928.612671 -40.985588 651.435608
-1549.869019 -117.066162 124.117393
-896.833252 117.613319 672.885071
-943.999207 44.898529 628.932800
-1002.337769 -29.767399 601.968201
-1140.835571 25.982525 328.685211
-1000.111572 105.030823 578.990906
-1011.841858 -60.282871 600.258606
-1448.918213 -309.487427 16.283770
-1067.702759 48.194729 537.829895
-1092.874390 -36.989742 238.465240
-908.514404 27.823658 644.364807
-1433.071899 -442.615814 219.717255
-1071.119629 -90.840958 275.194855
-1146.787842 -228.737076 543.000793
-1537.496216 -92.247887 170.972961
-1038.687012 -131.745132 114.957901
-1447.603760 -371.113770 62.911819
-1581.956177 1.777118 141.516602
-1086.258545 84.421883 535.422729
-1481.246826 -155.467712 244.534988
-1061.762329 -314.695984 439.508026
-993.987854 -290.889679 184.925385
-882.693848 96.650276 650.026123
-998.494568 168.491898 394.348053
-1484.427979 -170.780258 13.611504
-1522.191406 -141.703140 85.741089
-1094.419556 47.074257 540.139832
-1071.831787 -101.985970 261.372375
-1084.561157 -10.232938 549.506958
-976.592407 -87.485245 625.149536
-1106.971802 50.933277 520.960327
-1632.665405 -58.198364 384.536163
-1467.785767 -179.692276 283.443665
-1431.130371 -555.707520 203.557205
-987.674744 109.064438 267.835876
-1498.802368 -250.692581 152.585052
-1122.865356 -50.041744 368.720978
-1506.550781 -121.907097 -3.942859
-881.905762 -85.003105 698.331787
-939.338501 140.230865 627.978455
-1437.890259 -454.475555 249.763702
-995.289734 -7.587363 601.052002
-919.193909 -21.004278 648.740356
-1073.479248 -91.975464 302.635132
-1031.615845 -100.522118 162.738724
-1625.936279 -114.224754 366.728882
-1440.487549 -417.918732 181.083084
-1676.065186 -61.034023 501.586884
-982.267822 193.370148 407.277405
-1419.202515 -532.368774 172.750885
-1485.343506 -200.469025 9.965042
-1002.517883 -194.563385 136.089615
-1053.360962 -206.942230 320.711090
-1106.779297 -20.127401 556.565674
-1081.377808 -255.724091 478.981995
-1414.790771 -303.405487 80.487366
-1145.099365 43.300430 322.493011
-1542.700195 -126.212914 180.479919
-1422.501831 -255.906113 -22.904787
-878.894897 70.594856 655.517517
-1491.137817 -367.202911 303.469269
-1490.239258 -177.349930 256.886414
-985.107056 -146.152328 630.587158
-1574.499390 20.688591 79.945572
-1037.406982 93.236931 553.941345
-1510.594849 -65.825165 200.618652
-1402.965698 -269.546906 -105.967964
-1083.551880 -158.194672 341.214355
-1448.079102 -241.117645 39.690842
-993.598633 -41.265060 610.090271
-997.120483 -305.897064 231.940735
-1042.871704 -166.844299 599.322266
-1022.425537 -171.629410 210.171677
-1116.974365 -146.285233 471.231140
-1003.190857 -197.810684 187.020981
-1413.458618 -496.266235 165.994385
-1614.034912 27.612278 221.217163
-1524.536987 -129.597290 131.112045
-1123.512817 57.297249 297.713654
-1043.583130 -221.770691 253.947998
-1446.839600 -350.939423 147.144165
-1427.374512 -338.649384 250.457214
-1430.612793 -290.653168 52.373707
-1068.502319 -144.792908 311.406403
-1425.950928 -476.031372 167.557480
-1168.347046 -38.379116 430.590637
-891.086304 -11.569351 658.205627
-990.128723 -43.412281 605.360779
-1392.544922 -282.684204 -92.409531
-1531.093872 -394.690308 359.061890
-1528.886719 -431.884766 377.459076
-1147.144897 -5.310526 352.428802
-1065.011719 -128.983002 222.395233
-962.492615 -1.253650 620.097839
-999.558594 -309.272003 329.707153
-906.593689 -92.769852 676.032715
-1004.336975 -251.570282 275.740753
-955.568787 -61.691471 638.003235
-1479.265015 -329.966705 135.261322
-1043.185425 -75.479820 170.078125
-893.759583 109.096199 708.949463
-1415.907959 -241.407059 -71.682480
-1480.837646 -139.967255 215.031937
-1081.076538 -202.651718 422.660034
-1018.904663 140.787323 537.467773
-977.627747 -15.900644 601.376770
-1423.794189 -364.212433 33.817291
-912.997559 -84.512833 664.144165
-1512.595703 -176.392349 327.215424
-1423.086548 -447.826904 118.153229
-1517.527954 -479.659943 384.229675
-928.046265 -5.616709 647.418945
-1064.739624 -18.474371 184.847504
-1428.292603 -385.417175 109.169044
-903.954224 -100.830612 665.891113
-1108.811401 -97.067490 374.505188
-1046.287720 -64.723824 593.724060
-1419.288086 -274.833527 -17.640049
-1509.122559 -112.829475 201.873276
-1035.194946 -201.360275 161.442993
-1416.538452 -263.873413 -2.687273
-1096.755493 -184.053452 373.937683
-1551.726196 -115.324181 170.008163
-1148.374146 -89.694321 396.458466
-1057.311279 -66.980232 151.470505
-1069.460449 -29.540480 148.659241
-1099.932495 28.220568 543.426514
-1119.731079 -172.908844 461.780304
-929.342529 96.788719 616.296448
-1531.644653 -29.395121 123.759743
-999.732361 -315.051178 251.569794
-1554.170288 -43.546978 52.002079
-1516.052124 -155.265167 71.352066
-1058.563599 -56.593616 193.132446
-1456.531982 -205.975113 -34.781803
-1477.081665 -184.440857 211.390915
-1520.266479 -73.979172 17.612848
-1041.150879 -125.819763 218.495117
-1475.394287 -25.417040 145.405594
-854.907166 -20.196545 699.071106
-1083.934692 -66.782196 311.063751
-864.921753 19.641199 679.611755
-1100.814697 22.015158 160.260437
-1598.483154 41.556705 100.862175
-1507.515747 -95.067680 42.645256
-1441.482422 -382.554779 93.163208
-1100.048828 67.634109 519.750916
-1015.163025 -175.805054 605.983704
-1612.274902 -50.182133 383.750824
-1394.370728 -258.472412 -9.678079
-1404.228760 -404.111755 12.817460
-1461.468872 -393.714233 105.702614
-1414.778442 -497.365112 226.372284
-1554.173584 -10.342754 200.537064
-1437.876221 -283.566864 63.372425
-1047.204102 0.214863 560.222412
-1539.162964 -428.262329 368.017181
-867.407959 10.349167 675.573059
-1050.113037 -283.393677 367.927460
-976.479248 128.518585 579.461426
-1013.638184 -286.725739 267.714569
-1514.839111 -117.252228 19.473255
-1510.211060 -27.785110 170.462143
-1566.526489 -12.507575 60.308907
-1605.974487 44.851807 142.764481
-1061.770142 -89.295380 268.654083
-1403.299438 -497.865784 164.429352
-1093.802734 36.369019 227.564926
-1460.240845 -417.069153 263.441589
-1432.022705 -378.947784 112.742928
-1078.540039 -80.968750 576.375061
-910.390686 -60.823418 665.459534
-1575.385986 -32.905502 181.588867
-1034.094604 -252.132889 305.394196
-1438.788208 -238.743881 112.293701
-1497.538452 -371.094177 205.072357
-1544.220581 -19.404865 111.176155
-1076.977783 -67.225250 197.186737
-1486.924927 -320.327332 174.138153
-1021.962158 -205.813141 156.845551
-1615.884644 -102.603340 299.244141
-1468.031982 -434.442017 188.676483
-1647.091187 -79.569412 405.067871
-1021.727966 -180.550552 137.985474
-1467.611938 -372.235596 221.320709
-1512.238159 -427.651428 350.075104
-1087.243164 -8.391194 528.105774
-1446.203735 -338.092133 160.459305
-1435.263794 -369.906128 36.992886
-1415.552979 -478.005280 218.871811
-1089.600830 -23.439209 165.622360
-1468.828003 -377.755341 209.540115
-1441.322021 -441.314636 147.484497
-1398.271729 -435.481689 236.174438
-1413.038208 -285.256714 5.430673
-1049.229736 -239.182785 299.573608
-1526.288574 -433.515076 380.950043
-1016.205933 -251.710419 141.453690
-1132.992920 -132.902512 507.567352
-1141.352295 -230.589600 481.465973
-1022.962341 22.187231 577.924561
-923.489502 104.244507 627.800232
-1546.621216 -88.650871 70.044373
-987.914307 64.755646 587.143127
-831.550293 -51.725063 710.980774
-1058.778442 80.893921 545.787659
-1411.161743 -470.527527 96.277557
-1395.711426 -342.520294 -58.352451
-1039.890137 -133.193451 142.888901
-1037.519775 59.018951 559.098145
-1013.805664 -312.229645 310.596283
-1542.221802 -52.599583 28.533209
-925.470703 -56.692009 673.673523
-1410.348389 -402.943359 254.997955
-1537.096558 -75.533508 66.156883
-1468.480469 -185.902039 17.505758
-962.391174 181.836624 326.804993
-1451.794556 -416.229919 156.184036
-1058.011597 -76.629883 219.719040
-1527.980225 -224.526398 160.242355
-1424.824219 -435.219940 111.129555
-1486.478882 -177.748032 65.038528
-1512.013184 -139.254807 51.625198
-1039.388306 -130.983032 597.697083
-1501.573853 -247.300873 145.819824
-932.454041 -58.210251 669.347168
-848.294495 0.910046 698.784363
-1494.091187 -300.317291 256.279602
-924.179077 13.780190 644.118225
-1006.955994 -154.443253 607.492920
-972.271057 -2.224906 614.187439
-1107.555420 -216.780823 416.835388
-1110.692261 -41.158657 343.925323
-1044.939941 -254.909103 297.430756
-1546.343872 -130.807236 135.788193
-1022.750366 -211.176178 249.161240
-1067.890503 -109.142830 261.430267
-1434.075562 -349.561615 54.831169
-918.602783 -38.759239 655.445740
-1412.301025 -515.201843 159.617844
-1493.029053 -345.252289 185.007095
-1556.759521 -370.621246 381.000824
-1445.206909 -405.119232 236.568100
-1552.937988 -89.760986 175.172043
-1019.296326 -146.502533 165.296005
-1379.590820 -549.431274 150.842407
-921.870667 -9.220397 658.800842
-1040.436523 -29.488169 585.071106
-1497.129761 -105.945061 -7.956176
-1376.899170 -562.621948 261.380157
-1483.168091 -137.006729 23.890392
-948.558655 88.416382 610.154602
-1042.312866 -38.888489 586.278687
-1117.661865 -213.623779 457.804626
-1084.317871 -286.500610 398.384705
-1069.379028 -30.345800 185.562622
-1507.563599 -209.009567 94.324898
-1112.517090 -99.839111 389.252777
-1089.452759 -33.995235 135.433151
-941.731079 -156.260391 642.548828
-1003.340027 -132.937881 608.164124
-1466.428711 -315.368164 201.758270
-1515.936768 -202.880463 108.781319
-1059.857910 -60.638012 179.030304
-1075.321411 31.405933 532.413452
-1476.945068 -163.103088 21.155106
-971.830872 48.181431 597.226196
-1130.509277 -196.075211 486.973907
-834.499512 -25.350536 705.364014
-1466.938110 -423.840027 217.170166
-1394.679688 -463.975922 251.498642
-1196.633057 -48.890167 484.909241
-949.253906 3.098481 626.931213
-1028.545776 -133.275009 151.656113
-906.970215 -123.238274 684.637390
-1649.896484 -70.508850 433.404572
-1400.534668 -384.167816 28.200064
-906.617615 -201.989914 691.424500
-946.388794 2.825821 617.528015
-1018.288269 -224.536804 280.089447
-1458.248413 -348.805542 112.610664
-1091.685181 -202.585083 364.112000
-990.140503 -173.139343 621.513977
-1537.329102 -23.617781 92.078339
-891.534241 19.158159 655.823181
-857.336609 -3.293375 694.549988
-1414.112061 -483.208710 124.378380
-1514.889771 -84.424614 60.819309
-973.203125 107.571594 591.432800
-1500.686890 -362.917114 207.538025
-1001.954773 -19.825584 612.870605
-1544.154907 -15.217946 71.086342
-1401.880005 -354.120422 3.817605
-1029.515991 -111.803970 599.285217
-925.381470 -116.423615 669.422852
-1544.096924 -53.839241 116.889160
-1654.542847 -117.345001 380.923767
-1171.009399 83.182404 340.991821
-1499.139648 -227.208588 108.298462
-1463.232422 -360.565430 136.271942
-1059.563599 -150.311462 291.746643
-1411.188354 -505.288788 166.303070
-1064.892090 -231.107590 363.746277
-1430.264648 -372.749573 103.919670
-1521.372925 -229.567642 171.267624
-1037.860962 -194.202423 275.463715
-1026.006958 -27.989145 591.753052
-1056.100708 -131.583878 264.678101
-1112.737549 -250.467239 507.897034
-996.256409 -181.580963 619.390015
-974.694458 -179.115311 642.603333
-1491.220093 -193.457092 14.480524
-1515.392944 -215.625336 159.016663
-1027.071533 13.559140 578.979858
-1046.431519 -222.452179 278.728699
-1415.711060 -378.132874 20.307568
-1061.966553 -115.266098 589.441833
-870.906311 30.334543 674.459534
-1413.835205 -414.508392 40.855129
-1076.000854 -49.665436 568.600098
-1092.600342 -26.152937 278.774780
-1568.633301 -14.639262 87.043747
-1334.565430 -180.528992 173.361832
-1089.574463 -139.901291 327.386383
-1545.802612 -57.115681 71.620888
-1041.036743 -138.718964 215.490494
-1479.347900 -209.031586 72.556374
-1070.033936 105.420258 311.304810
-1617.055176 -101.464355 393.704315
-890.489807 -42.385723 667.162476
-1476.096436 -213.125473 -23.756680
-1055.739258 -278.399902 393.564301
-1086.090942 -18.313251 172.734726
-1495.240112 -154.992889 23.824661
-1581.307861 61.813553 105.576149
-882.149780 -74.801895 691.691833
-1085.190308 58.995564 527.569397
-1052.770630 -79.968307 176.086761
-1044.100098 64.428131 555.444214
-1398.403564 -332.405365 -58.921303
-1018.177124 -211.310989 163.768356
-892.670715 -121.671135 676.703125
-1443.635620 -219.901825 -48.798103
-1151.234619 -55.099422 395.725311
-947.964111 -124.188507 641.709839
-830.406372 -301.024933 447.050629
-1126.045654 -179.191605 439.205688
-1411.200073 -319.306030 -24.051674
-1090.676025 6.247449 239.535233
-1119.798828 72.892632 303.674194
-1406.539185 -341.360931 -42.950241
-1614.064331 -107.829109 416.735138
-943.887939 -8.326111 642.372314
-1035.426147 -304.762238 410.957336
-908.609619 -40.360126 667.883301
-1551.799805 -421.486816 424.088348
-1703.287720 -62.545410 532.659485
-1439.301025 -456.830994 233.388855
-1592.353882 19.883442 230.050674
-959.491699 -166.476990 644.893433
-1129.003540 33.036304 536.738159
-1176.994141 -26.601156 473.899658
-1562.795898 -81.721275 259.687531
-1092.104980 -8.329313 545.863281
-1000.805969 -280.811646 203.011902
-1031.741211 -165.387527 593.088867
-1562.428833 -80.998398 183.895264
-1050.129761 -95.875069 164.390076
-1407.500366 -435.526550 104.770844
-1060.470703 -43.978359 188.947464
-863.539063 8.915085 682.763489
-1156.165039 -84.101036 453.519531
-1001.955872 84.958786 575.720032
-1044.322632 -81.328323 208.490326
-992.578613 -303.124908 295.961029
-848.245605 -83.680443 711.268616
-1557.686646 -187.841919 219.487717
-1503.182739 -295.185608 208.461151
-1616.562744 -136.662003 335.951263
-947.015564 110.091179 603.071716
-1154.538208 39.132545 358.025970
-929.577759 95.412155 624.602600
-1079.537231 -5.911578 186.240005
-1459.023315 -331.514709 71.130692
-1144.503296 124.432968 524.778931
-1115.175293 89.604774 240.585724
-934.452087 36.853844 624.634705
-1521.949707 -76.665756 63.908501
-1118.776367 -31.547663 338.151886
-1054.301147 -23.696527 569.036011
-947.327454 60.487274 618.491943
-1551.258911 -29.901390 36.611671
-1152.518066 -102.649925 416.265381
-1508.927856 -197.149902 49.207561
-1471.113525 -376.043488 171.462540
-1079.452881 -12.128889 249.839920
-951.808594 -146.954056 654.597717
-1038.858032 -117.518845 142.941010
-1031.045410 -123.043221 588.222473
-1001.439575 -286.448639 251.136566
-1097.519775 -204.476242 419.687561
-1442.184082 -243.348648 -40.365322
-1534.667847 -116.769104 157.443024
-1578.950684 -112.808121 358.176178
-1435.846191 -247.460571 13.939764
-953.436646 15.903911 638.793579
-1598.904053 10.102472 202.182739
-1421.550293 -394.050964 52.082355
-872.996582 -109.823860 732.041626
-1373.890259 -533.100586 254.646896
-1341.840820 -256.832123 84.733589
-1106.254761 -36.895927 277.462708
-895.698730 -62.987865 668.015442
-1043.812744 -81.617287 162.565842
-1657.088745 -71.289909 453.951050
-1077.804810 -48.583229 194.486862
-1543.144287 -116.947929 127.868896
-1451.516846 -479.718597 278.690613
-1148.712036 85.320290 361.285919
-1505.713989 -208.818680 95.529594
-1028.270508 -120.001450 165.489441
-1440.066406 -413.143463 118.147957
-1369.593872 -259.847015 69.782585
-1485.701416 -245.506653 82.509499
-933.530273 2.625031 656.562988
-1482.755371 -85.211105 169.740158
-1085.415771 15.544870 216.074783
-877.461609 -26.202040 680.607117
-1059.346191 -54.822083 149.238571
-972.735962 -19.973566 616.327942
-1064.968384 -80.726974 225.221848
-1551.093384 -10.365417 81.475250
-965.675720 -131.312515 644.891907
-1080.507568 -90.366104 273.581482
-1150.950562 -114.901764 445.224060
-996.388489 -134.572861 630.137024
-1014.550964 -159.916153 109.922226
-1086.179810 43.522415 528.831360
-1038.662354 169.571548 430.832642
-1579.386719 8.691189 137.008392
-1375.227905 -316.243011 223.483871
-1003.033142 -98.662903 600.110168
-1517.066040 -212.673996 131.210846
-1077.768311 -207.731262 418.692108
-1422.528931 -281.325134 -93.168877
-1461.444580 -188.813309 -33.061069
-1050.748657 -130.644623 557.063965
-1458.599731 -372.217926 253.687637
-1072.986084 -3.408723 551.496033
-894.614380 64.698318 660.120300
-1424.183350 -311.654968 -37.458382
-1496.912720 -134.542526 8.389202
-1046.492798 -96.212814 134.485931
-1091.254028 32.453403 217.864502
-1116.237305 -26.290287 343.893677
-970.299011 -13.510988 623.152527
-1423.516846 -469.201965 216.147293
-1438.279053 -464.815063 251.505157
-1612.832764 32.312374 189.283142
-1106.233276 -37.304161 327.194397
-1094.313599 -113.957542 347.489471
-1102.293335 -231.235855 466.354767
-1088.855713 -16.978071 150.426270
-981.773071 90.921021 589.287781
-849.506592 -83.317871 709.833191
-1482.148804 -226.869156 35.923336
-1094.867554 -166.605881 342.310669
-1021.673950 -139.893616 616.064087
-935.113586 -63.866505 645.888367
-1005.268555 -279.702423 199.716507
-1527.610596 -401.616699 356.128357
-1478.998413 -381.127228 251.160995
-1088.522583 0.561133 160.425262
-1415.887329 -468.981445 107.872406
-1409.913452 -319.480347 -25.410574
-1353.977417 -228.583221 73.413551
-1040.861694 -71.229218 127.151634
-1566.035034 -6.921547 53.854694
-1058.018921 -145.038879 593.944519
-1123.073120 14.459159 335.626770
-1089.675415 -203.392532 401.976501
-1011.332275 -292.951538 193.968994
-1559.370483 -101.164391 452.348419
-950.523682 -61.025383 632.288635
-1080.901611 -77.377258 244.417740
-1443.408936 -425.948975 248.413788
-917.591370 -10.502391 652.758911
-1109.507446 -2.887388 229.327713
-1444.596924 -254.906052 -14.880963
-1495.543335 -251.572479 168.036713
-898.180969 -16.954834 661.879089
-1077.850586 5.770604 172.640656
-1537.009644 -42.088486 90.808929
-1292.725708 -229.703156 132.125580
-1001.343018 -125.943085 608.675964
-1022.575317 -115.742081 589.739807
-865.829712 -131.650772 702.916748
-1033.397217 -104.081390 601.253296
-975.056213 40.465252 604.004211
-1026.674561 -230.772827 193.619965
-1098.327026 -65.815742 350.873932
-1403.686646 -378.187683 31.827404
-1599.134888 24.802834 112.915070
-1075.965820 -46.182159 133.700150
-1428.304199 -492.584717 257.528290
-1525.040894 -188.100754 87.112114
-1536.330688 -135.222092 146.616867
-1069.330933 -36.670544 204.292206
-1427.937256 -506.412140 158.087769
-1011.393311 -224.223846 154.246063
-1553.613770 -28.098562 117.795486
-1427.607178 -410.283966 83.798691
-1502.989746 -189.587265 107.857231
-1471.838257 -207.796356 2.221014
-1480.376343 -241.565796 123.040329
-1091.778809 -113.011894 323.287933
-1703.482056 -29.637383 555.417847
-909.122437 123.330208 626.142090
-1491.142456 -346.698212 222.588165
-1468.843750 -242.397232 150.812363
-1549.033569 -82.055649 71.258202
-1025.913452 -176.532578 222.441055
-1048.631470 158.852585 445.440186
-1091.805664 -17.093941 119.611870
-1457.446777 -354.973297 131.057388
-1407.919800 -239.981033 235.623108
-1451.231934 -315.575043 102.942345
-1108.996216 -85.909973 365.504700
-968.142212 -70.357178 636.062927
-1529.141479 -223.109207 123.292091
-1460.195068 -438.314819 186.097458
-1401.540894 -326.690277 -52.699692
-1620.152344 -93.556931 437.989075
-1528.061035 -108.092834 230.332474
-1406.310913 -242.311554 15.728062
-1085.790894 -87.950012 578.735779
-883.088257 60.605377 734.319702
-1433.240601 -300.172546 47.317616
-1495.608154 -182.853943 35.999882
-1118.990234 -237.912506 458.270996
-1506.486694 -123.961433 29.038834
-992.181519 -326.401093 254.525055
-1478.617432 -395.222351 177.412323
-982.617249 160.352173 246.185089
-963.208130 -180.377136 633.063477
-1572.335327 -42.352196 133.518799
-1002.583435 -272.757111 187.450684
-1208.570923 -73.669106 571.115540
-924.468933 124.427391 614.931274
-1125.901733 -174.384964 466.487518
-1023.262878 -87.009018 586.992004
-958.562683 113.730446 596.335083
-1567.327148 -19.822226 148.318298
-1482.435547 -183.565964 16.131762
-1072.403564 -211.017914 370.606995
-880.400391 23.936428 668.123779
-1424.367432 -432.919861 68.269028
-894.748047 -107.001366 671.881653
-1087.982788 0.420903 193.202637
-1001.882202 -299.247375 192.666733
-1185.996826 -104.446106 494.374023
-1520.610474 -443.376221 348.417572
-1477.732544 -366.345917 279.356476
-906.424316 112.006325 646.842957
-1495.615723 -196.228302 229.443222
-961.862976 94.665176 594.376099
-1412.657227 -276.445343 -6.260780
-1569.093506 13.504737 90.605537
-1002.179565 -202.875565 210.878326
-1510.957886 -136.527054 96.250984
-1481.527710 -199.105957 1.666364
-1120.389160 35.736240 198.516571
-1407.023438 -422.311493 83.158020
-1077.804443 -173.157272 292.031830
-1477.648804 -363.366272 163.153625
-1077.252808 -45.520100 98.859375
-1546.104248 -176.078873 221.894455
-1573.091431 -119.798767 299.745972
-1063.150146 104.922958 519.429565
-1013.608887 -317.255402 310.058044
-1486.165161 -181.688187 -0.843562
-1114.968628 -190.916992 423.619080
-1027.859985 86.754379 560.610718
-1517.101440 -118.268616 51.745029
-1012.411987 -150.189163 133.652222
-878.751160 4.241285 692.523987
-1344.985840 -251.453857 73.776695
-1073.274170 -135.506287 298.821686
-905.608826 36.704403 656.018250
-1533.102295 -199.490128 220.125320
-960.914673 -186.143295 649.936584
-1387.976318 -517.594055 129.133423
-1632.777588 -97.740692 457.442688
-1540.240234 -92.396568 49.069626
-1423.966797 -235.991745 -86.454247
-1543.962402 -86.351524 84.688194
-1551.962524 -90.350716 81.188675
-1679.271362 -45.302593 439.014099
-1039.318726 -150.981384 194.384216
-1397.776611 -304.936005 -88.340492
-1397.108032 -363.117920 -28.451756
-1047.426270 -267.711823 354.397980
-1456.095825 -348.572693 182.156723
-939.531677 3.028778 640.255066
-1506.124390 -157.520020 48.983421
-1159.343506 -93.489037 452.349426
-1440.750732 -288.645630 37.899048
-1033.837280 -256.075317 268.342804
-1023.700012 -294.393951 345.499603
-1046.939819 -205.765121 269.228760
-993.489075 -313.507629 262.057892
-1431.117676 -256.827362 -7.773896
-1001.730835 -291.509003 196.481857
-878.701111 -71.262520 677.128967
-1494.479858 -155.441238 -19.652355
-1500.547729 -357.446289 201.034317
-1052.755859 65.555870 550.417053
-1436.150879 -230.084000 -72.129501
-1016.663757 -249.068420 178.849884
-1408.349121 -347.459412 -57.757191
-1015.376099 36.186665 577.075378
-1399.819702 -343.586945 -42.401768
-1583.613647 -68.975090 172.885086
-897.917725 -25.505442 663.661316
-1619.289673 -94.454254 439.285522
-1538.183594 -140.861282 129.868988
-1634.066162 -83.096680 369.083466
-1134.649536 -92.909279 365.644897
-1113.754395 -56.886490 329.252838
-1441.109497 -212.346161 -34.576981
-1466.109131 -364.744324 150.417648
-1471.868774 -172.265472 212.644562
-1509.653442 -215.360001 176.213593
-1405.761597 -518.074280 202.546799
-1524.879028 -99.246216 23.718649
-1134.597900 51.021523 244.939331
-996.007324 -263.378418 258.214508
-899.378967 34.185764 659.549194
-1467.381592 -311.117340 145.428879
-1457.880493 -228.866501 -28.554523
-1099.038208 -111.162376 381.369659
-933.755188 -18.230314 637.794067
-1488.869019 -394.357025 252.990143
-1502.030396 -213.168076 88.783104
-975.476746 -189.779770 636.441284
-1116.009888 -198.156311 467.447937
-1077.095947 -92.753510 223.707794
-882.282043 104.071907 650.468628
-1545.787109 -149.209976 150.353882
-1044.981812 -91.506195 137.060516
-1041.896362 -118.292847 136.711533
-879.367126 -8.092133 681.540833
-1492.622925 -245.041428 87.777603
-1460.615479 -285.486481 94.491936
-1545.384888 -92.567596 156.326736
-943.669128 67.824509 605.656372
-1034.660156 -184.009598 599.639282
-1514.441406 -167.646576 115.305763
-1369.238159 -382.056732 349.330383
-1089.921265 -128.645844 330.618500
-979.320007 -162.808029 629.268066
-1422.494751 -348.271942 23.860786
-1075.166626 4.767841 206.572510
-995.364685 146.144150 567.257996
-1464.513184 -391.188782 198.660599
-1395.717407 -362.748383 -40.918121
-1414.448242 -406.886963 44.199314
-1474.858032 -160.450211 22.025724
-1117.524414 -254.415207 478.010712
-1079.459717 -72.767761 270.888947
-1156.618286 -32.473045 459.548004
-1005.998352 111.758896 570.637634
-915.082275 -177.141525 666.132813
-1064.246460 -62.263382 103.944168
-1453.479126 -311.925903 138.495209
-1083.123169 14.347283 183.857376
-1025.911255 -257.931122 254.885010
-1097.568970 121.969330 518.317505
-1399.463623 -412.844238 59.269630
-936.044678 -100.695412 658.424316
-1559.349121 -4.119412 111.253860
-1006.224976 -164.196671 620.099548
-1115.725098 -6.788830 117.601128
-1081.122559 -206.412857 396.847351
-1011.959351 -284.648224 183.483948
-1404.924072 -278.777802 11.758297
-1487.056519 -147.751205 206.655701
-1098.427490 7.682141 130.327560
-1099.279907 10.752040 165.893204
-1416.424683 -258.613770 -80.981995
-1542.065918 -22.038406 100.866455
-1022.758240 94.709099 560.310364
-1425.822144 -349.364655 36.316048
-1394.604004 -408.135193 35.091949
-1438.113770 -247.188644 222.686401
-1399.648071 -360.418579 -28.728563
-1511.491089 -106.475800 56.342163
-1119.152832 -115.063957 411.342560
-1595.604980 -40.286331 227.046951
-1115.892944 -179.587631 409.555054
-1460.912354 -516.182556 323.679291
-1274.609497 -212.706619 198.182037
-1015.035645 -36.992264 602.033020
-985.904968 -62.062817 622.986084
-1511.673218 -220.350510 149.903397
-926.971558 -20.224329 646.887390
-1013.639343 -163.670135 174.045776
-1488.683350 -241.846924 118.197144
-1014.908203 -218.343414 145.187073
-1428.855835 -406.954437 49.907558
-1524.641357 -460.070709 384.778534
-1545.064209 -101.149506 129.898422
-1401.725220 -299.715271 -36.725765
-1516.905518 -169.794449 71.422310
-1490.489868 -240.288773 235.983032
-1027.071045 -116.502510 600.381531
-1058.058716 -167.121231 124.718636
-1466.067627 -399.843842 232.707108
-1452.290771 -429.327332 264.399200
-915.378845 144.378998 647.294434
-1431.246704 -551.042175 233.632889
-1503.273682 -407.272736 325.083344
-1075.937256 -222.392380 355.648651
-1391.953125 -325.025085 -76.419479
-1345.531982 -458.926361 215.438263
-1075.343872 -35.064121 106.647911
-1318.170044 -189.809082 216.927948
-1115.278442 -143.312073 382.526733
-855.381592 15.559017 719.151245
-1042.513794 -169.201874 222.362167
-1516.627075 -326.794373 217.916687
-1062.963135 -45.440449 113.690155
-909.929077 -72.370842 673.432068
-971.142883 14.447987 613.378296
-1447.991211 -213.588867 -44.223072
-1401.673096 -400.504761 0.384831
-1097.220215 -203.121948 378.844635
-1086.192749 -70.573097 297.376373
-1416.079590 -337.211121 -44.702374
-1447.955688 -503.297974 284.776337
-1632.569092 -146.076752 354.002411
-1509.909912 -202.463699 56.702263
-1409.028076 -455.015625 121.603989
-1536.531372 -45.540089 35.833958
-1028.517456 58.675423 558.667114
-964.955383 52.778309 599.576965
-1053.137695 -143.499908 258.740662
-1099.150024 -93.404121 367.142670
-1181.050903 -21.598583 448.222656
-1131.139526 -103.713882 393.776123
-1507.797485 -167.399231 45.467915
-1056.740601 -246.501465 360.438782
-1062.765503 -159.528000 567.984009
-1289.107422 -228.433914 139.691498
-1041.126831 -154.811539 204.230499
-966.713318 -109.666542 639.077698
-1570.966064 -373.774109 432.453735
-1573.325928 3.187695 113.611000
-877.579285 -21.185062 710.401794
-1419.071045 -400.341309 18.737940
-1498.813599 -145.681870 10.178351
-1155.931274 31.499781 377.267273
-954.378174 -48.006889 632.815369
-963.549988 -199.302917 640.144409
-1416.901123 -282.410950 152.286469
-1030.873413 -135.583191 194.363556
-1045.163086 -73.336510 594.211975
-999.199768 -265.182831 171.500107
-1066.510254 -60.198322 207.886429
-942.238708 -137.654404 650.433655
-1008.839355 -216.376877 197.173737
-1532.127319 -187.467163 175.982849
-899.291138 50.755131 656.385803
-879.924316 1.577401 669.189270
-1499.506958 -349.684143 223.839737
-1134.009399 -175.299011 482.238159
-1574.812012 37.584682 103.474426
-963.855591 88.296898 589.201660
-1075.504272 69.602821 529.096802
-1036.429321 -197.493149 606.145203
-1453.481934 -409.965790 161.603271
-911.810669 -75.670258 671.227539
-1091.755371 -138.751999 387.798492
-1109.792847 8.589354 284.132721
-1069.143555 -294.456757 426.350433
-971.744141 -20.642166 609.112427
-1454.066650 -246.663223 40.046104
-1436.981689 -171.612778 249.832031
-1530.095825 -60.346123 160.917236
-1374.985229 -341.914337 -85.014160
-1422.398682 -242.372894 25.659433
-994.105530 -274.978912 264.069763
-1488.799438 -236.584564 192.663986
-1469.268555 -380.482819 113.133446
-1642.525879 -110.481895 341.141602
-965.513245 -27.543243 625.432434
-1095.132202 22.089499 207.109329
-1539.293701 -37.009602 155.911972
-1040.778320 -173.642303 248.245132
-957.129578 -164.181915 640.445374
-1472.159302 -360.070892 113.793549
-1002.356812 12.044336 595.510986
-1002.844971 -234.734375 167.149292
-859.704834 -156.571030 708.775513
-1074.754150 -285.932617 492.638031
-1559.750122 -27.862665 160.230728
-1123.401245 -228.290817 471.096436
-1030.333374 -178.056854 121.516022
-1395.880249 -506.887909 210.972763
-1484.776001 -126.213196 19.347696
-1067.007202 -99.835899 262.129486
-1448.128296 -447.823242 238.745132
-1480.255859 -103.498024 176.009750
-1160.980591 57.914764 364.958832
-1042.970825 -192.881149 590.148926
-1523.194702 -226.461090 230.253769
-1438.726318 -378.083832 89.882263
-1434.435913 -241.481567 -52.477207
-1523.868774 -193.708267 151.599701
-1554.388184 -25.295090 34.219761
-1015.202087 -109.613464 605.667847
-1053.489868 -164.170929 289.304352
-1146.368042 -145.369324 431.313904
-1001.413818 -122.947701 617.764954
-1467.125732 -171.742813 -29.709684
-1475.567993 -179.334824 -5.558444
-1114.895264 57.489239 519.436340
-1065.730713 -35.357533 142.577805
-1049.124512 -90.501160 109.052216
-1589.134033 -207.058334 329.837311
-1491.605469 -167.526169 246.609665
-1548.603638 -35.339966 46.078465
-1001.666931 27.719509 591.264832
-1425.895630 -404.652405 64.573883
-1155.703613 -152.903580 521.214600
-1148.068604 -34.852325 419.231171
-947.568054 69.589996 619.559143
-1080.162598 -23.412676 227.815460
-1437.686279 -474.523407 193.311005
-996.527466 -308.104401 238.870605
-1121.786377 78.129601 322.002411
-996.177307 -10.740374 602.845459
-1453.909302 -186.628036 -63.441242
-1083.645142 -273.362701 436.579193
-961.165833 -90.258514 640.359009
-901.905762 -128.278290 674.475525
-1018.009033 -310.505371 312.631226
-1452.937378 -162.472580 -45.545261
-1084.864258 -202.976913 357.560608
-1403.706299 -453.178925 65.938690
-1010.156250 -258.777374 183.299637
-1559.369995 -126.219490 210.809128
-1181.960815 -64.487602 481.343567
-1487.712402 -223.916550 131.609085
-1451.851196 -477.275177 264.438293
-1510.306763 -125.228073 39.768318
-1072.923828 -98.348648 589.339966
-1394.756348 -509.817352 145.562515
-1422.310669 -356.194824 -6.522697
-1395.799072 -292.614136 -101.971565
-893.536804 53.759972 649.576660
-1417.951538 -389.718750 39.334026
-1578.361694 16.600737 70.083488
-1539.005859 -99.762909 228.047409
-1555.074097 -122.553116 295.101135
-1059.527710 74.694305 552.251038
-998.196594 -293.276001 216.902466
-1582.682617 -333.215454 389.172882
-1445.209351 -249.255920 -17.558035
-1155.462280 -111.115204 457.077057
-996.530151 -128.689789 623.384949
-1161.509277 -11.442002 415.322113
-1184.228882 53.349468 400.512329
-1456.989014 -363.006775 125.644302
