ply
format ascii 1.0
element vertex 1346
property float x
property float y
property float z
end_header
-152.669083 1061.057983 -441.484192
-130.840256 1242.696533 -1071.405396
-218.003128 1040.022095 -650.015503
-322.946838 826.601868 -1170.953491
-138.733139 739.806274 -743.747925
-197.522415 1066.339966 -643.844482
-320.642151 921.549622 -1163.963745
-206.195404 701.039246 -745.577759
-396.874939 848.639954 -668.253235
-137.651794 1082.033813 -513.918701
-188.247086 1072.991089 -538.332458
9.270758 971.935913 -1198.628540
-495.602905 865.072815 -1147.187012
-330.607422 1041.402466 -473.492188
-324.366058 930.788391 -660.425964
-371.595093 1038.071777 -1097.514282
-91.264557 709.427490 -792.216919
-231.242691 947.382996 -1027.408325
-470.705658 888.867310 -1142.271484
-158.329102 751.025146 -1219.372559
-314.268982 938.691345 -679.459778
-20.331997 952.524963 -1190.709473
-292.377625 1414.447632 -1009.411438
-159.481201 795.490662 -718.253357
-253.189270 1446.508545 -1039.905151
-46.816341 1067.390137 -1093.845947
-335.413055 783.123901 -1181.191895
-441.795532 889.979614 -1151.201538
-141.242096 808.361084 -704.524902
-157.965164 823.583191 -724.029785
-314.084381 902.123230 -1173.660889
-231.999725 1062.168945 -413.961395
-438.867401 1094.419189 -1116.759888
-189.735870 1067.288452 -672.324463
-63.930210 1089.508301 -502.047394
-316.737946 803.396851 -706.949951
-112.209396 859.591309 -714.747620
-192.107330 843.768494 -1187.353149
-105.753784 1077.276245 -1135.645020
-158.507523 1248.411255 -1116.236694
-58.311424 970.994385 -701.252136
-16.716070 1050.047852 -1129.755981
-89.935486 733.123901 -762.936401
-311.827850 800.213684 -691.593628
-123.678947 840.799072 -1193.222778
-323.421783 1022.692200 -357.168671
-197.954376 792.150635 -718.927979
-307.380066 872.224609 -714.988525
-9.269494 951.650513 -687.102661
-208.149353 772.861084 -1204.130005
-124.032524 909.322144 -706.838257
-534.747253 841.022095 -1140.069458
-250.157440 1035.984863 -378.020020
-379.887177 1018.299133 -434.531616
-245.383499 772.459412 -1204.568726
-227.227615 1038.080688 -330.286469
-312.514526 849.677246 -677.916443
-270.494507 665.155090 -754.593811
-176.875244 1265.176636 -1065.436035
-404.800385 1107.425415 -1094.351807
-196.950623 982.449097 -1162.691406
54.487774 879.674316 -540.001404
-212.850281 1060.091553 -454.901093
35.973663 1114.679810 -1156.243652
-373.584839 1021.042358 -513.709900
-332.664063 963.321777 -1130.442627
-148.159409 700.058472 -775.550354
-174.164459 1048.239868 -279.784515
-175.180344 813.791077 -725.888245
-193.864822 1048.502686 -352.718384
-223.685852 859.938293 -1176.059204
-316.733704 804.636536 -704.578430
-36.665588 754.951660 -756.536560
-198.730164 706.060059 -736.957642
-38.273232 1114.954834 -1120.765137
-95.412361 714.402100 -774.709106
-229.498306 781.589783 -714.382568
-148.323395 783.477356 -1200.541992
-447.675934 856.477356 -1144.635132
-375.711823 819.690369 -1164.934937
-273.614502 1052.028198 -353.311401
-80.045341 904.691101 -690.292480
-297.267639 1040.866455 -398.261597
-67.811050 830.466675 -1213.459595
-121.062653 1202.920288 -1119.428467
25.650682 900.547668 -699.374817
-277.593597 754.758789 -706.395142
-252.482956 848.090942 -1200.109619
-373.790405 800.859863 -701.134644
-36.764484 750.923828 -776.369934
-325.846222 808.571350 -702.027710
-299.708893 822.757813 -1206.895386
-76.112717 1088.327759 -448.734039
-244.203308 1034.267212 -311.969025
-59.241123 1104.101929 -530.397766
-233.706619 974.061035 -675.234375
-41.191360 993.570557 -1189.784912
-93.615967 1062.555664 -463.394318
-46.174088 755.936279 -751.884094
-184.136688 1042.633789 -367.443115
-455.684174 1147.636719 -1092.155273
-155.927231 712.006165 -1220.059082
-172.814041 968.577454 -1171.340820
-20.224346 845.862427 -728.636353
82.213821 1082.850830 -1176.756592
-275.417755 802.631470 -709.180725
-272.575439 844.849792 -1211.223755
-182.106491 1098.492432 -670.510193
-225.894577 1037.720337 -289.562317
-457.758575 865.426147 -1144.505737
-230.048828 720.921326 -756.029053
-387.130219 1008.539124 -416.400146
52.521690 1023.345215 -1190.949219
-205.497833 717.014709 -733.153381
-76.724319 1163.504761 -1114.904907
-224.815933 667.234009 -782.198059
-115.886459 1014.753784 -1173.437744
-20.920240 953.094971 -1176.477661
-138.951553 1053.258545 -284.134918
-136.949707 809.312988 -1201.919922
-206.356812 872.562439 -1177.285278
46.967442 860.099731 -619.067810
-140.496201 1212.587280 -1099.237183
-424.598846 822.972656 -1176.544434
-249.519348 1041.315186 -450.478241
-101.747047 1072.318970 -433.683990
-271.560059 827.857849 -1179.182983
-132.658020 796.703369 -1203.054810
-107.595215 731.603943 -749.314758
-98.447365 951.666870 -676.650757
-173.646545 1067.952881 -454.765686
-182.386215 1337.199463 -1053.176514
-201.423065 1053.719360 -434.778778
-59.972504 957.386841 -700.438965
-360.365204 842.969543 -715.315430
-358.887970 719.628113 -706.408020
-205.694427 1038.134155 -675.093201
-295.918640 1040.687744 -307.021515
-453.041718 833.045837 -1152.825195
-13.335579 921.813049 -1207.873413
-165.802750 840.577271 -706.656555
-61.437237 822.263428 -1218.971558
-149.700317 1080.797974 -1085.458374
-25.812160 905.560425 -719.282410
-406.457184 936.721680 -1090.451538
-355.916168 898.411011 -695.825623
-318.172516 988.156677 -647.515686
-153.333252 1063.645874 -551.474670
-161.748474 1024.869385 -681.927124
44.566040 1052.244995 -1174.133301
-462.487061 934.356140 -1133.600098
-47.075443 971.488342 -1183.870972
-291.833008 1026.672485 -284.349396
-118.913979 877.315247 -1200.845093
-211.115616 1060.717285 -515.784607
-483.994781 908.148254 -1107.118408
-291.155884 1033.021851 -358.826782
-261.832062 1040.651123 -385.787170
-280.204468 1042.482056 -407.948334
-418.770477 1133.168579 -1084.327759
-18.599684 1024.720825 -1151.435303
-452.730896 882.447937 -1139.151733
-31.664967 756.641602 -785.454346
-233.139587 862.847656 -1159.200439
-208.507965 695.173157 -787.438110
-349.219421 1032.174805 -450.982208
-134.642960 1314.844604 -1069.809692
-162.266815 970.751892 -677.330627
-195.687851 1027.496094 -688.143433
24.935740 1016.435303 -1176.058350
-367.398895 1033.027100 -484.629059
-158.943039 699.861145 -773.892029
-136.111282 1085.712402 -535.438049
-113.993607 1041.890137 -1112.391602
-125.129204 1058.554810 -1090.730469
-304.695221 793.703369 -1195.493164
-347.379089 829.846619 -1195.229370
-331.468750 987.224792 -645.806885
-94.783989 1034.963867 -1163.371826
-126.533501 1061.345947 -330.606110
-189.389343 721.949829 -743.323730
-191.488083 1040.636841 -296.425781
-345.940399 708.856750 -737.196960
-282.420929 1043.648071 -448.525757
-295.882080 729.907654 -743.488953
-150.993759 1049.400513 -280.208954
-118.078026 1110.230713 -1087.182495
-120.512894 857.139832 -1213.606445
-350.292694 994.393066 -653.973755
-179.891449 698.021179 -767.847839
-422.261963 891.785522 -1081.892578
-205.220505 1038.516235 -299.183472
-211.833969 1037.470947 -355.831421
-442.234985 1135.111572 -1101.090332
-214.698944 1068.879272 -551.838501
-213.468262 912.989563 -686.236816
-264.289856 1033.967285 -443.255402
-335.537720 686.677429 -741.334412
-182.532043 763.959717 -736.705017
-187.859879 811.130066 -1101.532593
85.898186 1126.886108 -1142.875244
-185.782043 925.968567 -697.707886
0.546577 1103.573975 -1149.302002
-485.989960 1089.568237 -1100.781006
-316.036102 927.754333 -1167.917603
-286.239807 1000.397278 -681.542725
38.102165 1059.507202 -1157.036987
-91.273415 1082.137451 -458.743561
-324.853760 860.808533 -689.650757
-123.731705 986.643799 -1184.432983
4.758996 1082.290527 -1143.473022
-368.242188 1018.843506 -458.750488
-149.996796 1053.177490 -432.270081
-78.473640 1062.242188 -367.400574
-343.461456 1009.949219 -1105.541138
-161.471619 767.477783 -1191.496704
-73.119804 750.633606 -745.212830
-221.540985 976.711304 -660.099365
-485.944794 897.350952 -1115.016357
-310.718994 1029.552734 -323.574677
-125.876678 899.214661 -1199.720215
-146.918549 1260.843628 -1110.875732
-270.079865 1035.586426 -355.024780
-63.008549 1110.812988 -582.054688
-276.330261 1176.543457 -1072.123413
-246.884399 1033.124146 -383.655640
-107.587364 774.626526 -743.457886
-22.977812 1067.507813 -1115.584839
-342.743286 1031.183716 -461.227539
-415.591034 947.786316 -1142.751587
-77.850670 967.051270 -1183.972412
-349.695953 1031.408447 -520.386780
-104.371330 1065.810913 -1087.998169
-262.824463 736.690796 -1212.203613
-308.856110 1021.858887 -417.135193
-361.361908 1010.527832 -312.618073
-392.114929 898.179138 -1162.528076
-278.494659 1052.361450 -460.510437
-339.529755 1098.223999 -1087.224976
-189.877243 813.670288 -702.062134
-168.459473 808.222351 -719.411743
-472.758301 1124.563232 -1093.858032
-151.921707 1002.434448 -1165.561523
-170.914215 1048.226440 -375.192596
-176.151093 787.172852 -1176.203857
-9.858382 1088.856445 -1141.315430
7.709945 1073.279053 -1145.418823
-248.004593 769.581848 -1194.654297
-450.647949 909.356384 -1118.110718
-335.408142 1029.249146 -648.131958
-108.851913 833.258972 -1196.601807
-174.419067 769.492310 -1233.077515
-91.838295 1085.891113 -309.845795
-413.174255 867.923828 -1152.282715
-214.604935 942.925842 -668.572815
-171.873108 915.171387 -700.838623
-400.021210 1003.547913 -435.982086
-215.164841 1193.235474 -1102.409180
-139.170288 1057.235840 -357.245056
-143.048904 802.735657 -1212.360962
-110.541847 1050.771240 -671.771057
-328.414032 1033.677734 -422.033722
-163.713669 706.661743 -782.589294
-59.008766 1061.643677 -433.793671
6.290226 1009.988342 -1180.900146
-121.660332 924.453674 -1174.207031
-32.546669 902.800842 -1206.648926
-103.820259 813.755615 -1218.865845
-488.151642 935.496094 -1121.710327
-117.716393 1022.216431 -1144.601318
-272.138367 1037.461182 -371.453186
-130.332504 794.115906 -723.904846
-12.731770 750.290039 -774.917419
-455.078217 910.757202 -1108.495972
-100.291763 931.525085 -1195.819458
-126.081444 1053.182739 -302.028717
-71.095924 920.943970 -697.859863
-193.351242 1032.465576 -1083.477173
-310.250519 1017.615723 -321.168365
-273.627747 779.033203 -1187.579590
-130.578674 761.012512 -1222.525391
-198.361694 1014.218811 -1163.685547
-500.933014 1022.023010 -1113.471680
-310.912384 972.842346 -676.983765
-187.282211 987.497742 -1149.490845
-388.854645 865.895630 -1181.459839
-30.999687 1022.693909 -678.572937
-37.419987 919.900391 -1195.437134
-218.537155 913.810669 -677.157715
-68.256012 847.219238 -1208.468872
-104.473862 932.010681 -1203.533203
-53.518127 843.160217 -732.058899
-326.900879 1025.729370 -1100.084717
-299.854065 964.025391 -675.833923
-293.765717 955.659546 -657.776489
-375.836548 1122.588867 -1088.849243
-201.736206 1042.914673 -346.944702
-166.597855 1222.728882 -1126.261108
-108.447853 829.730774 -1209.401611
-432.524902 863.165161 -1154.986328
-292.674347 679.700317 -749.611084
-208.462189 1047.214722 -515.232544
-129.751129 834.833923 -710.122498
-402.390015 866.033386 -1159.899292
-164.583252 720.531677 -1230.015625
-136.802780 891.283813 -685.958069
-55.561581 721.368713 -789.275757
-341.351044 989.269348 -665.811890
-293.571625 799.848633 -1180.300537
-345.047729 1031.427979 -539.731934
-416.394318 727.219055 -583.887268
-259.657166 925.918030 -681.981934
-135.166428 705.640198 -771.550354
-193.508713 1093.522583 -1152.242798
-130.503433 717.442993 -1221.838745
-191.568741 1014.507813 -1043.086426
-129.525375 793.920166 -1190.686279
-151.206879 732.965210 -739.401978
-60.085075 1067.218750 -499.238312
5.945716 1028.335205 -1098.022949
-56.985355 721.833130 -784.743164
-197.228592 1046.910034 -394.170471
-69.174156 1066.539673 -1159.391968
-199.507019 861.701355 -1175.845215
-29.923418 870.208374 -722.031982
-186.372284 839.795532 -704.510315
-198.890320 899.033264 -715.328003
-138.826248 856.782166 -1208.479004
-123.594574 890.775391 -698.587463
-185.475296 993.898499 -1169.295410
-238.301956 1052.023315 -447.452667
-223.732788 1039.492676 -275.699982
-136.935837 1339.717651 -1062.624512
-284.033508 774.558838 -1214.854492
-334.249481 916.409241 -694.663452
-228.793335 1050.228027 -463.629944
-81.267853 693.050537 -778.503235
-380.347198 1013.076843 -440.103821
-15.537661 879.119873 -1208.497681
-206.953049 1184.631714 -1105.874512
-171.129318 1095.146973 -570.203979
-92.595329 1070.596191 -333.089539
-76.877686 1041.586304 -1142.016113
-212.598587 1067.175415 -501.091064
-358.108215 691.520874 -748.370239
-120.476685 1066.516357 -271.942841
-134.964752 765.707581 -723.804749
-258.348724 1054.703491 -256.894989
-144.234131 879.183838 -687.688171
3.955449 1039.409302 -1132.134644
-159.634811 1063.291016 -454.167725
-416.841827 717.957275 -631.385864
-350.104309 1029.530762 -354.851379
-72.137108 1059.671631 -1128.507080
-203.933701 1045.149902 -386.662781
-140.394180 1056.028198 -420.192291
-249.792160 1058.187012 -277.410187
-134.822693 1061.574341 -416.591370
-183.904434 911.166443 -1143.864258
-110.751518 970.021240 -1190.259888
-64.771317 1070.984863 -415.542755
-279.230286 1042.215820 -490.253906
-46.525566 849.586609 -1221.843262
-258.726135 716.697876 -718.703308
-74.758751 1071.560913 -1099.208008
-193.643372 1005.930420 -1160.544556
-152.491989 1091.556396 -553.526001
-204.724304 1002.930969 -671.451660
-353.672821 1027.186401 -430.695770
-139.815201 750.858154 -1224.009766
-162.805435 1045.869751 -339.511139
-1.835698 1082.021484 -1097.773193
-211.481903 762.773926 -1232.960815
-94.447212 1062.391724 -334.188568
-433.469391 823.131287 -481.080200
-252.572479 1038.810303 -557.272278
-24.586773 1052.595215 -1157.577881
-149.250244 1227.944946 -1091.130493
-249.562103 693.378296 -748.584351
-304.232788 878.812073 -714.004150
9.328372 969.652710 -1175.746704
-331.445190 998.153992 -1138.682739
-382.651276 886.030090 -1164.095703
28.003559 862.942444 -735.043396
-157.940262 1016.674744 -1165.859497
-301.165436 714.512329 -730.241699
-155.347168 1068.807373 -278.103119
-193.636459 700.903809 -760.321167
-149.231323 807.821106 -729.789551
-373.490356 1014.484253 -397.491577
-272.290833 745.271545 -709.904785
48.530712 1141.892334 -1141.063721
-18.847591 872.114258 -712.425842
-456.143860 944.754150 -1116.084717
-337.067261 842.842102 -677.472534
-520.036377 1025.462280 -1118.334717
-238.526413 896.106262 -1155.377686
-97.200676 972.363464 -1179.608887
-264.818848 941.410217 -1059.290894
-295.569702 749.503784 -718.763916
-442.481445 1168.326172 -1113.545410
-166.394882 1460.128174 -1025.191406
-122.276787 1019.748596 -676.821411
-215.622330 1050.057739 -413.040985
-94.435097 1020.890930 -1172.877808
-124.705124 890.820557 -687.513672
-372.817993 858.566589 -686.795593
-133.519684 1050.682495 -356.670502
-196.624908 1048.149292 -456.223419
-160.199936 1063.689087 -470.664368
-75.819023 835.462219 -733.665283
-232.233643 1209.412109 -1080.468506
-202.174744 784.732605 -722.718323
-110.331680 1069.148193 -455.803986
-225.446259 1046.248291 -410.736450
-384.826965 1008.001526 -423.799133
-213.403717 1108.860107 -1057.894165
-96.774567 1011.110718 -1175.414429
-221.253235 713.735596 -1209.011353
-123.092079 1072.164795 -441.259583
-211.833435 1059.858154 -471.563324
-289.640533 704.778076 -740.942627
-254.739029 727.852478 -728.909302
-320.905945 946.431702 -1143.204590
-38.181126 1079.134521 -1097.552490
-200.679153 1220.167358 -1094.872803
-173.482941 810.994202 -716.703796
-226.019226 923.661133 -671.325500
-147.466797 748.947815 -728.302002
-73.760864 1097.403076 -1103.190308
-31.767763 868.293030 -1192.311646
-127.472267 788.419128 -728.959900
-3.616185 1070.626587 -1100.282593
-481.528687 1195.849121 -1099.880005
-307.209442 909.278931 -666.637756
-34.672928 1067.803589 -1114.617676
-209.844971 1062.969482 -311.003510
-509.986664 899.773987 -1132.832886
-336.104156 785.104919 -705.096680
-448.137390 870.764099 -1132.023926
-292.472748 1031.455566 -406.597839
-228.698456 854.468628 -1147.710083
-155.148300 1211.664551 -1107.946533
-125.621864 1087.259521 -541.222778
-90.509834 1063.878906 -378.100952
-258.374390 892.519104 -674.321228
-295.539917 1026.262085 -317.843048
-169.787155 1048.123901 -301.735565
-392.076202 921.993896 -1144.603882
-62.124699 909.001831 -723.391663
-112.938576 748.642334 -739.062378
-243.604782 965.320251 -660.717651
-444.980743 828.990906 -1169.882690
-197.038467 1249.924927 -1076.390991
-242.760208 1006.694580 -670.332336
-212.203476 668.351318 -759.149292
-161.641937 954.000000 -1161.513794
-293.188721 894.423096 -682.889099
-307.014038 1022.283691 -1106.090210
-257.895630 1045.889160 -426.441895
3.167704 854.809875 -735.315552
-116.048424 967.545288 -1179.390137
-253.560532 1056.242065 -455.819092
-350.699860 829.615540 -1184.134399
-360.355988 897.395020 -1150.772461
-223.934052 713.141418 -738.062439
-384.545013 903.724792 -681.237732
-129.696945 702.278564 -777.147217
30.128563 956.569153 -1180.545288
-217.101776 994.163696 -1020.024658
-79.025887 1064.633301 -326.086456
-103.788361 1060.036011 -436.475616
-217.778549 826.115173 -1158.869751
-123.982475 839.597046 -709.288513
-66.175011 1058.817627 -1145.028442
-43.784439 785.559937 -739.427246
-151.656906 875.874390 -713.808411
-238.342468 1038.539917 -414.939636
-181.185242 1184.949463 -1116.222046
-395.652588 1007.848633 -415.041626
-409.777710 1045.381836 -1101.019287
-155.541306 1060.989502 -406.958069
-9.327583 795.465576 -756.243103
-335.724976 781.070374 -1198.113159
-355.184296 803.957336 -1189.050171
-271.158508 1055.005249 -497.925598
-86.969147 878.485474 -1209.225098
-175.897156 955.396851 -1189.593628
-343.473816 1018.478210 -438.256012
-133.449097 1166.535034 -1111.816895
-384.649384 1019.660156 -460.415649
-304.922974 755.079712 -1204.340698
-98.425880 765.481506 -738.938110
-13.407998 1014.565491 -1178.514526
-455.217896 884.790710 -1125.776855
-6.466027 813.247925 -750.882568
-477.853027 921.146240 -1119.090698
-180.892258 1072.609863 -473.278351
-181.486664 1055.862793 -674.922791
-129.630341 1023.520508 -669.273010
-204.829102 767.341736 -1208.004883
-156.824158 1055.443848 -1147.501709
-220.656448 794.369324 -1215.498535
-252.594376 1043.168823 -520.598877
-465.291534 1079.073242 -1117.738159
-6.124939 871.948425 -723.792175
-60.087296 729.647583 -787.133789
-81.811073 1045.442993 -1096.010864
-499.176086 898.970154 -1118.848267
-320.208588 1042.923218 -524.553162
-124.059875 1054.055664 -393.532104
-174.040970 906.095581 -1191.348755
34.574471 1132.103638 -1154.878418
-474.840363 1018.062744 -1110.240234
-53.546227 917.713562 -701.075867
-69.123756 1068.136353 -1159.726807
-229.572739 722.159729 -730.705505
-299.148224 1038.216064 -540.953186
-261.181641 742.192383 -727.889709
-189.887268 926.204102 -684.389771
-210.996841 858.883606 -704.714355
-218.431366 1034.427979 -330.668732
-97.225746 1069.030396 -436.155762
-59.310154 901.714600 -1199.414307
-403.060638 930.630249 -1139.293091
-86.619385 1083.399780 -535.461182
-82.110580 779.348022 -1222.486450
-258.071442 1053.853638 -334.379364
-59.253555 1087.180298 -475.536530
47.970257 1017.322510 -1192.661133
-315.781433 784.859314 -1199.665894
-348.027100 979.456055 -645.161377
-233.895401 734.574280 -716.882690
-197.705811 702.832703 -753.998474
-188.063461 923.467651 -1122.839722
-272.608093 765.688965 -739.688049
-235.117065 844.784546 -699.111084
-126.527016 1057.955688 -339.018951
-235.303726 1127.206299 -1032.211182
-2.692764 812.180115 -755.682007
-109.564453 718.032471 -804.075623
-149.132446 918.388672 -1187.457520
-136.031631 1060.626587 -414.309387
-352.966949 811.096375 -1183.346680
-94.002991 959.874329 -687.631348
-142.338867 794.658203 -1206.012451
-286.037323 757.462036 -713.145142
-266.380768 824.974060 -1193.790405
-71.451393 713.231995 -790.577454
-96.912125 868.731262 -1202.682861
-247.921997 773.878296 -1208.244507
-120.213158 902.036499 -1193.619385
-316.974976 923.142029 -1162.959839
-335.769684 1020.382874 -464.389862
-170.668640 1082.301514 -1132.283203
-126.943123 731.666260 -1218.937744
-123.162407 731.279602 -738.980469
-231.813599 1043.692139 -331.674133
-181.194656 874.682556 -709.265686
-39.268307 740.197021 -789.631958
-215.540680 1037.229370 -323.753143
-149.984436 842.966675 -709.093262
-107.282242 1072.717529 -1088.090942
-212.175262 1051.635010 -451.880768
-128.223526 923.039795 -1202.025146
-44.883099 1072.530884 -398.495209
-130.145676 1073.293213 -498.848328
-280.849365 1049.558594 -542.818848
-353.057495 789.708252 -688.846008
-518.699158 894.153320 -1134.279907
-261.857269 1030.472900 -324.617188
-175.749512 762.019653 -1214.216431
-85.652657 781.919617 -1212.132446
-171.433029 1215.379150 -1127.849121
-0.272167 762.396667 -776.359558
-249.034042 964.666931 -1027.679321
-169.786407 1071.041016 -273.669250
-242.109573 879.980164 -1176.482300
-222.834595 747.421814 -719.762512
-67.278984 925.950317 -687.397339
-217.609329 941.160034 -1158.690308
-269.515015 1071.858154 -535.388977
-235.102325 1040.366699 -516.041077
-286.797089 708.746521 -740.367554
-207.029037 912.514709 -1005.247559
-428.252930 937.845459 -1122.590210
-302.340210 1037.854004 -521.235474
-80.107796 914.690247 -698.651367
-76.955902 940.482056 -1200.828613
18.274820 1005.288086 -1164.070190
-460.351563 873.849121 -1122.235352
-208.236588 837.481323 -693.209961
-110.308960 1079.328125 -468.226959
-146.361069 1065.838745 -299.480194
-161.511826 1062.645508 -430.575714
-171.050385 1059.407471 -366.418243
-229.640259 907.675415 -1088.620483
47.153564 1091.360352 -1151.850708
-349.595398 946.837463 -1152.069946
-102.324463 1066.050293 -364.158356
-61.002056 802.521179 -1219.255737
-51.175644 739.157043 -755.160217
-349.103546 703.166870 -724.900513
-205.997040 828.492554 -706.181458
-146.867691 823.201050 -710.858704
-187.254608 906.881470 -698.691650
-220.575821 784.177063 -1228.599976
-328.356018 1018.395630 -329.824127
-54.366920 996.471619 -692.255920
-233.299088 810.436523 -712.338318
55.596806 1039.216309 -1184.373901
-49.677383 825.561707 -721.856201
59.887760 1064.049316 -1156.510010
45.576797 844.342590 -595.082336
-26.364477 764.478821 -795.837952
-215.140991 703.894409 -1222.404907
-88.883034 791.357788 -1209.561401
-268.229797 1036.330811 -361.555695
-172.738770 1055.574219 -1065.156006
-56.541924 1083.489380 -1157.686523
-123.660225 1050.929688 -329.266663
-143.086823 1298.570923 -1071.565796
-273.500000 1056.506958 -303.952240
-292.760010 817.866638 -1176.353027
-209.367126 990.606384 -686.589539
-296.298340 1050.311646 -467.767181
-251.962616 845.713257 -687.577637
-244.304169 739.925232 -1211.416260
-168.493790 1065.475220 -465.425964
-162.291367 1067.124878 -256.159119
-127.308617 952.519287 -686.334839
-167.210419 980.820496 -699.865051
-157.952988 1086.371338 -575.159485
-58.735748 1071.527954 -406.132935
-158.359894 1088.440186 -548.768066
-67.104027 813.997620 -1217.377563
-166.450485 800.626709 -720.060364
-188.304245 1126.562988 -1114.261108
61.768879 1049.782471 -1171.231201
-235.066010 884.663208 -678.180298
-124.730728 1074.187500 -420.316864
-69.762100 1078.358276 -342.973785
-146.480560 981.114441 -688.761658
-37.444653 769.677368 -755.906616
-47.475243 1085.775635 -501.064911
-232.983810 937.064697 -1096.649292
-181.968628 1056.540771 -427.865814
-181.079346 845.350098 -694.158081
-85.602791 1079.213013 -567.070251
-78.836380 1080.999756 -303.784515
-183.050629 718.548096 -750.226440
-97.478523 751.520142 -760.123352
-172.915314 1377.506592 -1047.940308
-244.040207 1230.867554 -1055.935303
-335.375946 894.229431 -678.872131
-208.202423 718.692566 -739.011230
-264.041016 927.703552 -1136.308472
-120.044090 938.717102 -689.831665
-312.953217 1029.408813 -409.800018
-106.681259 1072.343750 -475.577332
-65.440063 1015.866272 -1166.312866
-99.969139 1055.941040 -315.558868
-151.075211 1349.505615 -1058.267578
-204.028381 1061.011230 -561.380615
-56.820938 1075.465820 -351.294464
-157.895493 979.563599 -687.228882
-324.055115 1028.867554 -490.819397
-270.936401 749.898743 -744.582703
-291.106140 1036.983276 -365.432343
-95.083702 1050.539429 -1155.769531
-293.589630 968.480591 -1170.796997
-200.580353 1073.913452 -546.287109
19.338787 990.632751 -1197.758057
-271.850037 926.838135 -695.463501
-182.920273 838.463440 -1152.804321
-48.672241 721.620850 -779.007690
-55.811668 1044.835449 -1142.010498
1.560241 876.868774 -730.042725
-181.766220 860.479370 -1180.256470
-227.683838 881.456177 -1101.380493
-260.446289 1048.421753 -359.879425
-199.034576 1457.130005 -1039.946167
2.423407 965.061279 -1202.696167
-187.553680 993.296570 -1160.274170
-107.173172 911.050537 -698.290527
-359.575043 1004.455505 -1100.237427
-119.691658 791.713379 -741.311157
-86.076073 723.230652 -760.514587
-364.897095 958.931946 -1083.218872
-70.824394 831.584351 -1197.996948
-165.864288 1043.698853 -349.934509
-10.177004 805.765991 -730.604187
-139.485016 1035.498047 -1100.415894
-113.531731 1056.066162 -405.646820
-82.652885 1081.255737 -320.252869
-181.687408 1232.370728 -1118.175781
-6.111379 1042.853516 -1138.925171
-197.400391 1066.121094 -529.755676
-232.146362 1068.949829 -545.911499
-290.337128 716.616638 -735.581238
-60.117878 769.226746 -735.322510
-467.246002 928.047363 -1102.039673
-160.992004 890.819702 -1182.433228
-13.227586 1060.620850 -1110.523804
-344.289795 1015.411072 -352.966339
-171.410553 1058.719849 -560.169800
-302.749725 805.444397 -1191.131714
-324.339874 1017.200378 -357.110962
-297.504395 1036.482666 -503.037537
-227.807526 822.571289 -1166.207031
-164.658875 1043.888062 -284.339081
-160.432846 937.567810 -1175.494751
-247.775757 845.464661 -712.805054
-309.166962 1021.179688 -362.591522
-494.211945 1147.905762 -1087.012451
-226.275818 981.026794 -678.403687
-382.171692 814.529175 -1182.660034
-30.543058 916.336670 -709.893127
-212.177490 1041.326050 -343.865845
-271.690552 840.943115 -699.981873
-276.394653 879.367981 -715.425537
-135.436951 777.523254 -1221.355225
-300.400940 714.366211 -755.233276
-172.914795 947.942627 -1186.315674
-310.144501 703.281372 -761.027283
9.925825 835.217773 -759.507324
-120.733162 1067.194580 -433.388428
-163.734543 1155.272827 -1086.084961
-65.553947 1071.163086 -499.419220
-344.064453 738.076599 -721.296082
-211.376434 1002.385376 -1140.340210
-304.265594 875.640808 -690.324768
-381.300507 1014.076233 -389.169434
-90.506424 1051.708862 -1161.655762
-314.287476 798.900635 -688.049988
-380.941803 1020.871338 -475.458252
-219.931061 968.639832 -1136.967529
-186.685623 1059.859619 -513.235413
27.555443 957.694702 -1206.744873
-213.215881 1028.156738 -676.715271
-6.922201 850.966492 -723.590881
-378.762299 1025.818848 -484.008301
-197.988388 1154.557373 -1073.857422
-223.536636 1246.207764 -1098.666016
-359.080841 965.057800 -1123.945923
-152.475891 1072.096313 -473.182068
-193.758133 837.671692 -1007.520142
-184.825821 689.032776 -770.909607
-406.790833 828.693481 -1176.842529
-289.350800 1040.018433 -400.117889
-193.025482 716.161133 -730.116821
-228.643021 819.343872 -729.661987
-248.049866 1033.190674 -289.896576
-316.247528 951.342773 -680.408508
-116.081665 1065.526733 -412.312531
-111.878662 1055.333130 -312.058807
-266.983673 884.137817 -1192.737671
-20.776308 1048.666626 -1147.884399
-111.031555 920.405212 -711.548401
-235.888184 1035.969238 -310.798248
-66.415085 991.935852 -1187.028931
-338.603058 1044.535889 -532.591003
-216.115906 1061.152588 -447.702759
-292.294525 931.577026 -704.872742
-392.324890 858.971313 -1156.404297
66.324638 884.989319 -499.796326
-198.445129 738.414368 -1217.463257
-304.215210 1049.502441 -478.134583
-60.663940 739.707092 -765.889771
-343.694489 961.118591 -1053.958984
-214.989868 749.622864 -719.541870
-219.865692 710.794434 -763.688354
-265.803345 916.897461 -1174.871582
-373.342651 1025.549683 -475.701904
-376.266022 895.498535 -1164.720459
60.897369 1026.847412 -1174.476074
-260.997070 1046.703979 -496.007843
-42.616005 736.916077 -766.264282
-335.594025 1027.661987 -343.304718
-170.798492 881.557800 -720.887939
-295.636322 1020.059998 -318.652832
-176.188629 702.238037 -749.713684
-294.465820 696.399597 -740.219299
-341.933197 1025.225586 -387.143250
-25.996843 795.370972 -751.953918
-285.117310 1025.572632 -343.390961
-295.209137 1061.010132 -508.135345
-193.970963 981.598328 -698.472351
-404.774414 924.452393 -1135.102783
-332.613708 1030.930542 -501.826324
-302.281677 818.100281 -688.343689
-68.990013 1064.733032 -452.653595
-273.839996 899.322998 -1150.162842
-219.633240 856.060913 -696.135925
-337.552673 1029.260986 -426.105652
-479.280548 922.637451 -1086.788696
-121.481079 1061.351440 -295.931335
-41.743725 1064.915283 -443.638214
-289.451691 1030.333496 -377.795593
-379.557587 1024.707275 -494.358582
-165.614304 902.554932 -693.885681
-427.473816 995.739868 -1097.293335
3.780764 798.195313 -770.012146
-124.065765 1070.043335 -491.309448
-247.403320 1047.618530 -378.456299
-188.881973 839.270691 -1150.102417
-71.959976 1069.508545 -401.632111
-43.476227 723.312073 -780.609497
-111.455368 802.491638 -738.879150
-365.946594 935.341614 -1146.865479
-235.436295 745.371399 -1213.620361
-215.931335 777.697327 -1218.577515
-322.589508 771.961487 -1196.177856
21.734638 784.227356 -763.314087
-339.007904 977.672913 -1147.030029
-142.618500 1055.702148 -457.096649
-386.880127 850.979797 -1170.057983
-339.955261 870.154480 -685.710266
-299.780029 859.568665 -717.723877
-223.169540 1053.641968 -371.752899
-134.216461 745.301880 -1232.226440
-276.987030 1048.385742 -652.535095
-303.581085 970.760376 -674.140686
-308.617615 806.141174 -690.490173
-72.513329 1068.899170 -421.912231
-152.075912 1048.763306 -327.599487
-254.679871 818.070618 -728.330811
-185.756348 920.412842 -675.516357
-257.704010 886.357300 -1183.298340
-341.303375 749.397644 -738.489563
-128.636505 1270.426270 -1097.551270
-336.185638 685.511047 -739.288330
-321.046234 794.064575 -1182.603638
-40.237713 797.356506 -733.623413
-79.799423 995.758118 -1180.030029
-140.786469 1053.611450 -423.273376
-502.137787 1120.266846 -1081.796387
-83.078270 1019.069153 -1170.723389
-239.755585 991.224548 -1108.737061
-44.697613 953.225159 -695.123474
-215.214615 918.283630 -1127.575073
21.603582 814.862671 -754.383545
-266.409332 926.129395 -682.377930
-57.960281 1081.389648 -513.691711
-293.553131 1030.557251 -1121.261108
-198.518417 1261.072754 -1078.080811
-109.226898 713.854858 -764.049133
-130.664551 1072.692017 -1154.169922
-232.526855 687.490295 -754.264160
-288.082367 860.916321 -1181.026733
-81.086929 1111.730347 -569.920715
-203.320770 1046.535767 -372.966034
-268.585632 1049.832642 -290.135956
-258.062927 840.883240 -1185.863281
-253.489822 930.947510 -694.765381
48.209587 1113.361938 -1158.083252
-43.915215 993.430359 -1163.132935
-57.400372 743.006165 -758.843506
-432.865784 1041.524658 -1108.826538
-131.669205 1061.917969 -401.910187
-299.771820 957.544495 -1155.113892
-257.747162 814.935425 -1179.562988
-194.124527 1012.746521 -682.807922
-53.925175 1078.868774 -507.804077
-209.078796 771.942810 -1196.401978
-3.713140 1130.891357 -1147.719727
-408.949341 959.176453 -1121.037231
-111.075478 1078.074829 -459.815582
-225.193741 812.842773 -1184.317627
-134.631516 706.251221 -772.751953
-223.416443 892.525818 -688.966858
-356.394379 1019.282532 -422.721283
-236.920212 1062.751343 -448.966858
-186.006302 1155.027466 -1080.316772
-137.175629 859.481262 -1166.647095
-135.698929 1279.843140 -1049.193970
-93.572205 968.563538 -679.845093
-310.986359 1037.089722 -416.041840
-167.465683 835.451660 -1079.291626
-330.290649 1036.922852 -352.570404
-157.606125 1089.643188 -557.605896
-145.965851 859.198303 -1201.097168
-202.814621 1047.537964 -337.093231
-161.047302 711.924622 -1228.191650
-177.143204 756.145813 -716.675781
-295.808350 1032.607422 -398.571503
-0.691575 979.872925 -1185.673096
-416.308502 845.427307 -1156.396362
-25.778561 753.696472 -761.945007
-323.060669 786.097900 -1182.354492
-273.998566 1017.619812 -686.853271
-229.105164 1063.546875 -439.012512
-233.888626 1044.523071 -412.098694
-219.373352 1036.436279 -357.470673
-66.896980 891.591919 -1215.562012
-275.027954 1030.949829 -283.044922
-134.737991 1079.806519 -544.740356
-450.183319 926.046204 -1117.751343
-274.837067 727.689575 -731.982117
-410.217987 904.684937 -1136.199951
-392.885803 918.450256 -1133.859985
-370.153656 842.576782 -1179.951904
-148.948700 781.041321 -711.151733
-271.830475 1056.919312 -534.240601
-228.300858 1064.326660 -447.474274
-275.504700 933.546326 -1161.692749
-76.582146 989.236572 -680.244324
-185.903152 816.744385 -715.799988
-214.889832 1052.906250 -390.564880
-325.678406 922.472534 -689.373169
-67.284302 1072.743408 -393.367676
26.862068 978.365479 -1193.512451
-258.570435 1066.818604 -529.561584
23.090563 949.410767 -1199.782715
87.077225 1069.010986 -1172.571777
-270.981720 701.638184 -739.016479
-431.856659 915.349548 -1100.284058
-282.928802 994.663818 -679.473755
-11.309053 1070.151611 -1101.855347
-164.428009 710.449402 -1219.636597
-84.190849 820.382446 -1226.404541
-76.474808 774.774963 -748.731018
-193.683838 1062.243652 -1149.504395
31.041273 965.807800 -1197.109619
-332.441345 786.911560 -1196.204834
12.638471 811.921509 -738.529419
-262.141235 1028.297607 -311.916748
-295.061096 1038.093750 -1079.721924
-233.020828 872.482300 -1137.081055
-141.027527 1009.348877 -1146.722900
-126.526947 1033.235962 -1078.913696
-349.934479 897.244385 -664.628296
-68.890457 894.134399 -716.383667
-401.666870 842.500488 -1169.827026
-281.518372 1054.948364 -259.438019
-120.740898 999.956665 -680.654236
-62.398907 1050.755005 -1076.839722
-81.750511 707.768677 -785.692322
-335.646851 793.711731 -696.241638
-378.940582 1139.081787 -1085.195557
-195.196991 701.368164 -781.225830
-137.661819 1051.366089 -291.603973
-133.300812 682.927856 -787.134583
-518.957825 1051.966919 -1106.729736
-107.565163 953.759033 -679.805847
-187.153961 709.964844 -746.030762
-128.472260 1062.035767 -407.067047
-249.871552 998.808228 -651.190308
-117.746788 963.213013 -1182.583984
-405.152283 851.311462 -1172.507202
-352.078247 1012.416748 -352.086578
-153.398331 770.236572 -748.200256
-300.745148 725.668457 -710.308105
-283.134186 859.083679 -694.287720
-70.650276 725.201660 -754.772766
-198.008469 772.785950 -725.176941
-274.661011 1038.519897 -307.665253
-40.631054 876.492676 -1214.243286
-185.211426 1061.812012 -452.515045
20.006027 843.525574 -722.696289
-107.392487 730.743408 -743.650146
-208.095642 1080.354370 -1132.966553
-425.058899 842.321045 -1155.133911
-227.408569 1072.292114 -523.318726
-181.483994 1168.282349 -1106.886841
-19.560776 821.416138 -731.639709
-128.072601 907.673828 -687.768860
-342.340302 965.895630 -684.545593
-19.677317 836.054871 -719.722168
-245.297653 898.134705 -1173.328857
-150.068420 713.813965 -762.368469
-417.927277 969.492004 -1097.939209
-225.403717 1038.371338 -325.897461
-259.548920 890.068115 -688.965210
-58.094208 1075.534790 -337.482178
-212.803375 808.592834 -707.512024
-190.510376 1056.133667 -362.476013
-215.023865 1067.085815 -265.954224
-105.522957 958.215515 -681.494934
-105.875717 977.348572 -694.963501
-527.021667 1049.880005 -1095.389771
-2.470282 937.204529 -714.858521
-298.969360 1041.263794 -460.583496
-1.036837 978.158081 -676.668030
-173.543823 732.389771 -1229.245850
-106.496628 914.837891 -1202.705200
-219.182999 914.701843 -1161.203491
-149.130157 707.339539 -788.926941
-334.320953 1020.358398 -323.408600
-187.138962 697.900940 -788.335144
-132.615524 776.877075 -727.179077
-45.512623 861.510803 -1223.788818
-65.957092 742.297302 -762.907898
-308.792755 1025.120850 -280.887299
-73.156998 1093.446289 -325.830383
-159.445358 1053.323486 -450.553040
-225.086655 1051.102905 -386.468445
-209.523270 1050.921753 -661.862610
-405.501190 856.337891 -1166.793213
-492.884613 844.507874 -1149.774658
-212.248459 1053.785034 -383.415100
-211.233322 761.069641 -1199.382690
-252.371033 1251.815063 -1052.892090
-211.407501 1039.847168 -384.785858
-293.372650 944.693542 -1035.947998
-203.596649 1054.833374 -303.005890
-251.606033 1398.671265 -1051.960815
-82.190056 858.118530 -718.463196
-77.318573 837.083435 -706.413940
-134.821182 736.774292 -740.386841
-185.727356 1042.887817 -1128.667725
52.042896 1025.524170 -1187.953003
-143.699020 1114.936890 -1071.763794
-114.707977 1062.253296 -279.012482
-248.328262 1006.877014 -1023.081787
-390.421326 1006.153076 -393.278290
-366.227600 944.906677 -1150.326904
-314.290771 1041.050049 -460.177704
-176.378235 714.091919 -735.950623
-247.030441 1051.855347 -1100.745972
-34.199432 808.236938 -726.119507
-347.186188 1031.714355 -527.402832
-58.387978 954.443176 -1187.644287
-459.325226 845.072021 -1166.564575
-399.201538 827.392822 -1162.867920
-372.735352 1027.703247 -333.455505
-366.253662 1020.042725 -403.041046
-338.743011 1023.175232 -444.448486
-191.653000 879.250732 -1161.022461
-35.464634 869.790466 -709.783081
-226.489914 909.949158 -1130.650146
-160.914658 788.405273 -739.164001
-190.070740 1059.604492 -441.806641
-138.594009 1072.013916 -500.448730
-69.131973 845.478760 -1209.832642
-62.242386 1076.999146 -497.932129
-123.137756 1025.679199 -1169.554932
-365.754761 761.423157 -710.278442
-115.488846 914.635681 -707.585083
-178.973373 1071.071777 -481.058685
-414.575317 905.762634 -1151.238525
-192.663391 1024.790039 -671.125427
-144.011719 1084.662231 -537.305542
-297.346619 1046.390381 -287.879089
-378.574219 801.061707 -1182.533203
-369.488403 1035.088501 -543.924072
-348.007721 1025.958740 -411.355621
-202.643890 1055.492310 -343.281067
-111.118889 836.946411 -701.610840
-74.424469 896.059570 -1214.020020
-133.147842 1270.381348 -1102.950195
48.007397 1030.580566 -1180.757568
-328.623535 1016.384949 -353.414978
-433.382782 807.688965 -1162.383423
-54.726669 1026.655029 -1171.348145
-41.192348 890.046753 -706.493164
-309.131653 1037.855103 -271.264099
-207.761307 1052.164185 -549.931580
46.175106 1010.929321 -1180.132446
-231.936493 1057.253540 -454.033173
-251.707458 882.644104 -704.984009
-358.250671 1027.703857 -475.575592
-165.185333 1113.171387 -1102.560059
-98.346291 1027.978271 -675.652527
-360.387756 1024.572632 -456.252930
-278.194855 808.041077 -706.008667
-50.918518 1083.313110 -487.379852
-182.108521 923.552551 -950.809509
-190.675598 1050.502319 -339.636658
-294.087585 776.458618 -1205.194702
-261.755585 682.530457 -776.545532
-32.818840 1088.096191 -1106.739868
-372.489990 859.026184 -1183.641724
-398.174255 1024.916016 -491.631592
-93.202736 1073.200806 -456.270294
-210.333817 1275.927246 -1014.179993
-376.795990 934.630493 -1073.814087
-194.865875 1060.393799 -673.024048
-447.622284 841.266541 -1148.430420
-147.671005 1165.953369 -1083.146729
-306.953705 822.365051 -1187.137085
30.571421 1027.514893 -1181.818115
-130.981506 1067.477417 -456.215485
-238.517944 789.573486 -712.309265
-323.847504 1037.039917 -519.954834
-132.952255 897.232727 -1194.282471
-229.893921 655.430481 -783.411316
-91.465660 1054.601929 -319.817444
-453.310944 922.801147 -1123.760864
50.208424 970.176880 -529.669189
-89.441483 1003.052673 -1155.545654
-74.473511 856.355347 -1194.699707
-93.054237 1056.943970 -1100.100098
51.814476 855.769531 -593.899353
-310.095306 985.819458 -1053.922729
-347.770630 1022.420349 -463.183350
-149.184143 863.389526 -1164.020752
-355.898895 1037.113647 -497.086456
-384.516846 961.525879 -1133.997437
-33.263214 817.172241 -732.613770
-307.286407 1026.604126 -528.443970
-131.185104 820.225891 -706.154175
-416.152039 852.479004 -1151.758179
5.870268 979.582153 -696.383728
-371.312622 829.848022 -1201.246094
-67.313354 801.297119 -1220.113770
-176.540100 1043.382935 -254.798111
-394.995117 971.649353 -1128.190552
-107.196396 1052.699585 -316.534637
-163.787720 1023.983032 -1161.564575
-274.982544 787.992126 -1217.465454
-285.299957 1029.079956 -379.114868
-344.551575 1019.448669 -387.582214
-231.336945 806.265869 -713.488892
-307.573273 864.639954 -1163.269165
-57.570889 1059.065918 -1138.443726
-160.503708 1077.589722 -495.763641
-72.720497 962.336548 -1196.454468
-292.252319 1041.595093 -269.059021
55.280125 1052.215088 -1168.103638
-423.031830 864.810242 -1165.041748
-279.970581 954.801575 -680.819641
-457.258789 840.740845 -1159.596802
36.001629 1107.288086 -1151.255005
-285.499695 1061.698242 -504.366333
-335.043732 1027.218872 -1116.733887
-73.502037 829.913208 -718.377991
-234.553864 730.897949 -729.953430
-233.664536 687.824646 -757.204102
-168.213959 856.735413 -1113.017334
-210.533569 1038.051758 -357.741089
-70.836258 721.382568 -797.126587
-300.073212 806.174255 -1194.185669
-145.399323 1056.901245 -366.291077
-137.820480 1277.427734 -1077.244141
-253.385483 855.385986 -1191.011597
-131.170288 718.573059 -749.758728
-49.509567 874.109436 -1211.415649
-156.021057 1070.574707 -502.622986
-126.775925 707.698303 -773.071960
-390.567352 884.601440 -1056.375854
-212.496078 703.862427 -737.938354
-428.180298 964.292908 -1085.234253
-190.740341 867.773865 -1143.383057
-290.839417 1028.255859 -360.856415
-340.651031 847.892273 -1179.677002
-143.285187 809.778320 -1198.213501
-335.622589 1019.865173 -428.201477
-117.383217 1062.451172 -389.278687
-199.389755 1055.684692 -365.921356
-286.346497 1006.025269 -1103.500610
-162.825592 1284.874878 -1063.103760
-119.670525 771.724731 -723.948547
-332.908691 1019.778503 -370.482452
-513.742188 914.672974 -1140.213257
-83.735664 1075.962891 -327.690613
-255.871780 1038.116089 -285.332397
-228.656982 819.057739 -708.578491
-40.974792 841.944153 -1212.273682
-246.380493 798.307983 -1211.112549
-519.324219 883.155273 -1096.394653
-184.176178 1299.263428 -1031.481689
-139.614395 1053.165283 -313.171082
-198.494049 1040.190063 -314.569824
-152.282974 1250.400513 -1097.786743
-378.953522 978.288025 -1120.815430
-284.021057 921.853638 -1169.414795
-315.789368 1022.496033 -319.478271
-271.208588 946.409668 -676.159546
-121.640121 689.332825 -762.138123
-189.558975 1051.767456 -388.025391
-192.408051 946.100159 -1160.886353
-54.159920 1078.229004 -400.098785
-425.768921 947.233032 -1116.146973
-230.587433 1052.520386 -552.474915
-155.546326 1134.486938 -591.474548
-80.239975 736.023438 -760.291687
-161.381989 1104.417603 -1086.714722
-158.602570 1018.047668 -1151.221558
-225.556412 837.457703 -699.352905
-13.791907 927.594971 -1197.067993
-260.783752 934.029602 -1166.758545
-295.280548 1008.139465 -1122.973389
-11.120786 1008.995361 -1159.110352
-51.718254 1096.074951 -558.618042
-19.182957 1090.041992 -1154.474854
-61.688614 932.327759 -696.108521
-367.568390 1025.784302 -511.305573
-71.110123 885.284607 -1216.831787
-386.743195 927.696472 -1163.465210
-130.173416 719.156494 -762.369629
-188.297729 775.857483 -733.301331
-80.741516 729.919556 -750.471985
-137.474380 744.892578 -748.896729
-40.291683 795.265503 -757.588623
-161.410950 1088.779175 -559.860962
-106.711624 783.608337 -1205.571167
-129.407806 723.205322 -742.082397
-204.999374 1002.049500 -655.664368
-13.308879 812.229614 -735.662659
-127.591911 962.739563 -695.538025
-320.552948 872.938049 -1175.032349
-457.612885 1146.407227 -1096.871948
-144.634933 711.905701 -766.068909
-230.083664 1063.107056 -430.642700
76.309990 829.512390 -624.744141
-233.070526 1041.769531 -1134.640869
-43.553509 1082.620850 -521.025208
-117.882050 1058.755005 -400.018280
-363.594330 1025.938110 -423.047119
-251.872986 1042.373413 -492.519470
-13.170993 799.664490 -746.152710
-93.795471 835.263855 -722.306396
-47.143372 1123.609253 -1120.334595
-61.236984 1075.397217 -376.068420
-213.847626 876.572205 -693.355774
-267.926392 933.820740 -1168.823364
-297.648529 1031.856812 -283.245514
-202.555267 816.418945 -1214.400635
-476.039703 870.156372 -1167.055542
-321.553741 821.688232 -700.575806
-94.942734 986.622498 -1183.664673
-143.754303 1050.714966 -292.521454
-198.891449 812.997437 -1211.280029
-276.732391 837.126892 -1206.000244
-271.918762 967.774902 -1174.305542
-65.504562 1086.669189 -485.095978
-100.724098 1075.185181 -540.013306
-283.009247 1026.331909 -372.142426
57.649948 1072.674316 -1164.436523
-397.691895 896.663025 -655.762024
29.006184 1051.872681 -1120.797852
-263.674103 792.633240 -728.545166
-250.847595 927.495972 -696.205811
-102.483658 1074.387939 -1143.252686
-374.626099 871.699158 -687.578796
-80.893440 739.537659 -753.624084
-137.482346 919.104736 -699.580872
-90.181458 784.117004 -730.600769
-376.737518 1087.115479 -1093.433594
-475.033020 841.033020 -1162.307251
-63.908566 892.213867 -712.080261
-56.131065 932.546021 -1197.635864
-178.825775 783.612244 -720.813477
12.667112 816.699524 -742.143799
-373.207764 1010.173889 -390.623199
-85.146942 801.216858 -725.500366
-135.478760 841.437805 -709.495972
-276.616943 1040.754883 -488.791168
-86.465111 784.093140 -735.269775
-71.030357 1089.832886 -494.620789
-261.847229 870.818604 -706.607239
14.207378 964.781189 -710.532959
-31.916094 982.402466 -679.786072
-537.176880 966.179016 -1105.060425
-32.121929 840.843994 -1199.155396
-151.790695 1047.432983 -299.934662
12.534624 995.088318 -1195.589478
-489.503998 1017.842346 -1110.091309
-20.247112 779.624512 -779.322998
-133.289444 848.106201 -1206.806519
-90.980278 937.821167 -1187.460327
-105.394928 1064.833252 -1077.675537
-266.966797 698.870300 -734.581116
-314.277588 782.275940 -1184.060913
-263.893738 1034.757568 -461.670074
-123.207748 1077.226563 -532.502747
-310.788361 794.820190 -708.306030
-236.203842 754.403809 -1210.439697
-256.879395 1069.127930 -529.796936
-120.731247 985.666748 -678.488586
-281.484711 800.720215 -1183.657471
-182.591522 872.683533 -1083.424805
-393.655243 955.250793 -1113.766479
6.425804 816.555481 -765.619934
-138.650116 698.788940 -770.128479
-137.240280 714.423279 -782.397461
-107.335258 1069.141602 -430.811584
-313.859802 713.515015 -729.281616
-136.232285 1077.321167 -473.288025
-40.074951 1112.589478 -1140.192261
-165.259735 1128.365112 -1086.012207
-64.537010 776.012756 -754.394348
99.375320 865.573242 -537.608276
-170.383331 925.073303 -965.160645
-266.722473 1044.224976 -370.027710
-175.350632 984.233093 -1152.313965
-71.666534 828.572815 -1217.804443
-154.376083 953.070923 -1191.404785
-230.612274 1024.620850 -666.067017
-281.778290 870.335388 -1177.939331
-56.972237 764.561035 -750.205688
-154.716858 1139.835938 -1078.033081
30.133711 1108.389160 -1157.246216
-101.820396 1066.686523 -414.499359
-436.482819 921.708313 -1121.717529
-29.112696 1058.596924 -1100.148193
-191.042099 857.456360 -1178.363770
-151.671066 1056.832153 -446.463226
-192.245529 1043.913086 -335.745972
-522.017700 894.633728 -1149.366577
-223.723633 1376.413818 -1027.296753
-33.507904 808.856445 -731.348938
-364.020477 1028.327393 -382.341614
-167.635590 1302.928101 -1057.022095
-430.810944 938.129639 -1157.494507
-99.699883 724.542847 -756.307556
-92.835068 798.838806 -714.738647
-133.586273 719.812378 -1231.762939
56.556019 893.601074 -584.019958
-166.162949 1015.981262 -1158.516357
-261.081055 1074.434570 -676.920898
-321.673096 1021.823120 -298.873901
-100.073944 1069.332886 -434.855896
-132.582306 1071.240112 -296.288025
-128.942413 846.319214 -715.602905
-315.644623 890.360962 -1172.909058
-250.650208 1050.381592 -512.138794
-122.816673 933.175232 -690.400269
-241.255875 876.973816 -691.428345
-32.578400 912.559509 -1198.701172
-334.412201 757.005249 -713.670532
-352.471161 890.468506 -1165.831421
-194.783508 821.087830 -713.980896
-313.671295 739.331604 -1192.194336
-127.596710 904.172058 -1188.857056
-48.223034 1049.985962 -1124.136719
-140.451660 754.144897 -732.987854
-109.369408 912.255981 -1199.623413
-140.493805 870.772949 -725.298096
-121.240273 802.642700 -1218.104980
-143.112335 1019.961426 -661.559204
-279.178986 1025.446533 -317.389954
-172.341873 780.640259 -708.136108
-369.286285 942.145935 -1065.564819
-327.996979 950.899597 -1156.527466
-157.788177 997.920410 -1149.522705
-333.042542 1015.017334 -296.077332
-244.365860 1056.008667 -440.016724
-369.841217 1018.886780 -431.127014
-120.652847 748.622864 -1228.632568
-41.725430 1065.633179 -480.452332
-307.641876 912.231445 -1167.397461
-304.879639 1044.171509 -466.058746
-152.755844 807.388733 -738.374084
-194.612244 1050.336304 -381.843933
