ply
format ascii 1.0
element vertex 1388
property float x
property float y
property float z
end_header
994.077026 611.243225 -305.687866
1458.247681 335.474121 -313.917969
967.973999 358.726532 -222.872360
1014.687134 682.618469 -293.760651
1448.020264 270.783813 -305.893494
927.402771 420.168030 -341.600220
789.515076 807.573303 -132.467102
914.859375 744.865662 -372.596954
736.196594 770.831787 -420.933075
956.266968 569.155151 -417.455963
1368.488403 371.113922 -613.421326
715.467285 799.864563 -334.364838
706.985046 837.167053 -182.803162
872.714233 721.776062 -410.016815
818.286377 743.295166 -453.435455
1473.323730 404.137390 -257.397827
1323.602173 259.837555 -412.440674
1359.552856 246.912857 -515.252441
998.511902 640.610413 -385.483917
967.672913 630.319214 -485.858276
916.665771 394.660980 -481.135651
997.225647 316.812500 -229.929749
899.982300 751.541321 -156.273468
1320.134155 353.126862 -660.241943
1405.871338 400.325165 -430.355042
851.470642 775.550354 -256.179260
742.071228 770.811523 -425.670898
909.559875 326.433838 -436.143066
995.790344 498.805573 -181.225006
1349.288452 187.947540 -506.853882
1372.907593 203.711472 -431.559021
1443.388672 482.944153 -246.984100
1027.100342 578.885620 -197.551620
1468.320313 790.525696 -499.072052
1378.410522 358.232025 -465.337616
915.937439 745.835266 -253.161804
926.461121 403.585419 -377.626129
1330.404053 300.773651 -672.454956
902.489380 336.998993 -469.913574
1346.340454 265.848511 -570.835022
724.307068 772.935242 -469.414734
1376.258911 503.185883 -445.111176
989.503906 457.915436 -206.474152
653.648987 876.610535 -297.951691
1432.099976 315.008820 -291.936707
723.511353 815.258057 -358.839813
970.715637 300.133820 -272.563110
769.418640 799.721741 -211.699753
1480.989380 403.751007 -249.147842
812.357300 779.514465 -271.078949
1408.338623 623.868591 -414.460358
973.621338 563.065002 -369.745026
1342.844727 164.570755 -512.038574
933.523865 420.597137 -415.198334
837.507874 770.696411 -192.826004
1374.305298 497.448639 -386.991089
858.796997 763.253479 -299.584656
1304.456177 465.017029 -440.284698
888.672791 366.241272 -442.031342
1427.857178 275.786896 -344.290588
940.746582 315.871948 -367.201416
856.832520 757.453064 -316.672974
713.730957 848.261658 -185.969559
1032.288452 702.881714 -270.306641
761.829590 796.782593 -258.992218
1344.397583 206.112442 -534.706116
1340.982666 335.337524 -406.457184
872.698364 769.694092 -275.553802
914.988342 316.339355 -396.311768
1449.040894 348.489594 -311.947510
987.831604 452.113037 -225.901825
829.265198 764.588318 -327.424103
900.642700 494.874390 -511.186554
868.768982 780.682434 -166.992905
897.385559 482.605896 -511.685547
920.863281 739.398315 -231.255646
1511.211914 837.950684 -467.403229
700.277649 810.773438 -272.389069
1034.641357 417.866516 -150.702972
684.887512 835.355347 -189.285553
797.766296 803.514465 -152.486359
1457.342163 485.934235 -281.120880
914.811157 419.002136 -437.822693
1444.292847 266.970001 -281.971497
1329.730225 376.438477 -624.724731
1508.433472 453.491791 -184.657501
981.385620 365.692688 -248.748291
648.242004 838.968811 -293.477142
1385.170532 153.809280 -402.140961
950.232361 307.547394 -321.663422
1484.342651 402.785095 -208.998474
863.473694 757.952209 -340.809113
849.010986 774.622253 -222.232361
981.492920 519.062866 -307.476105
725.005920 794.025391 -327.141907
1003.534729 523.826233 -295.021667
1353.710205 207.872528 -419.139008
765.976563 803.632385 -317.917603
1510.437378 510.902527 -214.895981
1011.606323 410.722260 -126.780655
1461.918335 664.684082 -405.172302
1365.100220 145.701782 -420.673676
1340.422974 143.229599 -464.081299
1392.726685 196.490555 -360.611359
946.624512 388.018799 -307.804901
784.648193 779.914001 -339.561371
941.464600 507.017731 -372.326233
994.080627 327.536530 -242.838425
1307.871094 291.353790 -672.386169
793.961548 758.649841 -370.331360
868.031738 770.100952 -183.483795
1287.704346 421.076904 -607.771423
1373.702637 535.343994 -665.062256
953.817322 303.257813 -349.139984
955.499878 439.904388 -375.786194
1378.813721 145.317215 -381.211365
988.172546 647.358032 -418.683807
1399.791626 287.699677 -391.304169
710.410461 819.179993 -312.133606
1406.205566 412.049194 -432.684967
892.171143 727.298767 -357.967316
888.304138 499.333435 -507.017853
736.732300 811.980103 -285.696838
953.601013 455.712219 -393.103760
902.999146 327.762756 -409.018005
866.016541 771.925842 -209.690323
1357.855591 196.630615 -496.739960
975.733215 323.436371 -242.851212
1286.270508 498.716370 -491.227722
851.583374 782.789917 -192.669907
1430.527100 543.968140 -423.099976
1002.113586 382.544312 -181.913620
1490.251709 377.457611 -190.965149
918.501892 763.782471 -185.842026
1523.854980 822.440247 -357.462219
854.088440 745.677917 -398.706451
1303.696777 448.537567 -503.922638
1467.802246 401.662109 -321.397400
997.198181 425.828674 -164.657074
1430.269043 339.113434 -330.319183
706.613892 809.250854 -290.073944
884.139282 739.673645 -382.840942
971.569641 567.598999 -415.840912
1319.197388 400.646729 -649.851196
1472.296875 459.833649 -279.896057
792.977905 750.171326 -484.927002
794.048279 767.784790 -384.621002
989.892456 326.921082 -215.514511
1454.427490 617.581055 -404.521484
1343.426758 256.740387 -564.178406
999.598572 640.988464 -325.642487
991.566589 391.430969 -183.469696
725.707642 787.471924 -363.433563
970.587585 495.680542 -271.485840
1496.781616 539.647156 -239.699448
733.006775 782.955994 -389.252869
1458.013184 475.925171 -308.130951
1418.956665 291.534698 -319.961273
1513.584839 809.612976 -334.294373
777.068726 790.045959 -208.274475
676.384094 812.069763 -330.533875
1361.479126 241.296860 -540.711121
1526.327881 834.153931 -364.919067
884.416748 758.659912 -245.355515
734.145935 807.900024 -259.061768
1337.806152 278.771637 -566.525940
805.311035 789.045532 -174.830734
975.490540 558.040527 -388.108551
1306.681396 360.102966 -681.556519
983.576294 293.937897 -260.306488
1469.017944 600.004944 -365.305664
950.770691 360.629150 -317.869049
700.402466 803.596680 -389.759338
975.500793 431.575043 -313.968597
1349.475708 249.976532 -498.242737
923.338318 430.317017 -425.686157
1042.200317 512.715820 -146.716537
1481.399414 358.202728 -242.622009
1404.873535 208.335281 -310.176208
887.237549 388.252045 -473.405579
968.689575 532.492493 -360.519318
950.524963 660.835205 -504.629456
1363.192505 187.846268 -375.636963
1356.484497 485.568542 -586.834351
1503.539185 798.417419 -359.332977
986.660828 605.503113 -395.456726
1521.833496 471.738007 -149.338837
1467.638062 393.813446 -270.993408
892.144226 718.706848 -367.157867
983.935303 428.595825 -253.882736
1309.945190 420.261139 -715.514709
1030.345703 661.213989 -221.206909
1457.011719 443.032471 -338.648285
1435.213623 360.858246 -402.560303
972.533142 379.526703 -237.500290
1022.383850 466.100647 -130.602570
968.816772 456.827637 -251.180405
893.423096 760.456848 -275.227356
1485.885742 457.601318 -216.982834
963.472229 518.615662 -410.065857
1348.208496 397.727081 -628.174683
893.827759 748.224365 -336.981323
1385.269653 204.377243 -385.884888
703.721130 833.454285 -235.547867
1353.839844 311.618744 -465.962250
1026.770874 624.016968 -140.233261
670.727173 827.489441 -353.865936
1373.334595 156.081345 -443.977539
1500.298096 461.197662 -175.568161
847.212280 738.012939 -429.501434
990.828247 394.386139 -170.874161
812.054077 787.070496 -235.622314
1412.518799 517.759155 -323.588135
1375.702148 453.918182 -548.542053
1470.649780 417.818573 -286.396973
840.247131 768.245850 -333.952545
940.792908 738.995422 -197.686249
1355.397339 479.502045 -573.796326
946.183472 536.314758 -407.632446
991.531067 467.664246 -235.183105
1355.674683 258.981445 -537.781433
1428.123901 480.320282 -280.041199
923.459839 433.025482 -463.301361
825.461487 754.196533 -330.909546
861.176270 762.138489 -167.824142
1391.343872 416.632813 -425.109711
1012.470947 734.688904 -354.007019
629.035278 835.940491 -355.129333
1367.845093 352.582489 -570.636658
737.354492 792.641846 -311.618317
931.412781 460.832245 -396.125671
827.341187 804.447021 -142.674057
1312.276367 403.763336 -695.504517
1493.810425 483.456635 -240.523148
993.404358 668.826477 -372.771423
865.322998 753.500610 -344.904053
689.371338 820.762146 -295.477203
1448.760010 381.027863 -382.663361
969.248596 442.115112 -277.078583
1479.769775 427.544586 -231.464432
1464.840210 457.136047 -238.169601
1402.454224 331.279724 -399.793488
940.938599 470.847046 -348.883148
815.134460 781.925049 -257.366852
1025.209473 535.624939 -201.530930
1516.175415 507.932831 -202.830887
1382.175171 157.676620 -388.418823
934.950073 414.160736 -410.954590
814.455505 764.110535 -363.533447
1318.834839 418.713287 -642.758667
949.428711 462.921295 -396.187958
986.187195 494.203522 -142.034958
933.543335 367.529724 -350.895111
1396.465576 743.356995 -445.063019
989.099487 434.232941 -252.574692
943.248169 530.360229 -375.916290
1477.733154 507.321289 -234.562393
1427.487793 477.281860 -430.412506
1331.177124 283.345367 -435.914978
860.719910 771.710693 -245.284439
1377.549805 553.756592 -554.490967
972.111450 601.322021 -438.996643
1389.060669 297.780182 -500.401337
1303.760376 339.279358 -645.014954
1004.405762 395.466736 -166.585480
959.574463 317.978088 -278.449188
1536.379761 826.741272 -374.456146
1429.204956 299.020996 -374.667419
1420.190063 322.669403 -387.138367
908.241577 328.642578 -419.393829
1380.554688 422.061005 -557.113770
1418.377197 202.415268 -310.269226
953.970886 380.893707 -277.026825
993.318665 407.513580 -213.847687
1375.531006 317.511353 -574.538269
915.181519 303.466492 -407.397980
953.003296 385.966980 -284.562408
840.018738 761.940125 -369.752350
1400.804077 323.322144 -400.175323
1446.338867 317.981415 -238.881775
1004.427734 538.404175 -226.445175
1001.082275 472.515015 -156.972321
973.147278 466.939636 -317.578247
1015.808350 419.680847 -158.225449
912.963196 400.233093 -432.428986
1018.470825 539.187500 -153.906998
779.421204 796.834534 -246.783646
1000.946350 555.025696 -284.634308
925.472961 446.955933 -425.634155
1000.983398 662.039063 -347.246704
964.798401 576.403625 -452.582062
1366.763306 371.723053 -551.956848
984.733765 467.765839 -256.468689
959.393433 319.169952 -336.745422
914.270264 321.077789 -472.681458
748.055298 753.676697 -445.774200
914.164490 326.196899 -404.376495
1421.025879 354.513947 -352.302277
1444.322266 275.514893 -324.589783
1282.943115 316.179749 -731.155151
749.579834 798.767883 -319.440552
1415.267578 516.111084 -356.812866
1007.781250 660.243103 -329.073853
813.143677 779.761292 -291.720245
675.686096 839.890320 -203.221863
624.057007 843.012878 -349.965363
986.046021 382.742157 -209.682663
862.572998 771.189880 -192.270493
835.522156 736.121826 -450.970673
909.881470 452.954712 -483.784424
771.568298 794.631165 -168.292557
1365.402710 238.033142 -496.633179
930.369080 382.903656 -354.199890
1330.812256 317.503296 -654.061523
688.983337 810.648071 -326.288025
1024.235718 433.689392 -142.573608
1000.174011 604.407654 -384.526398
1482.655640 364.487396 -206.839249
696.218994 808.308777 -387.840515
776.232727 780.165161 -327.593994
1346.893188 263.835480 -563.351379
1306.408691 260.196625 -631.893127
687.323425 829.729858 -302.649628
968.570435 409.041016 -255.800354
1469.334351 341.089508 -221.607925
926.625732 733.643616 -308.819214
1499.742554 680.519958 -412.710022
1386.583130 160.568375 -335.326965
925.078552 739.762024 -234.855270
1356.022949 494.402954 -574.704468
838.550476 771.915222 -275.319489
1343.556030 303.495239 -380.588135
936.156067 739.671265 -213.649765
878.052979 774.582275 -167.560867
682.074707 805.618774 -339.541565
1511.309814 460.174164 -162.784317
997.897888 536.920593 -236.434586
809.349731 738.160706 -460.727173
892.737305 757.463013 -238.415527
1373.019897 316.356750 -524.341370
936.383728 416.766144 -366.089844
958.587708 351.530853 -322.970886
1440.189697 493.113342 -207.442551
955.346069 491.101776 -303.029266
1189.076050 398.499146 -383.760223
1345.651245 298.525208 -547.766235
707.759766 819.639709 -311.153656
643.193970 824.156372 -408.975372
727.651794 805.572693 -302.677155
945.520569 608.471680 -430.117004
1518.788330 780.894531 -359.683350
1450.206055 304.016693 -325.822876
1348.337280 273.641052 -620.599304
1433.399902 429.858887 -408.033386
901.326111 346.011414 -461.263275
970.621521 468.952209 -242.298080
945.867615 563.744202 -465.375824
1448.362183 429.087921 -340.762421
659.996704 836.980164 -265.972137
813.782410 741.713989 -444.607941
822.536438 754.492310 -429.872742
999.690674 644.440613 -312.797394
1519.157349 455.026794 -171.886658
969.511169 546.932068 -449.235352
801.624695 789.437683 -269.565613
964.957092 545.976501 -370.725128
978.810730 539.638672 -306.947052
1288.378784 347.407135 -687.685242
1356.260864 296.523834 -594.214233
940.687073 392.919525 -342.832001
1343.615479 289.161560 -544.361145
787.789795 787.431946 -201.568527
983.657837 611.701782 -343.585724
942.194885 771.655273 -146.399307
1391.612061 215.843964 -439.516205
826.938904 785.072815 -136.066971
1359.252075 401.788269 -610.205383
979.830688 516.145813 -289.023132
1510.146362 508.358093 -172.210510
1394.155273 350.872650 -507.292572
1015.101196 674.053955 -289.030762
1439.349121 481.728119 -361.368988
1363.906372 619.627075 -507.199860
761.604187 826.191772 -144.668961
899.883972 341.498962 -434.446259
1424.011963 495.582764 -255.331543
1508.121826 556.570740 -228.711227
1485.136841 545.148682 -235.164398
628.379395 826.794373 -366.841248
1470.678467 601.920959 -417.681427
920.735657 481.387360 -452.073761
1007.923096 731.902283 -336.998047
729.070740 823.821777 -176.543732
798.616882 780.770020 -285.006104
1022.819824 577.903931 -189.709579
691.353943 829.228577 -273.364014
1364.399170 481.527374 -356.988251
1478.374146 654.294067 -363.872314
1332.128784 450.663147 -735.523499
639.774109 818.548340 -396.171021
1431.639526 679.681458 -308.462097
1373.953613 537.817566 -719.203491
986.717773 320.776733 -266.586212
963.788330 435.291077 -283.951996
1422.152954 313.165466 -325.677185
997.777649 451.756592 -193.794693
1484.153687 477.238281 -276.984253
839.112000 743.153259 -372.847565
1445.869629 291.247925 -305.020691
1456.025879 512.500610 -269.568756
1450.373901 325.546783 -288.930420
1013.394714 577.633606 -223.826935
1312.324219 379.084167 -674.687378
775.732178 780.332825 -298.975159
1487.533569 364.906982 -236.214447
906.527649 493.572418 -466.433350
1346.738159 299.578827 -584.830505
706.507019 838.919922 -192.458740
935.285645 322.740112 -361.641052
849.570801 596.823059 -24.091827
898.979187 752.073853 -165.313782
1344.928833 482.749451 -565.226990
1460.483765 576.364685 -291.054688
711.991882 809.439270 -279.687805
1366.263916 480.068787 -567.244812
1354.670044 211.556671 -462.085510
1034.869629 419.253204 -128.774673
1392.549438 140.494446 -360.680206
1468.086914 372.498901 -261.469360
908.235291 747.689087 -341.120453
978.303284 541.841858 -406.780548
1406.698730 364.413086 -408.401764
1009.216736 534.105408 -207.993774
1357.554077 329.915375 -581.903503
1478.781372 621.135681 -350.794373
935.388184 314.995605 -304.442352
1342.809937 321.924347 -633.274292
1008.722534 468.754944 -157.327255
760.052856 803.107605 -172.255051
1513.162231 481.578461 -163.044022
1006.468445 630.550476 -382.514496
1438.192139 246.897598 -273.116974
1478.403809 439.486023 -220.411667
1481.177734 413.251160 -269.123840
876.044434 400.993103 -496.470642
725.996033 805.712585 -245.967041
1266.583618 343.147949 -711.395325
1362.212891 294.576172 -539.940491
1026.538452 647.503052 -226.579041
694.773560 803.765381 -355.324463
945.429749 407.021271 -331.924988
818.229187 779.523438 -169.797455
1504.583374 557.561218 -219.666687
980.070313 433.532104 -238.561005
1395.566772 255.594620 -402.981354
1356.459961 174.235809 -486.052429
840.716675 733.690430 -436.041565
1461.344971 415.109863 -341.010895
696.040100 823.831543 -209.697449
723.727417 823.086731 -175.328354
1353.255005 273.746277 -548.254089
909.343140 744.649780 -292.925598
1004.676147 654.379211 -303.736481
1415.082764 480.128174 -371.664764
675.490845 853.375244 -276.382599
1425.162842 340.588837 -326.180115
1002.650208 450.135895 -164.924896
856.474060 759.778870 -302.317627
834.100403 753.438110 -399.172974
1396.185547 474.558014 -442.089111
794.873169 785.483337 -244.461487
729.078430 803.464966 -231.805954
1344.983521 180.620514 -522.692993
951.425415 445.761719 -323.356293
1374.782471 585.372803 -638.037781
1378.535645 467.774292 -563.761963
914.435791 319.069794 -430.414368
1362.264893 191.263474 -472.010620
1016.284851 391.421814 -129.819580
792.086792 777.561829 -340.056061
1436.079834 253.323257 -307.120148
929.879700 318.809418 -426.658234
932.134033 304.098969 -407.685822
743.559570 759.529846 -461.302277
960.213684 545.306091 -387.819794
968.564148 483.011810 -256.620026
969.836487 332.891357 -249.801590
1299.441650 334.616058 -707.101563
1036.163452 512.670654 -154.562027
1412.545898 293.122070 -386.402740
1463.766479 472.752625 -253.857910
1339.787231 223.149033 -552.221313
741.613281 773.465881 -416.714081
856.316467 734.589111 -360.472717
1437.028809 259.842010 -296.939545
934.357849 470.730103 -402.088776
1439.436157 494.967255 -392.059387
1317.383667 410.835663 -674.936035
1511.030029 852.736572 -367.632690
987.344360 406.384430 -211.547302
1347.256226 218.717026 -529.540771
960.414490 446.429138 -267.498199
1355.205811 190.417709 -378.524933
1509.818481 772.995789 -375.968658
1473.767700 368.632355 -278.757568
997.675598 553.559998 -342.918152
1490.954834 552.329956 -264.837067
976.471802 513.759399 -344.816559
845.475647 770.970947 -280.295746
1361.971558 535.647522 -707.542969
934.530640 323.563629 -409.674347
1354.652832 185.006332 -433.788605
1380.632568 156.743301 -381.961212
1023.605469 512.118591 -140.852905
1306.155762 358.133606 -747.619751
1001.541809 380.699890 -207.845779
724.059509 813.049500 -253.328156
796.726013 792.085632 -226.159088
911.234375 372.722504 -401.338257
1347.967163 373.787811 -616.114624
1472.350830 396.464661 -259.140594
1479.995850 544.029480 -340.570068
1339.995605 303.146393 -568.904785
681.458740 842.613831 -250.397141
1323.618164 246.473618 -628.061584
955.594971 282.503906 -283.705627
996.406738 559.063660 -251.268097
941.269165 723.585327 -293.730011
1285.525024 340.037567 -687.036499
997.371643 354.937897 -195.541245
1408.217651 185.479172 -351.410767
766.586548 775.185791 -333.540314
1342.595947 462.620697 -508.783539
830.319519 774.354553 -311.675201
890.054504 491.639496 -497.922455
1002.371765 478.056061 -207.828568
1272.973755 387.996368 -415.613770
1459.670532 281.646362 -254.766937
947.676392 384.217346 -307.238800
1468.296265 380.263855 -294.505646
1458.370605 316.373474 -305.469696
991.047852 410.117706 -185.858109
749.951660 803.432251 -196.422760
1386.444702 586.336060 -712.428101
1458.643799 445.345703 -198.191238
939.582092 432.779694 -439.874939
1497.555786 686.548157 -350.446686
1357.015015 177.619598 -424.442963
913.071350 764.230957 -159.221146
1467.105347 591.491028 -350.880463
1363.582886 145.962250 -425.598633
709.508789 820.342468 -216.634262
903.262329 455.005798 -494.973511
1368.010376 303.075134 -601.416504
1312.906738 280.804749 -678.585449
1373.409668 321.793671 -472.282532
1368.217407 569.989502 -656.515503
1019.931274 466.770660 -142.331223
1359.745483 220.683228 -486.292145
905.848877 402.087860 -410.171112
990.554016 683.086182 -413.194489
1427.042114 447.477814 -423.892242
1425.346802 619.917664 -618.503296
1003.670593 362.104004 -205.823868
1456.964844 399.111755 -351.069122
809.805237 785.066223 -245.042023
804.338501 769.877563 -278.426300
980.028198 331.104614 -232.462555
983.350159 489.845734 -276.920105
1349.132813 244.820450 -472.281036
1456.060913 536.072998 -295.352631
1323.557373 323.344391 -624.381165
1358.654541 390.017487 -595.960815
700.136230 793.029907 -362.805969
954.573486 285.005310 -376.021240
1430.129639 364.170349 -386.268890
803.779541 752.055481 -444.320068
692.313660 802.428772 -442.774567
1014.226196 574.621704 -263.191803
1352.589111 263.791473 -557.296082
1484.023071 352.810028 -234.157791
892.806213 758.312195 -207.866211
1003.271301 452.637573 -157.249268
735.740540 820.040466 -175.093185
1335.766846 356.754822 -635.578552
1461.270020 628.916504 -347.421112
856.443115 767.198914 -278.335022
1455.828003 294.517059 -285.111786
832.302734 752.501038 -333.341919
921.098999 434.952576 -434.616791
720.961487 795.308716 -354.628510
667.479309 858.214905 -225.058243
1413.151978 249.589767 -309.220032
988.174194 372.408966 -186.470810
1019.529114 670.408386 -297.610504
1419.837402 329.170502 -335.907593
1468.832642 513.637634 -257.196442
996.132996 413.137848 -172.521271
1363.807983 209.306442 -458.898834
741.036377 782.813049 -337.804260
773.396912 808.728149 -155.836319
1497.478027 410.170593 -206.724899
772.304626 766.787903 -383.131500
914.025391 351.438782 -419.975861
764.152588 792.442200 -223.614151
905.112793 753.015259 -172.253525
1435.932495 607.446228 -459.934906
1349.534058 268.776428 -572.220337
766.322449 747.983765 -474.145630
958.044067 527.764282 -344.744751
798.789246 436.889099 -552.435303
1019.037231 688.631042 -298.133575
1055.537109 353.364685 -168.102234
1453.302002 513.905823 -264.096497
1410.771851 345.083740 -375.270020
1427.182129 311.972687 -372.642334
718.810425 841.850098 -193.412415
728.189514 830.823914 -143.900436
989.887695 319.192993 -215.262985
662.832825 874.219666 -252.981979
1029.438232 555.258301 -134.982071
804.356445 799.572266 -215.007141
937.531433 402.580658 -319.268280
636.531982 844.570618 -304.929932
1413.247681 503.245667 -393.145447
1370.758423 243.359085 -393.775940
1456.122192 451.663452 -273.363220
1466.137207 443.651855 -210.443802
1359.927368 437.687347 -584.337097
1445.051392 279.395477 -291.107452
1471.160522 384.067505 -257.853790
704.051270 795.240662 -338.874115
919.638855 767.814453 -148.923996
1466.037354 633.452332 -363.366028
1516.054688 790.724365 -383.721863
1403.238037 394.121735 -434.783356
1433.904907 383.332306 -327.085297
907.538086 754.472900 -314.838715
964.879639 301.914185 -285.663025
1457.387207 363.724762 -334.454529
1395.298340 338.734772 -509.530640
1356.699829 243.451569 -518.613281
1322.731812 536.837219 -533.237427
1426.695801 455.316559 -375.688538
943.334412 400.007629 -371.442017
1355.797363 190.674164 -526.858704
950.391663 401.679321 -300.523956
806.022278 761.080688 -409.741516
1474.756592 683.375671 -389.516968
1441.234985 318.857025 -312.620209
754.710388 769.609009 -387.150208
1017.332397 323.673706 -174.979507
935.319519 356.375153 -300.171082
1316.310303 238.004211 -604.051270
975.084106 324.222076 -289.989807
845.563477 771.739807 -225.737793
926.659058 294.037415 -345.082031
1336.470215 251.026505 -599.837769
1474.132446 414.336609 -232.724899
646.239929 815.113342 -393.376953
1461.387451 359.981262 -275.092163
831.967468 797.607849 -142.645325
993.908325 457.022949 -220.371124
758.568848 800.531616 -261.781067
716.260681 810.010071 -328.049591
783.096436 808.963074 -169.144882
1365.444702 192.891159 -408.052979
968.199951 516.672241 -321.770660
1367.118896 374.180450 -578.598145
1317.762817 419.652069 -667.867249
1384.450806 427.591919 -584.763855
1438.612793 406.280823 -415.700500
955.772705 283.636902 -321.120605
1444.923828 412.211243 -360.452209
1355.045166 203.662048 -509.337280
782.442017 790.959534 -290.089203
1444.094604 520.510925 -337.173920
992.583679 564.902710 -278.979767
1506.983032 467.160492 -146.884186
1363.990723 154.923096 -387.699371
1344.373169 205.732193 -542.445496
990.102783 463.007751 -272.400330
700.002625 805.782776 -380.840668
805.074463 758.102966 -400.669739
707.563660 828.904236 -235.272827
984.975525 317.798157 -233.720840
1490.526489 436.515961 -210.171158
1020.484680 383.993042 -163.918976
1047.922852 616.667847 -185.611404
937.169495 436.900146 -413.839508
1400.602051 327.368286 -408.767639
803.518005 763.832642 -370.261841
1274.608521 426.604828 -495.058594
1365.730347 188.846252 -418.513977
1351.417603 170.383499 -498.484039
1458.686279 629.469910 -361.621185
664.593262 826.040100 -293.779694
900.929810 742.291809 -399.215485
1352.643188 149.956268 -432.158325
1439.429565 314.175385 -334.474609
1400.640381 197.659515 -371.441620
1485.070435 817.979675 -421.372772
924.434570 385.201324 -339.205139
1385.505371 360.594116 -570.341309
758.123230 803.393921 -278.273163
1311.981812 272.257782 -417.153625
777.361145 756.303650 -434.784546
1472.045898 422.019745 -257.296143
699.182007 812.473267 -332.040222
816.596375 732.968140 -470.029999
1368.083496 277.532288 -382.341705
968.445496 430.319427 -236.238464
1328.954834 433.266266 -678.511230
1421.426758 286.195984 -371.315063
679.033386 847.943420 -191.898804
1339.308716 341.947144 -616.498840
813.445679 786.063782 -214.952927
1439.673096 469.729889 -218.740021
660.675293 825.517578 -376.092865
1521.849854 489.512238 -147.738312
702.870789 838.039246 -199.264404
681.242554 825.744873 -236.366455
1453.816772 374.370209 -306.767761
1362.117554 511.486755 -676.015320
952.979065 446.816467 -288.389404
1008.000732 713.458679 -353.805664
755.007874 749.694702 -456.370514
751.337769 803.959167 -217.691833
806.652893 745.096436 -421.142029
994.214417 399.339996 -208.191498
671.640991 823.799805 -271.661865
950.083740 320.176880 -268.898682
1423.707886 240.296722 -310.043335
1437.482666 344.095795 -286.558929
1416.663452 274.567719 -328.124786
1017.263489 462.164642 -169.720581
1474.842041 634.019226 -366.448242
758.647583 809.164734 -154.105927
876.350830 757.395020 -271.155792
911.037109 752.584290 -196.800598
814.606445 789.588623 -179.780029
1433.350586 454.333984 -391.654938
739.367126 802.854431 -280.441956
1393.204102 324.923096 -508.880157
960.267334 363.530182 -254.330643
1350.789063 518.361023 -666.911072
1455.203979 336.649353 -326.171539
1386.306519 232.879074 -383.081116
906.240845 481.823395 -461.126404
836.296997 728.252258 -460.863586
938.199951 298.695923 -394.146179
1336.371094 487.976044 -397.959778
953.349121 573.936462 -385.308716
1373.168579 276.482483 -550.077698
1294.437256 328.056091 -415.017822
963.563354 302.528625 -243.090118
891.687317 390.009369 -497.597534
1400.584839 146.079941 -375.937683
797.216125 790.589417 -199.762589
1389.718872 400.843231 -520.818420
935.394348 433.765747 -385.625397
1358.943359 453.575745 -436.246002
926.423950 394.275635 -436.290131
1365.325073 399.856781 -514.070129
733.828918 793.536194 -351.040100
1454.580933 359.161530 -300.446198
900.183777 772.515808 -175.169449
1297.663208 326.070770 -731.960388
1207.455444 502.556396 -587.249268
1430.099854 468.263367 -241.070114
1433.027344 362.431580 -370.738190
1466.429688 314.769379 -224.799347
803.705322 791.801636 -210.516937
1421.287231 251.518921 -272.924133
1313.638306 347.691925 -714.733093
1451.359619 262.156494 -274.543213
715.384888 792.229309 -371.965332
1401.086914 417.539642 -422.484711
1366.347656 244.495483 -486.959076
701.863525 826.412964 -285.677307
1385.035767 470.692688 -238.225021
779.363831 771.725159 -370.659241
1360.985474 305.317627 -555.423218
1340.106934 240.055176 -566.926575
772.101563 788.803955 -225.471008
887.701904 725.130676 -356.704468
686.492310 831.387939 -203.490158
1349.626831 144.341461 -459.959137
1473.662720 530.047546 -220.176071
772.378784 779.217163 -298.383545
1310.526245 376.350281 -674.266602
955.462708 463.709351 -283.330231
951.664856 377.519562 -257.430054
801.734253 751.672607 -408.249420
708.905762 815.103333 -285.837341
702.693604 833.999512 -179.543076
956.774780 552.032043 -411.747955
969.860596 514.535828 -129.495621
909.773804 741.117371 -400.857330
1016.110107 633.131226 -311.039429
959.116394 530.235168 -432.876556
701.840454 825.973389 -347.690369
921.383301 518.357239 -505.299225
870.814697 565.710083 -56.202793
988.248169 518.340881 -284.448730
1332.626953 165.439178 -494.512207
1453.237793 436.981049 -375.134583
1407.253052 573.353027 -640.887512
935.493896 320.392212 -366.474823
1022.415955 668.707153 -314.086090
981.721130 551.528076 -295.486755
973.626770 300.296051 -261.469482
976.443359 755.859497 -309.118073
1466.869629 432.406128 -283.071716
813.952942 766.676636 -342.042328
765.568298 766.923584 -380.770203
773.008728 788.780823 -266.075470
656.148987 822.381836 -317.241943
1334.367554 204.867935 -555.267761
759.305298 783.844910 -343.044983
1393.482178 368.591949 -506.079254
1475.986084 385.982605 -198.478943
1000.542969 505.854492 -235.281830
734.792114 821.002014 -150.492050
922.143188 479.964478 -412.430786
997.404236 434.231018 -216.276764
1365.436035 259.710205 -501.895111
997.449097 628.931274 -278.763763
1349.545044 260.263763 -557.852112
971.190430 376.645081 -293.081848
983.617065 613.425659 -412.969849
760.739380 812.250427 -133.993164
1453.303711 467.972656 -357.951813
970.847046 570.953369 -318.807709
1447.865479 388.317719 -389.988525
999.928101 375.874603 -211.772354
977.524170 427.321899 -228.947067
921.092712 309.468872 -456.197052
924.379822 379.681519 -438.480804
1393.827393 154.925720 -392.560791
866.882141 758.837280 -187.057358
689.687866 838.037048 -269.556274
942.043823 385.403809 -283.957275
1439.416870 483.331024 -242.436218
922.565857 539.458374 -66.855774
1389.609985 384.561279 -496.569794
892.496216 770.658386 -188.553116
1438.278198 333.440643 -334.053345
914.755371 325.065582 -377.550018
1345.416626 401.404083 -636.739563
910.175232 746.168701 -258.695648
1311.491455 225.361389 -610.670471
999.383667 430.821991 -161.538483
1392.313477 173.981720 -417.389343
771.116394 809.007324 -174.446213
892.656616 755.871948 -205.683609
1378.464966 530.791260 -671.378662
685.221985 841.112549 -211.791306
1373.356201 604.680542 -674.000427
1030.185791 535.031067 -139.403625
1363.513428 287.188202 -418.590485
1349.111084 227.173889 -477.615295
1465.861694 469.181274 -352.739807
1440.046021 491.690948 -269.739777
974.965576 340.996552 -231.069351
1478.197998 435.542419 -272.502869
621.382141 844.292053 -309.065277
917.039307 755.612122 -174.075546
1404.315552 182.783646 -363.271973
925.265137 301.750427 -411.768890
952.520691 536.521851 -461.059998
720.821655 792.225037 -344.406738
998.768066 418.295502 -169.120117
1005.734558 380.947357 -198.883514
1367.033936 258.056396 -439.018768
971.467102 439.779816 -230.001053
928.152222 328.423950 -427.947418
707.893494 828.080933 -185.528778
1416.918823 289.991669 -377.482819
810.668762 786.641296 -226.659027
973.035950 470.522064 -338.582062
1478.084839 807.990173 -493.150116
863.795410 757.936768 -302.662964
718.025818 819.571289 -216.213989
709.554138 833.208679 -277.757416
1325.952271 161.938370 -524.931030
1357.652466 207.891586 -410.052307
814.433350 806.059937 -149.360977
1315.089966 289.330963 -384.134125
1360.564453 279.989807 -425.481537
663.825012 839.712585 -251.738617
984.867249 582.583984 -380.624176
1374.715332 350.239868 -584.720032
1351.845703 367.377655 -518.753967
1405.777588 225.157745 -326.336029
1357.508423 274.539948 -473.125427
1461.912842 442.631592 -295.012177
667.277222 827.354553 -294.278778
1315.166748 268.194641 -650.946777
772.857971 781.231995 -346.231445
1445.981079 387.725769 -370.409363
872.654480 749.511230 -391.704071
1509.855347 406.448608 -182.435120
962.017090 637.910461 -400.352783
1523.473877 496.203003 -144.987411
1379.154541 556.439331 -605.664551
794.521362 775.262634 -321.518433
769.051392 804.805542 -154.810150
1398.768311 197.028656 -367.686707
778.944275 800.190369 -190.748703
950.605896 527.541931 -410.978424
1015.953674 531.335876 -234.971741
1352.800293 473.236328 -484.183594
816.670959 770.875305 -313.272705
854.648499 747.034058 -415.490906
1444.120483 474.593536 -420.133789
957.178162 515.829895 -357.632507
1379.377319 280.465118 -512.261902
755.946655 476.137512 -562.581787
1442.897949 370.592834 -293.488922
1413.059937 389.545776 -403.704285
796.427307 772.410461 -382.653229
1371.843262 469.053284 -385.098267
1468.689819 317.545105 -247.487793
992.554443 362.525635 -184.202133
1320.141602 442.827332 -508.501251
1400.258667 197.453323 -318.405182
990.587219 574.172058 -329.149536
787.900940 785.537231 -246.578537
1362.943237 141.863571 -459.823883
1488.536865 439.071991 -216.707169
1444.699585 590.511597 -417.432281
1373.163452 553.579346 -547.055725
899.965210 581.479248 -65.269615
927.738464 381.416016 -372.334198
1358.577148 181.699875 -504.117188
1450.653076 335.728088 -333.420959
1455.917725 282.969940 -285.856781
1029.097412 415.663269 -131.338470
1347.371704 308.090240 -384.221893
983.377991 298.571075 -334.221680
847.515198 745.682800 -423.470337
826.240967 774.673340 -257.288147
1472.356201 680.491943 -333.589813
696.471313 807.523315 -407.559387
1400.056763 403.617706 -424.364044
1035.637329 457.524536 -136.548096
1426.611328 346.301910 -334.051117
1002.868103 317.736481 -228.435898
1357.792847 188.179031 -424.963074
884.052185 421.583832 -502.401886
852.372070 771.592834 -254.725449
916.635193 758.286743 -241.354248
868.293030 743.641968 -313.591827
1012.763306 701.878662 -305.414581
1471.784180 480.788513 -323.172607
886.536621 363.926788 -481.197418
1416.479736 285.833099 -324.139404
727.881470 807.131653 -244.454697
972.716919 310.184265 -256.371826
916.160950 758.961182 -273.077728
842.024353 732.517517 -437.503937
1214.773682 375.203125 -383.838287
1380.946777 377.153839 -573.585815
921.760193 342.515411 -393.003357
1367.317993 256.888245 -429.554718
917.063477 468.014954 -462.038239
926.007263 742.901306 -263.701202
764.584900 431.190002 -526.599487
736.403748 797.721863 -282.263428
645.705933 835.011353 -310.071259
932.904846 324.714050 -410.759430
1491.147461 457.838074 -195.743179
1457.636353 395.914246 -253.692398
1486.846924 347.953400 -227.639664
1508.627686 508.586029 -172.587662
663.265442 826.240967 -311.147156
1355.569336 317.051392 -579.813599
1421.162964 784.577759 -425.716461
890.002502 758.229248 -227.813812
986.213623 293.365692 -238.306320
1471.314575 438.197266 -251.852219
1460.352173 436.228241 -319.787079
1278.980713 392.414948 -671.012085
831.216858 737.374634 -468.797974
754.625000 761.737732 -481.595520
1432.868652 312.897644 -375.759674
1365.312134 372.198578 -609.292847
1422.251221 508.746979 -366.805756
995.384705 480.685425 -249.784897
1404.688965 377.015625 -425.233734
1016.344238 624.769409 -243.502319
1324.834717 288.841797 -643.403442
1432.260986 429.553497 -388.916626
1475.052002 585.458984 -356.754547
965.343201 657.447998 -402.236938
977.957520 562.933838 -394.110321
706.514526 815.499084 -243.138397
1469.959839 458.013275 -208.784088
1007.610840 385.584747 -172.250549
1379.800903 579.240112 -652.844177
1038.883789 548.979736 -112.387047
1352.150879 281.856476 -522.505005
1387.924561 419.568329 -571.730286
846.410706 730.453796 -405.441162
999.608826 648.767639 -319.954254
938.672974 515.056763 -410.717651
680.516296 817.828308 -299.286499
682.111633 810.367676 -402.421265
692.988586 818.346191 -348.458496
1353.670166 208.060562 -417.069366
921.110046 723.838074 -327.123779
1471.430298 650.789612 -386.360687
731.664795 812.246338 -350.185669
1436.026123 527.410095 -371.217255
1408.578125 289.377258 -353.761505
1503.229370 504.247253 -189.195389
1453.009155 258.078339 -266.680847
1488.332520 410.284210 -248.721725
920.780151 381.976685 -398.032562
910.351440 412.906616 -433.073883
1363.471436 466.897003 -272.439362
935.426880 450.509644 -377.272491
966.517822 633.057068 -479.274506
1446.650146 312.576782 -291.004852
1387.254028 260.914856 -393.004364
1355.114868 294.782623 -630.887085
944.839172 556.481140 -85.874191
1250.838745 374.745636 -730.953430
923.844482 746.296143 -256.583496
920.423828 758.424622 -148.726303
1443.930908 445.174652 -347.251678
950.227722 743.919617 -196.346329
957.768250 471.446045 -341.705444
996.769958 604.313599 -358.274780
1015.183167 596.011963 -270.897675
1063.879395 692.421753 -197.907501
972.552734 749.481384 -287.011597
1348.596436 276.665894 -478.644318
1384.588501 254.930542 -388.499725
1322.959106 211.649933 -561.057556
939.746887 274.331848 -400.634827
755.317627 815.757935 -162.219681
816.195984 742.132935 -432.997162
1442.753540 258.109802 -265.023956
1355.416382 160.048645 -416.647675
860.417664 782.259399 -165.847412
914.574097 339.103973 -378.452271
995.156860 437.258789 -194.931534
1245.118164 435.435730 -395.923340
1513.413208 855.903992 -359.491608
1346.468750 276.207123 -471.628296
947.720947 425.661285 -290.388702
1413.878418 296.427887 -383.435059
1441.911743 376.007111 -300.407959
1340.838257 240.137100 -519.174683
1342.276123 154.561966 -456.286377
1435.330933 268.410553 -352.065430
1394.169189 208.107971 -376.490143
1446.462769 638.075684 -382.114990
1070.124023 591.083313 -131.418030
1429.735474 486.299744 -273.175201
1411.101563 496.837708 -280.754639
1316.981201 235.178421 -586.507935
817.950378 743.382629 -414.555206
929.122009 324.628296 -373.995819
966.212708 524.653687 -406.186188
1436.402222 331.671692 -290.549835
1325.519531 271.723938 -632.844666
921.241577 565.979309 -521.068237
1302.476929 468.907104 -525.030762
1480.521606 877.929138 -470.916351
1419.909668 271.677979 -347.398987
1363.833252 221.628952 -523.766174
939.035034 301.190918 -385.945923
944.322937 359.238281 -302.301819
1396.087891 373.122803 -451.845703
991.383179 569.276367 -287.707214
944.579529 331.777405 -333.244507
943.503540 340.880005 -284.916138
830.157471 782.756653 -165.478363
851.631042 770.541809 -313.130524
920.880432 426.898041 -412.239288
1421.052124 468.199188 -345.696167
933.022278 418.934113 -383.704651
892.988281 771.243652 -185.664627
963.188721 458.920654 -315.997253
992.882324 418.942780 -197.574997
970.453247 285.568848 -275.153259
956.591858 316.487427 -253.270142
1340.898071 366.888916 -623.024353
1405.921631 276.682983 -344.171326
902.150635 469.366241 -528.060852
983.466003 579.067810 -317.271790
1409.510864 416.489716 -429.537445
998.435974 409.150635 -209.657425
783.380798 795.485046 -183.130173
798.862061 741.313599 -446.473358
762.154907 753.188843 -454.410370
1360.444214 402.041870 -589.677856
1405.522705 191.363174 -353.553375
976.153015 332.986664 -279.184662
1492.940063 378.714996 -218.519974
1343.034912 324.221405 -616.620544
1357.363159 157.491592 -451.484436
946.417236 437.224274 -334.860779
879.314087 337.922485 -472.646606
744.477356 796.764221 -345.513397
938.349487 546.479187 -478.358337
855.758667 774.017578 -192.279480
1398.745850 245.163513 -352.488525
949.135742 388.658417 -299.991333
702.656921 793.895142 -380.888306
1513.894043 441.734924 -156.392227
937.099609 377.440063 -379.775543
948.442993 328.006470 -297.473785
685.984924 826.752319 -219.128464
953.800903 536.408203 -393.972778
889.340515 764.394653 -194.631821
1322.009155 200.922760 -557.134705
1327.017090 498.119476 -384.299438
1340.214233 251.115845 -569.521118
1003.658081 309.178192 -236.714066
995.662170 398.248932 -169.799622
1410.681763 247.069107 -368.818481
1343.373779 221.556061 -540.053772
1336.123413 567.175537 -636.238892
978.965393 311.440735 -253.978821
899.481079 764.530701 -271.042847
1417.990723 200.633347 -335.473511
1434.846313 265.178131 -308.641632
937.828613 755.195190 -292.042267
1310.534790 438.474335 -522.775085
1024.704102 625.744629 -271.480347
1042.613892 688.978394 -238.078125
928.791809 740.495239 -305.831451
905.699524 337.036011 -460.990051
1478.042480 418.695160 -202.490723
805.298157 782.915833 -245.941833
1321.718506 442.905792 -544.406006
754.884827 784.702942 -364.001984
1389.643311 221.966766 -392.580627
1025.969482 515.471802 -135.092728
1498.315918 407.817505 -196.724365
994.223572 306.220673 -228.088257
1454.207031 475.643372 -345.684784
1395.310913 708.290222 -450.637543
1408.699585 217.080399 -355.086975
1042.863525 638.888550 -217.611359
1353.502686 315.043884 -612.144104
998.783813 475.725983 -196.410965
1313.337280 424.817078 -727.218323
723.508057 830.151855 -164.569427
840.860046 744.452942 -423.777405
1474.638428 466.541382 -176.614502
896.328796 365.729401 -500.732971
1456.202271 317.300568 -250.584747
911.658569 322.484650 -407.817596
865.693848 784.120239 -174.426392
1337.354126 274.180176 -592.692932
853.421692 755.759277 -253.965836
1393.965210 607.856873 -601.618225
1350.887451 498.761780 -557.752808
750.940369 808.217468 -268.321014
1471.143921 679.678101 -361.887268
847.528137 741.300354 -427.079285
1037.481445 725.727661 -331.043427
1356.226318 447.154205 -440.303711
628.750366 847.649109 -362.681000
675.138550 825.838196 -284.823303
954.866760 441.403595 -330.364899
756.676392 750.989624 -447.505066
1440.030029 437.555634 -385.460938
1375.715942 361.037292 -410.526794
1477.452148 369.360504 -271.274170
1450.286865 255.308014 -285.206512
774.122314 808.030151 -157.820404
712.562927 823.912842 -266.200165
713.426392 787.511841 -398.636017
1325.995850 499.296448 -506.868927
913.467224 367.140167 -359.783447
839.247864 734.716125 -474.093567
1376.037476 376.690918 -560.314026
1011.892822 435.370056 -134.741531
1483.504395 337.052673 -212.764374
1008.233582 423.515137 -158.025146
1443.510254 355.624817 -331.413452
953.114380 592.594177 -458.783142
713.162842 807.470581 -319.075806
941.425842 283.610901 -399.910431
1437.099731 441.139893 -360.679138
721.340942 816.953369 -217.982300
767.619141 803.273987 -175.258804
1335.374756 556.428589 -409.360901
1319.488647 453.233856 -479.469574
1452.947144 524.316711 -247.266571
1363.028687 286.835266 -544.794739
951.061035 302.175507 -315.046509
1044.993042 396.686768 -133.814545
1364.679199 278.336273 -591.911194
1392.432373 360.677643 -539.311157
1419.366211 240.450714 -271.306244
1369.993896 427.967224 -593.907104
1468.662354 374.654572 -305.909607
1332.120361 224.765259 -576.122498
893.231934 347.512329 -489.566925
1469.990112 433.767792 -309.395721
1420.355225 245.565842 -334.877136
761.000671 808.280518 -204.097977
1338.654663 476.561615 -720.893005
729.853638 811.206665 -378.402771
1322.144531 371.517700 -428.610901
1402.968872 161.430161 -350.661560
888.059021 744.582520 -405.727081
850.783691 747.825806 -393.204559
1486.615479 376.612152 -190.616562
683.562500 800.614868 -405.206573
744.105347 826.618896 -149.560135
1339.837158 444.186249 -573.510803
837.351074 759.996643 -319.143646
835.415039 751.322632 -391.457397
915.552856 488.770325 -466.485107
961.964661 322.345184 -240.082733
943.085510 304.182617 -332.884766
1452.157959 348.550201 -298.960846
1329.670654 142.624176 -500.654907
1361.550781 306.110229 -558.723389
906.696106 725.266602 -368.056671
974.842407 455.730042 -335.681885
1387.042847 274.316010 -441.928497
1326.263184 309.860413 -607.273621
1330.642700 354.797119 -658.319641
1367.087036 571.390686 -703.781738
999.587830 306.576172 -220.865891
943.700134 458.944031 -329.925232
1029.364868 487.583008 -130.206299
1429.200928 417.348969 -417.531464
1381.567261 460.309387 -483.719055
1321.246826 267.924194 -651.420166
1184.878906 382.205322 -396.464569
920.439575 352.392303 -378.104462
1357.777954 429.466492 -584.910522
802.419617 789.137878 -208.597229
992.315247 636.459473 -312.691864
1286.530884 335.168762 -685.682373
1368.542236 194.573639 -457.771576
717.189697 819.147156 -339.451691
1377.076660 317.524902 -430.761688
1319.531616 221.403976 -577.190125
980.968689 481.677032 -302.214386
1493.696899 732.968262 -350.612335
931.484314 337.938477 -316.182037
1399.368042 203.589798 -377.980804
941.368469 540.806702 -452.146637
1514.064941 557.513611 -191.342957
725.195984 789.947144 -371.432770
909.092224 360.760284 -381.374268
959.097717 379.563049 -268.650940
754.038330 830.626099 -147.432053
721.054993 775.080139 -444.469360
644.104553 845.071899 -372.728058
1358.856689 195.824814 -521.199707
1475.200928 419.993286 -269.368866
784.308289 795.471130 -236.648849
1489.952271 442.298950 -208.634796
944.956360 749.740845 -150.977051
1439.606934 592.399170 -362.015961
828.985962 759.874451 -290.505096
1290.419067 364.140869 -676.481628
760.300171 773.428772 -397.785461
1361.391724 323.172424 -597.235840
863.745422 721.219299 -450.436005
758.354675 837.063477 -127.517708
1463.172241 435.626587 -328.739410
1428.690063 315.468445 -387.390778
1355.603394 357.888275 -647.131592
966.618469 313.732910 -272.276825
1394.691528 205.774979 -373.735321
707.762939 790.766724 -423.567261
943.476868 306.199402 -382.558411
776.029297 755.923035 -450.115723
1357.565186 402.724030 -598.202515
777.113708 792.432922 -283.538574
748.365479 820.255310 -167.109146
817.600464 735.409729 -508.114380
1036.636475 687.505493 -290.164581
1497.343262 453.753906 -182.521530
1407.243530 232.101105 -350.783722
1346.503052 143.222961 -447.458130
829.822998 755.031311 -372.645813
1458.634521 503.564178 -258.717621
917.688782 407.333923 -411.952362
1373.312744 144.720673 -352.951019
712.359192 819.088684 -264.488312
742.353149 813.649048 -169.912598
993.763977 433.728363 -185.197983
887.011169 756.925049 -277.774506
975.868896 360.570496 -222.724899
708.272827 821.612183 -278.532318
917.119019 397.124146 -412.569489
1418.369873 211.074341 -302.427277
1496.124878 667.054810 -360.829865
1352.272217 288.219788 -635.287048
1013.815613 649.080139 -371.042694
1372.220581 248.410843 -485.862640
1387.558716 363.073425 -509.108612
965.083618 316.832336 -246.370850
691.966675 790.285706 -427.151917
1448.913696 424.825409 -371.408447
967.225464 299.160126 -301.101563
1410.078857 500.439636 -317.178986
1354.678955 175.515167 -473.414124
806.760132 774.017578 -331.870209
930.384644 634.347717 -488.979584
955.333862 312.512207 -312.610291
980.311218 609.001526 -386.167969
765.695313 785.148315 -336.561554
1482.172852 326.561737 -219.557220
1317.276978 294.583588 -690.995667
1478.447998 687.604492 -369.251221
876.188232 757.639893 -183.023499
940.867981 390.049530 -292.964844
1005.693665 301.547119 -222.328995
791.063843 783.593323 -295.149506
1001.998840 572.934021 -345.176666
1014.844604 495.305542 -166.748489
988.981323 622.576782 -333.348572
689.116028 820.180847 -284.295959
775.293213 753.033081 -443.855438
1391.114624 583.547180 -643.823730
1460.098145 475.740601 -332.698181
708.253540 845.555359 -190.612961
1324.184692 516.998840 -419.563782
900.319214 365.408356 -454.847168
855.758179 728.803955 -446.821320
937.521301 489.213623 -360.410309
760.837524 794.321045 -250.606522
939.516785 545.204224 -441.220551
677.977295 837.437988 -283.337372
709.274658 776.079346 -422.247162
1478.074463 344.562653 -242.697906
1342.731934 291.458679 -467.618835
1473.171997 373.624878 -191.788940
1372.506348 451.366821 -479.355377
1322.172729 376.337402 -631.696289
921.489685 315.796265 -431.254364
813.702148 791.288025 -191.168716
1428.868286 442.751801 -395.504242
871.189331 750.085815 -258.220490
920.186096 300.924408 -425.953735
684.648315 821.598755 -277.960052
1442.460815 390.195435 -404.841614
944.744019 338.194763 -294.205292
753.507202 809.718933 -162.723221
1310.348877 325.156647 -417.129242
1441.718262 551.905640 -346.331512
717.107361 778.856934 -386.882965
1458.574707 548.832825 -327.207367
1365.566406 315.462799 -586.820251
1410.025146 443.423431 -523.297546
970.335754 532.209412 -326.782654
1429.033813 467.644562 -211.447464
908.974487 469.182098 -503.152863
863.161194 726.913452 -417.273438
1415.379761 294.788208 -384.636932
1346.680176 267.035339 -561.006042
855.660095 787.199646 -145.748077
1375.248413 545.598206 -610.254211
1007.901855 317.814941 -187.432541
921.245911 444.447235 -444.263977
947.708496 576.491272 -466.511505
988.430115 421.976379 -192.604904
1492.903931 452.057556 -182.626801
822.045593 762.719849 -368.428375
1485.162964 365.774994 -199.019424
943.501526 284.062469 -392.288971
1446.929565 653.990723 -395.739685
1442.269775 336.727997 -348.789886
727.426208 837.105774 -163.891586
710.516724 795.830505 -328.631683
709.074951 824.699646 -277.175964
1039.972046 428.610992 -145.087906
1313.909546 381.471375 -743.503174
1483.048096 385.712158 -205.633713
1360.082153 306.853455 -399.083069
1003.613403 428.380859 -167.823654
1458.928833 451.226257 -370.048645
957.421997 326.803192 -282.577881
