ply
format ascii 1.0
element vertex 1346
property float x
property float y
property float z
end_header
939.292603 -319.067444 -574.243896
965.991943 -182.279221 -534.130554
939.445068 -396.393158 -621.023499
839.286560 -1135.341797 -348.739746
735.723816 -618.932495 -663.224731
910.970459 -236.259628 -595.381348
820.937744 -1109.032837 -423.711945
794.711121 -1039.447144 -715.963257
900.116638 -363.484589 -648.996460
909.282898 -1097.475708 -414.151581
986.177856 -551.300232 -544.528503
925.997681 -1031.074585 -665.416382
720.107544 -690.231201 -350.253448
797.907227 -1122.128662 -505.142609
1088.466431 -1017.408630 -511.447601
886.478210 -340.943237 -656.475159
741.880249 -647.860657 -391.029602
1099.756104 -1020.901001 -329.588318
977.248291 -326.302277 -557.420593
837.413391 -1094.552124 -447.869049
854.228271 -1112.633057 -356.120514
1168.708008 -1008.151855 -329.498871
936.268127 -365.173187 -618.530701
780.137146 -1112.497925 -630.875122
622.522156 -713.646851 -496.723724
1144.802002 -972.931946 -424.114349
788.239075 -1057.998657 -742.396729
762.060059 -670.268616 -313.962799
1130.952881 -947.061340 -403.270416
886.769531 -582.702515 -599.255615
1260.917236 -851.324036 -661.827454
934.802734 -154.097229 -554.501343
1124.375000 -1015.961182 -343.758423
1183.337769 -969.744995 -494.126007
1066.688232 -883.524048 -591.349792
774.766235 -1026.299438 -739.780579
947.578308 -318.187714 -569.063904
980.722534 -390.399017 -543.775696
865.609009 -384.501038 -702.701538
892.119690 -1093.167236 -427.095673
797.338623 -644.086365 -311.024078
957.711792 -160.484726 -525.757141
856.733398 -578.376160 -652.403137
1269.250977 -908.951965 -555.128174
895.399414 -1069.656616 -519.955383
842.587524 -1091.417236 -398.036957
996.888062 -335.281952 -512.712402
1018.485107 -555.990601 -501.734924
1315.955078 -877.181641 -704.869629
803.499329 -1110.781006 -555.360718
729.801514 -644.303589 -392.083801
947.832825 -1096.493042 -354.241699
963.483459 -1048.568237 -612.987366
932.088623 -579.117188 -491.111145
1012.207153 -1065.409912 -437.789124
1196.601074 -972.274902 -465.617462
890.433716 -1054.018799 -596.368958
790.440247 -1121.161865 -507.901276
845.277466 -599.450378 -408.056366
992.301025 -377.685364 -520.190796
799.527893 -657.988281 -291.165344
883.316772 -1021.030518 -729.863525
1155.815186 -1000.288086 -356.118286
851.245544 -274.386383 -686.307556
867.700012 -372.872406 -713.670898
1035.854370 -1071.430176 -360.377350
867.180664 -646.683350 -262.568726
890.566406 -450.335663 -703.014343
934.044067 -1080.578247 -331.128632
719.583008 -628.981750 -602.199097
795.154114 -1059.065918 -726.497253
626.563171 -696.236267 -445.424896
900.463379 -594.844727 -360.116302
846.420166 -595.139038 -507.414795
885.233276 -584.596313 -425.826477
830.045959 -1073.041748 -648.827576
742.983398 -643.348083 -449.562775
1109.984619 -961.669617 -378.115662
739.312805 -1106.328857 -638.081970
1094.961182 -1009.277954 -417.757996
912.408813 -1066.043945 -642.988403
853.365417 -411.698212 -735.358093
994.880676 -293.880981 -514.877930
942.796387 -1036.930908 -532.487305
1009.877625 -1057.211426 -489.465729
1143.802979 -1038.539429 -285.895172
879.780884 -334.838135 -686.956238
1071.539185 -1048.114868 -387.937592
925.237305 -1118.327515 -319.630859
912.185425 -844.810913 -534.884338
885.745239 -552.335876 -666.351624
888.883301 -396.758453 -683.852173
1064.184937 -955.587524 -525.896790
866.802673 -1057.306030 -650.812500
750.138855 -666.937012 -328.009735
714.266968 -628.629272 -639.851501
781.492065 -607.971008 -582.826538
795.533447 -1107.685059 -605.283386
977.944153 -336.258270 -530.434265
805.678589 -1099.493896 -617.802185
936.479675 -329.339447 -604.595215
840.315125 -604.779785 -420.934784
972.878296 -234.038177 -505.227020
895.178345 -147.417877 -630.154419
876.923462 -582.539307 -599.099731
876.075684 -1015.095337 -656.309082
779.690857 -613.776306 -534.697754
842.243530 -1089.770020 -633.366577
860.783081 -625.403687 -350.908844
978.250427 -358.864044 -558.373291
1004.833923 -271.024384 -478.950409
869.478333 -268.815979 -656.550781
892.317688 -208.169037 -618.549072
920.509521 -411.817902 -660.458557
733.491089 -645.338379 -430.097412
665.651611 -661.641846 -502.533539
836.125854 -345.860077 -717.863770
892.234375 -336.828613 -656.288635
901.533264 -1024.537598 -423.862976
908.785522 -568.160339 -606.271179
904.272156 -390.985291 -671.930664
1201.583130 -1020.608093 -295.880524
1000.186462 -554.627625 -569.997375
673.069763 -722.916809 -409.665863
652.612549 -659.498962 -542.328979
774.913391 -1145.859253 -379.180817
948.137207 -147.723495 -595.422607
1399.234131 -885.245117 -645.073059
898.147156 -211.656311 -638.829834
892.698730 -1076.444580 -467.942780
816.078430 -1133.335083 -488.683838
821.498779 -1093.935059 -521.573608
958.312378 -267.732849 -530.418091
949.809692 -550.378784 -526.454529
1092.943970 -1028.639160 -439.672516
872.434814 -621.536072 -338.830994
863.429199 -270.997101 -677.356445
999.706543 -963.835632 -768.379517
877.659363 -315.101318 -708.747070
978.191650 -411.653625 -570.412598
1191.194214 -983.224976 -398.671539
893.523438 -349.982147 -669.206970
757.074158 -655.333252 -434.870453
957.854004 -417.919678 -622.796814
957.917542 -393.984192 -605.982849
764.483398 -1135.817627 -458.787933
716.396423 -708.048584 -363.586884
971.495605 -416.202698 -601.599243
867.073975 -243.735901 -678.316895
960.757202 -929.131897 -526.561279
1180.181519 -989.536621 -520.290283
1046.449829 -428.042511 -477.796875
909.922485 -1100.624023 -397.528748
1039.804565 -1039.422363 -508.335266
1015.587524 -998.327942 -800.080994
938.578247 -540.996277 -616.405457
1207.133545 -992.257324 -392.992737
1018.578125 -1005.434265 -563.643372
952.217224 -1015.441101 -692.377869
791.532410 -613.750977 -546.292419
896.417847 -1110.589844 -316.122772
941.115784 -229.351120 -558.012207
1126.270386 -1023.032288 -332.506226
1045.211182 -1042.302856 -324.608582
961.011414 -260.132507 -520.683350
632.711975 -689.075684 -499.268738
918.024109 -401.508087 -671.630737
837.272949 -596.125671 -516.377014
748.329468 -635.005859 -450.624146
977.156677 -565.803650 -525.960571
933.328735 -555.841064 -629.893188
1224.885742 -982.907837 -305.869446
883.685181 -569.767029 -551.691772
833.671387 -1047.410889 -715.770935
791.369263 -1086.817749 -684.399536
985.115173 -192.617737 -503.880768
875.428833 -288.694824 -655.689087
993.498230 -175.959564 -526.594849
843.532532 -890.581543 -461.898712
733.534241 -689.727051 -299.078064
863.051086 -321.374664 -698.184631
853.759827 -1105.732422 -502.168762
1019.056702 -1046.634155 -482.772430
1336.176880 -918.218933 -619.958923
971.152649 -544.797791 -632.716858
1086.513184 -1026.219360 -465.936035
752.859009 -618.448181 -603.383606
882.880676 -621.435059 -328.167480
910.793762 -584.715027 -567.588928
863.675415 -607.291199 -319.062286
779.490173 -1106.829224 -650.579102
655.614746 -657.738892 -576.069641
1005.562927 -269.074646 -460.721069
806.451965 -653.366638 -303.898682
752.145203 -612.306580 -648.762024
775.273010 -1128.710449 -518.533081
1045.722534 -1057.868164 -444.748840
813.333130 -1126.630005 -586.321106
805.705139 -1091.466553 -663.221436
957.490051 -352.766785 -558.482605
1073.356934 -1056.065918 -372.676453
1110.286621 -963.284607 -481.355499
816.866211 -588.096375 -575.052979
900.242188 -1097.568237 -588.227417
977.837646 -1039.539429 -602.863831
974.984619 -1074.960815 -406.517822
779.045532 -1124.242310 -428.671814
1042.899780 -1069.521240 -354.997131
896.564026 -1094.927979 -531.972046
855.830200 -577.819702 -720.194153
1074.004272 -1023.350525 -488.899292
1094.986816 -943.076965 -349.841248
855.562012 -1049.388428 -664.035339
999.927795 -352.524292 -510.061188
851.212219 -255.465073 -681.531067
972.747009 -167.177109 -534.312744
751.452576 -1097.911255 -646.863403
971.333374 -379.260956 -567.146790
801.555725 -645.320923 -301.690796
1084.653320 -954.632385 -518.748962
902.317688 -575.912048 -408.901093
735.788330 -650.188232 -393.358368
820.428101 -619.203369 -378.281738
906.258423 -1079.401367 -531.415710
1160.355591 -987.380066 -370.570740
989.975403 -1036.423950 -519.784363
1034.252686 -1057.402222 -371.600830
666.933472 -651.077698 -479.851227
879.135437 -177.102844 -638.003662
1100.305298 -1013.942749 -466.371704
889.110901 -609.621399 -299.948761
771.220337 -640.538086 -339.744659
1013.716675 -234.682816 -466.003723
937.400818 -331.346344 -597.759521
887.157898 -590.114014 -523.306885
911.049927 -1078.054199 -568.231873
731.647766 -668.990845 -351.937134
933.096985 -1101.068604 -391.371155
1000.112244 -1082.483521 -373.071198
821.059082 -1119.960693 -616.746094
987.616455 -1067.926392 -462.460907
977.717285 -1087.202759 -387.968811
729.419922 -619.791260 -519.513611
801.493286 -636.228394 -506.227142
753.760742 -1135.468750 -500.455536
807.915588 -1074.467163 -664.652771
1235.267334 -952.639709 -553.503784
1161.337891 -1015.418823 -310.315521
753.563965 -651.023315 -363.082428
928.213806 -197.121765 -580.112000
930.731018 -564.765869 -389.352966
905.651611 -588.610596 -415.859863
707.635193 -634.023926 -610.868591
869.942932 -257.348633 -678.432983
909.434448 -1025.558716 -791.909119
959.897827 -569.458191 -563.560547
797.505493 -613.693970 -416.308136
975.789856 -327.431366 -531.075562
750.765930 -621.679871 -594.326050
925.867249 -392.243652 -629.989746
894.489258 -180.007263 -651.869995
980.674500 -277.427673 -498.712677
928.638123 -303.226593 -604.038269
1009.377136 -302.068207 -484.786652
850.376831 -1063.075928 -418.318390
796.946899 -1126.315552 -543.347900
927.509460 -1038.240479 -536.291870
798.239014 -1137.745239 -537.291687
869.364197 -618.799255 -304.736206
1065.772827 -1048.370728 -429.154449
971.237915 -212.371216 -513.006531
808.634033 -1123.042725 -468.490662
1026.323608 -1028.442261 -486.383911
1101.984497 -1017.516479 -366.117096
700.401672 -640.756897 -659.344910
785.097778 -663.921936 -304.705597
1114.996826 -1015.973083 -322.686188
965.402161 -365.964661 -569.509277
845.570679 -405.400726 -729.632690
1159.258789 -1016.528381 -291.502106
921.011108 -1072.188477 -455.187225
1027.689087 -532.058167 -485.889343
1087.771606 -1018.601318 -414.516022
703.480164 -631.028320 -585.097168
1029.511475 -397.958679 -484.164093
997.504456 -270.367371 -496.813660
748.696716 -679.514587 -304.509460
799.584290 -1109.624390 -447.268829
755.750549 -666.034485 -389.084656
911.209473 -354.370941 -626.834045
905.593384 -323.880157 -624.791931
978.732727 -213.901443 -502.535736
1011.784058 -1050.218628 -500.731720
1167.525146 -985.807007 -401.549805
753.330505 -705.900940 -308.250397
671.800354 -675.806702 -484.084229
1035.798096 -1062.236450 -330.091431
846.797241 -220.157944 -673.430054
957.664124 -280.267365 -557.007202
949.228577 -540.215454 -578.142761
959.688171 -317.747406 -565.208618
772.710632 -1137.215576 -423.588867
1165.153320 -1000.846985 -358.137268
823.906128 -1108.526245 -417.501373
861.443115 -643.080933 -286.565094
801.392151 -690.078064 -267.797974
1203.385376 -1018.113586 -283.007080
829.985046 -1129.950928 -475.494049
619.650696 -675.403931 -545.568481
831.365295 -608.872681 -500.506927
1016.776611 -524.035583 -563.920105
643.919434 -657.808105 -507.666870
851.972534 -246.182037 -685.874451
888.434814 -1013.033325 -430.750793
1133.269043 -992.835693 -407.875977
848.086853 -1073.276245 -682.801392
826.991760 -1075.800415 -682.096741
1058.036621 -1039.404053 -313.041016
1006.790894 -1068.120728 -361.969330
829.694519 -236.106918 -715.461487
741.209290 -662.273865 -385.816864
781.625549 -1141.434937 -459.026642
895.311157 -279.708008 -627.664001
875.848877 -1108.323242 -373.876038
643.737610 -675.436829 -531.130249
848.690796 -620.568909 -318.784424
976.361206 -307.630493 -552.236572
778.677856 -1071.353027 -695.865295
897.057495 -241.053787 -617.572571
715.446045 -699.360046 -374.632507
853.117371 -631.896912 -291.426117
961.381226 -1069.278442 -485.618469
828.847717 -1090.509155 -656.289734
994.053467 -189.843140 -507.552551
947.094482 -1079.033203 -438.911652
786.848206 -1041.935181 -716.570740
1106.147705 -1031.863647 -363.667267
614.107971 -667.169250 -537.634399
740.899597 -628.502197 -626.782837
965.638123 -228.868500 -518.660339
854.352539 -899.067322 -457.172363
944.539612 -306.421051 -584.810120
844.869263 -1118.839111 -573.840942
678.735229 -682.383301 -418.624664
962.922363 -578.389160 -333.200745
716.989685 -620.350891 -577.264343
899.728638 -177.141449 -646.700684
921.963867 -364.977997 -636.970337
972.483765 -545.807800 -529.718323
734.499695 -671.252686 -340.240265
842.831238 -656.742371 -266.200317
862.480042 -586.240173 -574.804321
783.035278 -632.311523 -434.713501
908.253784 -607.103333 -343.589905
1003.130798 -554.652771 -456.629639
624.167236 -696.865784 -512.957275
777.096985 -1120.604126 -434.753540
826.398560 -219.677277 -734.300537
614.483948 -676.635681 -513.070313
1081.932007 -1025.788208 -376.829468
662.964233 -679.164063 -529.768433
1069.239014 -969.593689 -508.322540
846.350952 -406.023224 -732.172974
923.207886 -1101.303955 -328.409149
661.199646 -683.953613 -509.358093
983.815247 -1093.597534 -314.890320
907.127075 -182.679337 -594.863220
820.828552 -653.114868 -274.712189
735.954895 -671.592346 -342.536346
986.140503 -148.710236 -564.561646
1380.598022 -898.190125 -649.583740
683.473267 -698.102356 -344.929596
898.567871 -598.229797 -314.848694
1046.884399 -1056.649048 -454.561768
989.590332 -1083.953247 -335.900299
926.570740 -144.458664 -579.755676
845.450745 -1122.830322 -342.632416
1162.824707 -949.664673 -645.554321
645.688721 -664.755493 -588.588989
1009.041016 -323.087280 -462.361481
846.650757 -1093.780762 -462.485626
841.520020 -1032.045532 -731.880371
827.943787 -615.442017 -526.254578
1144.161743 -1027.299805 -298.120239
1039.660034 -959.084412 -720.925842
916.275391 -578.862976 -520.628479
787.025085 -1039.409790 -730.757263
793.109253 -1118.850830 -536.026855
889.473755 -1087.705566 -538.748230
853.669373 -1035.428711 -400.127380
930.519409 -1081.315796 -437.671448
987.697632 -1060.744507 -476.092285
926.282959 -571.388000 -630.848206
984.794800 -272.440704 -513.377136
1000.187378 -1045.656128 -515.121094
978.012878 -380.605530 -558.518066
890.048584 -410.311890 -691.628113
924.586975 -544.264160 -605.499695
767.755249 -639.806885 -410.986115
985.056091 -1083.728638 -396.746216
1202.570679 -1001.858337 -294.547302
968.468628 -569.442200 -405.136902
1144.902710 -1014.761108 -420.525635
680.262390 -658.120300 -522.301819
794.217834 -1127.503784 -475.578400
983.942749 -189.897934 -508.595184
835.829163 -1114.047729 -591.787903
608.744446 -685.061462 -566.789917
1217.762817 -995.016357 -305.984589
937.858826 -566.271362 -409.363708
820.914429 -1049.067139 -678.623352
849.922546 -582.804749 -742.404236
1011.853333 -333.057434 -489.018677
871.444885 -217.400421 -666.105957
1010.690918 -1056.627197 -464.345520
738.082031 -673.539978 -348.364716
803.911133 -621.576721 -547.772827
915.440613 -966.825989 -620.973572
953.718445 -277.352753 -548.949951
811.415100 -1120.562256 -595.001465
892.724487 -633.087463 -276.783844
911.380920 -254.653259 -613.911255
897.940796 -217.932022 -632.691162
860.029541 -590.706421 -435.866486
920.215027 -1019.350891 -762.502136
1211.162109 -954.310364 -615.892883
823.205872 -640.834290 -380.656342
940.789368 -161.465378 -573.153320
818.068848 -1068.202393 -788.292786
827.727356 -624.016724 -564.644165
947.574829 -389.252441 -601.095886
762.446228 -646.494873 -385.512817
623.168945 -691.386963 -534.883362
1232.073120 -971.935608 -386.362946
1159.443970 -1026.231445 -315.409851
948.828003 -1092.569824 -326.892303
869.908569 -267.689636 -680.023193
709.242432 -667.374939 -390.894806
879.543945 -569.843323 -653.035339
1137.715210 -1017.300781 -359.330048
764.739807 -622.170227 -546.857361
867.456848 -249.514267 -667.799011
725.246765 -667.484985 -441.952454
773.089172 -666.605774 -353.248199
704.585815 -626.025879 -627.747620
731.134338 -677.270935 -384.028656
885.091309 -1068.892578 -468.532593
766.630005 -1106.175171 -678.256470
903.191284 -1063.803101 -501.295563
762.851379 -1129.860229 -514.435547
865.093689 -1066.274658 -665.217285
739.853943 -621.373901 -579.510498
835.534241 -1112.241455 -370.183838
1091.511841 -1037.570557 -350.670197
1014.665161 -1044.338989 -415.388611
1045.313721 -431.113159 -484.142548
850.641602 -618.213440 -316.216095
745.287598 -696.325256 -317.297943
817.959045 -610.695068 -654.792053
1276.519775 -922.775818 -562.939880
1149.036621 -971.979431 -450.725433
838.848877 -585.838013 -506.888214
883.941345 -612.491272 -457.479950
674.088440 -649.463928 -546.222534
1251.083740 -911.539673 -606.456055
835.011230 -1007.540283 -693.728516
1055.028076 -1003.099792 -511.925323
935.891479 -558.563721 -594.418213
713.215820 -680.625366 -358.136383
1061.988770 -1033.970093 -364.345856
1132.158081 -977.929932 -394.760254
862.319153 -338.762177 -720.368713
784.664368 -614.809509 -537.099060
726.824829 -678.554749 -338.537567
1025.448608 -1071.460205 -347.841064
1179.600952 -976.569641 -388.514130
932.307373 -579.496094 -550.995544
957.707031 -167.520477 -526.280212
774.227844 -1126.129028 -535.441223
1243.280518 -962.620972 -406.858765
1214.583862 -981.452698 -371.570221
864.781311 -1108.729492 -355.063080
936.848389 -326.177002 -605.901489
745.747070 -642.972351 -411.321503
939.295654 -1007.158997 -459.248352
823.247925 -390.727142 -761.365784
1152.470459 -964.097717 -475.140442
877.249084 -584.983826 -614.758057
779.326050 -1107.871948 -612.684753
824.776123 -1060.583984 -667.098511
949.499390 -424.905945 -638.095154
1039.890381 -1071.456299 -326.002838
681.522522 -665.734253 -477.614441
886.832703 -1101.996704 -404.370911
841.389526 -1095.338013 -427.321167
789.186707 -1118.513428 -558.799988
949.399475 -289.313232 -577.959839
1322.374634 -910.676941 -623.964905
962.330322 -1057.333618 -457.023285
1148.073730 -997.238770 -403.004150
765.150635 -1119.540283 -474.415131
856.397217 -274.256531 -677.624512
914.895630 -1050.996582 -662.880127
1007.494202 -994.164795 -716.205750
842.718811 -378.967682 -726.998840
1130.195557 -957.462524 -421.793030
964.716614 -1046.154907 -526.223145
980.750916 -1070.717163 -466.396576
975.716431 -1064.856201 -368.573730
1119.141602 -1025.525757 -354.284241
984.089783 -280.773865 -501.308685
746.371704 -664.753723 -341.581512
710.826843 -640.120483 -444.945526
1069.119263 -1041.472778 -435.270020
927.729614 -253.635895 -583.011963
1198.482422 -996.515930 -541.371948
926.316162 -322.241608 -636.085938
943.229675 -240.803711 -560.572754
873.464233 -1092.033081 -421.507141
857.426819 -417.974426 -724.894348
1101.779907 -965.759033 -438.003998
849.491211 -599.084412 -464.276794
1144.468140 -970.577576 -462.872070
975.388245 -1030.187744 -815.365234
936.234192 -158.466492 -563.690735
995.769409 -362.625488 -532.950500
877.182861 -1098.505127 -373.664001
986.148804 -1084.984253 -362.057983
795.502136 -1120.128662 -602.602295
860.888977 -1073.679077 -673.003723
1135.339233 -957.105286 -525.610962
1011.798218 -292.275238 -481.802307
979.995789 -356.762970 -561.990234
973.639709 -1030.569458 -631.427185
757.135742 -611.912964 -673.688599
1056.164673 -1041.096313 -304.582397
875.378296 -602.882690 -317.458252
837.938416 -220.543350 -694.518494
844.058167 -230.798370 -687.772034
766.502625 -633.176147 -451.202576
1041.746826 -1028.504150 -552.916199
821.051392 -609.775513 -371.747955
861.671326 -249.326614 -692.583191
1022.430481 -1018.176941 -541.122925
1000.492859 -380.315155 -544.533813
951.593689 -936.659363 -521.921509
846.991089 -164.492264 -674.627441
993.659546 -1054.891724 -372.403961
963.836121 -1006.480408 -691.533691
667.359924 -630.949585 -582.944763
883.350952 -214.496002 -692.461060
852.380981 -593.400330 -575.087402
852.167419 -291.705902 -713.738037
879.070618 -332.501007 -670.528259
936.268372 -278.842102 -581.686890
900.105469 -582.614258 -671.701538
669.466370 -698.036194 -423.592834
690.197021 -659.758911 -427.122559
764.562561 -656.817993 -337.145935
728.920532 -686.996399 -323.655029
848.373840 -594.313843 -627.091553
700.213989 -710.958618 -386.096863
884.060852 -597.244263 -524.411194
843.201416 -286.358002 -699.782166
997.612976 -1028.634888 -536.174194
842.319885 -617.209045 -350.848938
1201.072388 -976.591003 -580.374207
982.002991 -1096.758057 -318.920868
858.278564 -218.724594 -666.739685
1193.318848 -994.798523 -292.997009
710.315308 -719.511292 -338.971741
921.450989 -405.337158 -632.437134
967.889526 -998.275513 -669.661987
877.545227 -200.787567 -670.541443
878.581726 -1093.109619 -479.980621
1013.221436 -425.568268 -550.849365
915.381104 -604.834656 -350.940918
897.116943 -1078.930298 -652.837463
911.390625 -293.061249 -619.793274
794.671143 -677.256226 -295.859314
758.592163 -1134.360352 -470.907379
1014.476379 -412.978088 -505.703308
736.701782 -612.250916 -587.474426
958.074402 -1014.765869 -708.348450
850.512817 -336.652557 -718.405212
1081.940063 -1034.870483 -456.702484
867.703003 -225.104889 -650.445923
1085.666382 -977.453796 -459.485107
941.658203 -562.804993 -522.770874
1097.199707 -1023.706360 -438.204498
900.448608 -309.365753 -626.711792
945.389709 -1081.987549 -442.505341
975.796875 -391.525116 -551.518127
695.539246 -661.525879 -543.826782
1085.098389 -1008.135925 -444.870392
963.013184 -1008.563110 -699.913330
1010.980469 -353.386505 -490.445099
1085.915161 -1046.058105 -393.937683
728.805054 -669.305969 -420.631653
763.415527 -623.113586 -543.608643
1011.885803 -259.639709 -479.458405
1144.640625 -1006.683411 -324.316162
782.200684 -622.018738 -464.665466
799.012573 -626.523987 -384.539368
858.596802 -343.304169 -707.243347
838.526855 -1138.698608 -365.757996
895.966980 -609.503113 -446.116180
986.934509 -544.072937 -604.551453
1005.452148 -221.202286 -474.606171
1066.801636 -1030.131470 -444.778473
846.346863 -1127.060059 -401.018707
1009.818359 -298.843567 -479.466431
755.592957 -637.292603 -536.193481
833.441589 -1127.464355 -338.176392
777.275269 -1038.603027 -727.647522
821.943970 -612.924927 -483.260468
832.678345 -641.071350 -290.814484
658.887939 -653.856873 -586.610779
867.900818 -583.623230 -652.358398
855.961670 -1113.780518 -371.985260
922.113037 -1077.687622 -397.572723
726.497742 -634.669067 -473.593109
831.131897 -1105.858032 -385.267761
1071.716675 -1010.240601 -469.171082
681.178223 -673.769226 -384.670746
693.231445 -671.300781 -501.783569
895.744507 -581.825867 -660.855652
866.098206 -373.907654 -712.632385
1004.441345 -560.076355 -504.070709
818.328918 -1067.878784 -407.503479
811.484192 -363.244873 -756.029236
1126.120728 -1020.795715 -287.080200
925.032776 -1087.013184 -333.780457
919.624084 -1039.311890 -468.636047
1073.727173 -1040.928955 -375.815979
981.296875 -1073.601318 -406.718292
978.899963 -297.658020 -529.214050
756.432556 -640.522339 -411.786407
895.937073 -1092.400391 -561.346497
1047.624634 -955.860596 -532.018127
816.167114 -1075.310425 -686.462646
783.057861 -1083.552856 -697.017395
643.098877 -656.708740 -534.202332
953.750427 -990.613037 -616.587708
889.676453 -1084.833130 -405.733856
892.699524 -1098.924561 -599.793091
951.757568 -1057.046143 -613.797241
799.225708 -1138.162231 -340.916412
773.197510 -622.335083 -398.642792
881.735596 -607.739990 -316.097687
926.343201 -156.213516 -557.649963
903.466736 -261.522430 -628.048584
949.259766 -166.363281 -572.039307
775.432068 -1122.747681 -535.394165
925.729187 -365.219696 -606.751465
954.596680 -1054.040039 -497.430511
953.338440 -1061.637817 -449.222748
1022.563293 -1065.315674 -456.372162
936.197266 -209.012863 -552.395691
1261.752808 -875.746033 -634.013428
1187.842773 -979.951599 -550.762207
908.257263 -207.629257 -621.072205
1033.366333 -353.814331 -476.894379
900.112854 -270.335449 -626.641785
1027.680298 -1054.794312 -497.248047
957.592712 -1008.413513 -699.130920
938.247925 -148.816635 -576.526001
919.654175 -1034.584595 -790.397278
1138.194458 -1022.654419 -370.237457
875.683411 -598.115234 -393.121460
1003.003723 -453.333984 -587.636963
970.279541 -1088.777588 -392.930695
964.662292 -166.307632 -558.549133
916.646301 -241.099258 -591.920532
691.110413 -629.209656 -578.588440
849.144958 -408.536652 -732.447815
1161.453125 -964.099609 -627.101990
1295.458374 -875.905518 -801.146362
807.587402 -1141.068237 -401.608826
668.468140 -658.674988 -515.734619
1254.818848 -883.881104 -580.749451
1077.016235 -1001.566467 -464.883057
885.127625 -187.047638 -635.804138
1192.091431 -997.221436 -369.548004
1154.464478 -953.289307 -587.504150
822.521606 -622.602966 -399.776306
872.450684 -1093.341064 -626.748596
1017.545288 -333.477448 -482.713104
982.984863 -214.065552 -488.029022
914.219421 -178.968719 -580.289307
1114.727905 -961.459229 -334.705200
855.129456 -565.368896 -642.047607
1222.287720 -978.335999 -590.093750
916.888611 -599.568115 -407.091766
999.128235 -400.450500 -510.966248
683.325195 -694.409424 -382.025696
986.530579 -546.505005 -513.425110
1024.345093 -329.439789 -440.276764
812.905518 -649.551270 -295.975433
838.702942 -1125.246460 -364.760803
837.979736 -1104.492920 -516.159912
1185.001221 -953.765381 -613.209473
866.513123 -616.533447 -480.472504
1004.801331 -927.945007 -647.784851
908.461670 -622.115906 -296.964722
1081.927124 -1030.576050 -316.816650
772.554504 -1051.329956 -723.115723
688.936340 -648.494751 -555.869751
825.605835 -651.333923 -320.888977
805.909668 -1126.099976 -421.856354
811.278320 -603.587646 -632.369507
781.699829 -1110.314331 -499.672668
969.515625 -1077.077271 -300.958191
847.348206 -1110.596680 -332.660370
767.258240 -626.331421 -519.131592
900.959106 -1072.051758 -475.730042
835.249695 -606.482605 -443.392456
908.275208 -183.635483 -592.838013
754.759644 -1140.674927 -373.797333
981.034119 -1080.423950 -408.765778
637.248291 -659.988220 -536.385010
912.553528 -450.226105 -685.150513
1032.913330 -334.880127 -473.596283
879.626282 -253.565720 -663.846130
868.015991 -1077.525879 -412.883179
863.599060 -654.900879 -286.687439
874.865356 -1012.040466 -760.509216
882.674194 -624.166931 -303.363220
732.420776 -656.023987 -418.134277
881.696594 -1055.124268 -676.625732
937.240173 -400.187836 -610.661438
941.132874 -593.614319 -367.980865
793.805908 -1101.255981 -653.162964
805.247375 -1122.996216 -404.386902
795.076660 -610.653015 -524.757080
954.288818 -271.179718 -536.059875
627.110474 -680.849121 -485.630615
1009.779846 -262.182617 -475.052673
680.309570 -647.499939 -571.571716
1164.989136 -982.177063 -400.984161
827.721863 -1098.514526 -493.435547
1023.214722 -380.134613 -473.158447
924.097107 -1044.412720 -657.451233
1135.400024 -1013.617310 -337.366516
705.763489 -658.074951 -445.582672
933.505371 -338.851379 -606.673523
994.474915 -268.641968 -488.973389
981.427185 -365.279266 -550.764160
856.821289 -221.550659 -705.929260
1010.602417 -347.464508 -496.775574
819.884888 -313.733337 -740.044556
801.687378 -1043.744751 -705.014221
944.981018 -572.662231 -448.088898
670.692139 -688.018433 -449.821716
861.583923 -282.109344 -682.854980
768.122559 -1067.076294 -694.500427
967.080078 -1070.466919 -461.963531
1103.685059 -1047.801880 -334.656891
915.462219 -336.746338 -627.971558
976.529846 -431.814911 -590.706604
947.338989 -550.567749 -505.894257
901.779785 -230.875381 -623.695679
977.835205 -317.723663 -519.613647
1252.304688 -874.332336 -655.705444
790.783936 -641.836792 -317.168182
913.633728 -1114.426147 -380.915009
743.392517 -608.354309 -598.142273
1047.013428 -1065.278809 -310.983551
815.976868 -1117.632568 -442.722595
926.908142 -1111.514526 -318.079224
856.564819 -421.166107 -722.177246
861.274292 -213.438934 -681.058228
803.848389 -668.512024 -278.970337
1087.409790 -1023.709106 -515.219543
964.241638 -220.394257 -507.442444
700.211975 -657.082947 -472.395325
1091.523193 -957.145752 -385.916382
861.247437 -586.502380 -610.538513
788.221069 -1149.395874 -388.996765
768.477478 -1108.191040 -659.596069
1141.082153 -1017.003296 -327.690704
832.140808 -606.663147 -647.122131
981.790588 -558.675049 -405.910522
1153.644653 -983.479553 -474.051788
948.684631 -151.820923 -561.208496
961.393616 -404.041840 -573.613464
1145.932739 -1008.721924 -361.867950
921.710815 -1072.179443 -627.980347
1039.359741 -539.629150 -496.938568
783.148376 -638.284607 -446.239014
1082.615479 -405.697906 -466.366028
850.021729 -1136.145996 -343.895935
1224.319336 -995.652893 -315.190155
618.374817 -704.479004 -482.962708
887.087219 -223.046570 -631.620117
924.069519 -445.222168 -667.893311
937.834473 -295.835663 -581.570129
884.929504 -379.123505 -665.972473
787.013977 -1137.092651 -481.926208
926.320740 -1023.083923 -666.102234
773.312561 -612.667480 -605.147949
1082.402710 -964.968811 -514.057678
764.253052 -1117.864502 -616.728577
1135.066162 -960.477356 -417.665039
821.582642 -602.477356 -436.927979
863.196533 -1124.997437 -326.950775
831.912476 -269.697632 -714.322144
967.882202 -562.452820 -495.383118
875.832092 -1121.257446 -333.681244
854.528320 -312.945496 -691.597351
912.821899 -574.386475 -455.304199
809.574280 -614.003967 -649.317383
924.111328 -1099.991089 -330.613403
948.164185 -573.015930 -269.132629
1171.594482 -970.994507 -500.470581
901.031433 -234.167328 -629.750610
996.051453 -361.570740 -523.533569
741.350769 -627.942383 -476.481506
811.919922 -632.264832 -312.997803
830.930420 -613.473022 -678.052734
856.641968 -1094.783203 -430.075500
809.459229 -603.895996 -575.175598
889.713745 -442.868164 -266.372314
750.806213 -624.858154 -646.312134
857.148010 -999.747070 -678.925720
1050.606445 -458.640289 -514.739929
872.801331 -436.836090 -714.789978
789.469055 -622.733154 -623.027649
908.250610 -1071.063721 -578.061096
721.694946 -657.679443 -430.489502
1130.438354 -905.196777 -576.272278
1342.120728 -911.877991 -617.627991
1115.610107 -995.651001 -424.461090
915.778320 -338.497559 -645.204529
804.597351 -1103.602905 -617.326111
1015.498535 -247.822998 -447.215271
967.136658 -1010.492554 -733.821411
909.130676 -578.454346 -353.946777
823.013855 -1067.304199 -746.923035
937.042236 -334.569672 -613.011719
1214.531250 -971.152649 -423.437378
821.590332 -600.141113 -717.847961
721.422546 -673.617249 -360.541779
816.794373 -1104.059082 -640.949158
838.265930 -1103.984985 -462.829041
962.689575 -332.303436 -543.532593
1115.562256 -984.176758 -456.520325
797.730469 -651.120667 -374.026978
741.540833 -633.626221 -529.810913
933.326538 -426.819885 -619.018921
752.749695 -1118.426147 -606.410522
889.052307 -578.354370 -465.649628
966.765381 -432.009460 -572.682861
933.631897 -1018.916138 -696.012817
838.970642 -344.428925 -722.429016
898.969055 -595.615234 -417.363037
776.778687 -626.694336 -579.097351
888.518250 -586.646912 -396.066010
759.454346 -1118.831787 -611.062317
931.410095 -1008.556580 -536.981934
824.303162 -678.373535 -290.357605
1113.050537 -1024.618896 -347.492523
1052.873047 -1026.033936 -436.001953
981.588806 -1081.218140 -321.490509
963.290894 -1022.913086 -602.510498
912.502869 -1011.844360 -657.375122
699.652649 -659.248718 -440.264771
971.460144 -352.250214 -298.223419
787.069153 -643.910461 -333.147247
729.183960 -640.047852 -407.723724
758.151001 -672.324707 -349.992859
1021.140198 -961.464844 -537.922119
860.123291 -638.747803 -290.804932
948.814880 -211.473419 -538.497864
869.771362 -1064.920288 -681.265503
666.194153 -720.643982 -426.679657
883.099609 -250.803497 -651.786804
797.878296 -1109.894653 -478.412628
938.909546 -221.152191 -559.256287
1103.274170 -1056.110962 -292.748260
862.147095 -262.716766 -672.759277
1081.187012 -997.618286 -467.899048
827.702576 -634.065552 -429.521332
876.627258 -607.473816 -562.062317
860.509399 -347.906189 -692.363403
901.609924 -601.071838 -457.443542
891.689087 -169.825226 -630.577637
949.560425 -554.690369 -608.204346
1099.243652 -974.928284 -507.293762
958.177307 -393.337738 -581.683289
950.787903 -319.214661 -558.453613
873.535706 -211.983566 -644.732056
872.596375 -194.907501 -642.307617
951.129700 -966.033081 -602.856750
946.057007 -584.720703 -420.763733
913.656189 -375.400787 -651.668762
957.024902 -1098.311279 -296.298889
960.245667 -1083.946411 -369.313721
821.825562 -1106.986084 -521.116882
677.894470 -675.288086 -560.380981
899.514771 -596.271118 -365.188965
915.735413 -317.334686 -622.596741
988.665344 -532.391357 -557.248291
990.877136 -1084.653320 -417.343170
933.753601 -973.878906 -536.159119
932.995056 -1107.805420 -312.212494
895.626465 -176.117661 -623.000610
1041.852539 -1033.869019 -492.940521
932.970520 -193.400009 -578.211182
669.386169 -703.296143 -420.386505
1036.900269 -997.508606 -805.907410
952.616028 -565.715393 -451.292572
797.276428 -1032.452393 -777.615540
1130.907715 -983.782532 -410.341461
1056.479248 -938.649536 -515.628357
1129.295044 -951.500183 -401.192291
980.691589 -423.972351 -578.826538
1007.180420 -1059.443359 -455.548981
915.217896 -1076.493042 -621.728943
936.569336 -1099.896851 -379.248627
1087.152344 -1021.485413 -391.297272
1087.720459 -1050.427734 -325.639435
697.247864 -706.475037 -382.681732
780.027527 -1025.059448 -718.245300
940.259644 -408.405792 -603.738586
862.114563 -207.827194 -691.172546
882.234863 -184.108414 -623.722412
1077.623047 -1026.136230 -476.249847
909.485657 -1057.724609 -497.858734
894.815491 -300.644165 -646.185425
1013.732910 -207.127625 -474.542297
758.948120 -1141.779175 -424.469879
798.346191 -1111.774048 -460.021759
715.477295 -648.625977 -449.670258
1076.030029 -1019.173706 -502.747253
1033.398071 -548.995361 -502.521973
1058.870117 -1042.482666 -422.775757
960.269348 -306.837830 -559.441956
781.484497 -1123.694580 -534.772888
821.668335 -1108.313354 -535.865662
778.530579 -659.789001 -316.716400
846.474670 -643.171509 -287.583435
924.293152 -1104.162476 -319.462921
948.815002 -1056.573730 -560.435852
750.503784 -655.696777 -335.785980
893.130615 -1037.508057 -416.718323
842.897400 -1100.234497 -516.313965
1137.840088 -1022.809204 -328.122467
677.578979 -684.512878 -486.375885
921.552856 -573.386780 -447.890656
809.036621 -1064.046265 -702.307922
912.028687 -1067.356812 -392.608734
1141.942627 -952.973572 -539.799255
932.158936 -182.832321 -554.059326
1019.749512 -351.224640 -491.312744
740.787659 -1109.581787 -633.140869
813.771301 -616.465576 -574.940369
1007.177490 -390.498413 -517.135498
711.310059 -688.221741 -348.934570
893.056519 -1014.839844 -688.904663
1013.544312 -428.446472 -529.221191
1006.975464 -232.114441 -479.137238
1021.994385 -1068.959351 -308.499725
806.351013 -1144.791748 -460.018158
880.950317 -398.151703 -687.759460
732.058289 -676.181641 -334.014313
850.866882 -201.391525 -669.649231
972.559570 -1095.457397 -346.824860
766.788269 -1141.390381 -455.194275
770.550293 -680.239807 -305.853790
1151.809692 -968.395752 -338.129700
667.703918 -698.270386 -424.146820
1015.750549 -1041.252197 -433.113556
990.593018 -426.789368 -559.843384
919.864197 -596.620422 -350.025055
945.956787 -576.055847 -646.115540
1042.265259 -1032.016113 -488.237671
930.599854 -382.501434 -635.331726
894.114441 -1081.967285 -641.899048
1135.764893 -1003.224243 -348.528564
989.651062 -316.445496 -511.422028
791.285278 -632.987427 -469.090149
841.284851 -1011.965881 -682.855042
919.508850 -596.022400 -442.629150
1022.506409 -361.930054 -483.146332
857.886047 -1084.319336 -504.490082
974.449341 -299.814056 -536.362183
861.059875 -191.312225 -664.792603
1137.204102 -1007.854980 -340.622528
914.256165 -186.557922 -632.516174
848.699402 -642.480774 -286.480225
771.571167 -1138.332397 -412.764191
830.736938 -1104.812500 -518.168457
781.427673 -704.380066 -299.665924
1148.443726 -1031.505371 -309.162598
1048.578613 -1048.893311 -449.375916
1133.127686 -949.283325 -391.099396
950.571167 -163.350861 -526.570618
1084.819336 -1008.610352 -512.398376
1028.239136 -332.610565 -455.599121
706.619324 -655.954773 -462.251526
841.322266 -1090.842285 -514.836304
811.315491 -624.307983 -423.729645
956.735107 -202.181900 -555.512268
686.799683 -672.282776 -401.931915
1032.655640 -377.696381 -489.055664
1187.689209 -993.729004 -368.784851
890.310486 -1057.834595 -692.619263
749.091064 -631.237732 -471.488739
940.275696 -226.841461 -549.546753
1000.204468 -381.654602 -538.781738
668.848999 -653.218201 -480.442627
1039.745361 -1038.631714 -371.720093
871.011536 -593.998962 -638.947449
842.257202 -1075.856201 -428.025848
1082.549561 -1045.806030 -378.524109
979.808167 -337.794983 -520.842224
775.556213 -1131.400757 -558.485779
1028.958252 -1050.019775 -453.473389
943.850342 -373.693359 -619.341980
803.475525 -677.110352 -290.064545
1266.094482 -891.560913 -625.549988
1136.707031 -1015.367920 -287.352081
893.016296 -604.708984 -318.435364
874.944336 -1044.623779 -817.581665
958.670532 -315.814453 -551.458435
624.776855 -730.745056 -452.925385
954.041260 -576.364929 -356.690063
1308.830566 -874.146851 -716.740906
931.791382 -1094.851440 -355.649475
903.434692 -414.178162 -656.936279
1054.172241 -414.667023 -482.506775
1057.972168 -464.489471 -571.000793
775.525085 -653.761292 -388.712189
769.410767 -652.042664 -332.037018
972.695496 -187.924942 -521.791992
994.821045 -382.508087 -547.279602
836.039001 -600.676331 -670.490540
786.425293 -1132.067139 -470.722778
859.442993 -1087.613892 -596.251526
1038.567871 -418.034302 -475.254456
759.098877 -596.451782 -638.316223
860.666443 -660.160950 -276.892487
920.401489 -244.527252 -597.755310
1250.973389 -934.077209 -598.252380
1029.964844 -1063.003540 -321.877930
1017.316223 -429.218689 -506.174774
776.608337 -625.571838 -447.044678
976.927917 -204.958496 -493.984161
691.254944 -645.673645 -518.153442
834.607849 -1091.053345 -612.913757
916.065918 -1087.140747 -563.468567
741.745667 -1091.263794 -720.459900
906.273865 -183.961258 -651.654175
1271.336670 -925.885925 -570.048889
885.154175 -609.811462 -343.777130
1319.977539 -917.968140 -611.979736
862.494141 -1131.959351 -330.909576
867.886169 -1116.019287 -365.670288
1134.057861 -1010.422607 -365.970062
874.056763 -376.088043 -694.696472
898.090210 -1028.558716 -820.669922
816.624146 -1126.097778 -325.316956
837.328125 -308.932770 -716.179993
887.364014 -436.820709 -703.799622
1084.265991 -1040.251343 -385.053986
910.712585 -593.869202 -306.518219
855.644836 -292.487488 -701.942688
940.976624 -418.652435 -640.343201
914.531311 -1103.655396 -319.229309
883.922058 -250.683655 -661.855713
940.745911 -169.801193 -543.652832
1108.912476 -1011.392517 -444.359039
834.189697 -259.800690 -739.971802
778.380554 -624.499512 -399.537323
885.893860 -1106.086792 -392.624481
979.492676 -1015.221008 -504.153534
632.212219 -686.773865 -492.656433
1167.260620 -992.311646 -391.163910
903.621033 -293.845062 -631.954102
748.599365 -670.846558 -340.506134
932.148804 -949.788147 -537.107422
837.848022 -321.876343 -714.380615
886.070557 -577.926697 -558.969360
883.119995 -1092.012451 -387.016663
792.561768 -648.632996 -374.637573
845.504517 -598.470154 -456.073242
959.549744 -395.301208 -590.142639
933.377075 -361.688385 -616.634155
829.243347 -314.946198 -748.449280
1030.243774 -1040.799316 -436.197418
1122.130127 -988.290527 -384.973907
764.596191 -1138.445801 -431.202271
1121.072144 -1010.044678 -347.703796
839.736633 -255.463028 -708.320313
968.048462 -160.509109 -563.679810
981.897278 -271.371735 -511.343964
884.874207 -623.959900 -300.620819
935.805908 -152.637192 -603.734680
747.589783 -610.156128 -552.587891
1091.795288 -1045.869141 -339.349884
1144.934448 -954.525879 -647.725220
1078.900269 -1046.111572 -333.118408
804.246582 -1129.165161 -371.820465
852.879761 -1116.794312 -573.537659
921.209717 -840.480225 -545.540222
857.853455 -437.533905 -730.105408
1140.021484 -1011.769470 -318.642334
880.471436 -612.523499 -325.843231
987.200439 -231.158539 -497.113495
1217.035156 -982.939575 -343.371887
833.935425 -593.550598 -559.725098
888.666565 -352.302368 -676.457275
889.439392 -580.406677 -532.777100
781.909973 -688.970276 -290.124908
730.536621 -631.339417 -598.695251
750.174133 -596.241333 -652.344971
788.606140 -598.236450 -673.596375
772.205872 -1121.027344 -474.607788
914.553406 -226.565704 -614.479126
834.601196 -1100.178589 -554.170410
1011.712280 -389.111664 -522.110046
865.759155 -600.213196 -351.821991
951.649780 -233.790359 -536.551453
854.962646 -1101.912354 -620.158020
851.073364 -1057.651733 -683.866455
928.484314 -1010.862427 -450.124939
990.470215 -544.509521 -599.756653
976.837280 -272.708252 -526.143005
818.352600 -701.616028 -258.871460
832.180786 -396.851715 -754.143433
941.401794 -1093.746338 -334.894836
861.675354 -1027.983276 -703.065796
907.173950 -1106.854736 -311.340118
798.242065 -694.287231 -264.056946
815.291321 -603.853882 -514.768494
999.635498 -558.664795 -388.012238
1002.438293 -265.231323 -481.124176
726.238647 -657.053833 -455.587067
652.761597 -720.601318 -415.367798
1317.953491 -884.478760 -673.659241
666.507935 -642.220642 -560.909912
982.572021 -989.944458 -649.079468
773.486328 -1133.520996 -455.513855
1044.257690 -964.382874 -482.451294
988.171265 -433.243286 -569.515991
973.297546 -1052.685303 -467.232513
1020.644409 -423.222198 -513.242188
945.352112 -350.021912 -599.076050
1158.065186 -943.891968 -535.822327
1196.481812 -975.414429 -593.391174
1318.111572 -860.509155 -765.411133
660.169861 -693.922607 -412.247650
1098.696167 -955.238953 -554.553711
775.204285 -1089.618896 -705.340393
817.937927 -1080.933716 -677.727722
1084.320557 -1011.182312 -516.760132
989.217041 -884.671997 -583.359070
1212.258789 -987.156677 -317.199219
868.270264 -625.983154 -286.477783
903.295410 -597.573059 -388.581848
818.784302 -634.201782 -314.843018
902.640686 -1061.194702 -483.469574
831.374634 -636.486633 -294.731689
941.812988 -351.157593 -609.056824
1047.135498 -973.791504 -779.785461
942.553101 -342.141357 -599.831055
1009.468811 -316.445557 -496.678345
791.117798 -690.797363 -276.120361
1152.455688 -952.927551 -621.799988
770.647278 -677.447205 -305.768372
839.840881 -312.394409 -719.775940
828.429932 -596.329346 -615.885925
796.889648 -1115.947876 -411.810913
1081.000610 -1041.297119 -415.768585
1036.510254 -532.837341 -637.173706
1206.669189 -1001.581360 -288.296936
840.744690 -235.151321 -715.633484
911.930359 -1088.735352 -551.596375
1035.253296 -386.966858 -468.461884
647.092590 -704.565125 -454.770233
1002.776672 -539.211609 -521.822998
683.830505 -675.919128 -429.615875
971.072021 -208.834671 -513.226196
931.159058 -575.080505 -426.290436
891.190247 -202.965637 -644.602600
789.861511 -1066.901245 -674.836548
921.047241 -343.949738 -647.450439
936.624695 -1046.783203 -646.134583
1151.554565 -1010.755371 -284.292480
897.141174 -1042.565918 -803.726440
902.914734 -1074.920898 -541.267944
774.441345 -1107.403198 -652.538086
864.580566 -406.555481 -707.543518
783.041321 -623.041992 -470.414764
981.618591 -556.446777 -519.502014
907.414429 -1041.812988 -440.992706
863.626465 -599.830627 -609.373291
898.925232 -1072.918823 -389.596405
887.706970 -643.405518 -290.353882
918.292603 -178.299377 -575.739624
756.030762 -1125.834106 -475.538025
1330.322021 -915.391418 -605.272522
817.359924 -1098.784912 -481.411316
993.936890 -984.495789 -668.270325
887.610352 -154.916916 -610.225464
956.816162 -433.351044 -594.299622
632.768494 -701.293396 -482.308472
780.235413 -683.819336 -281.549927
730.784790 -652.818115 -490.054565
863.570007 -609.183044 -511.706116
1048.436401 -1026.115479 -496.292755
954.532288 -174.439011 -546.462585
994.596802 -265.285248 -503.250793
1073.335083 -1022.985718 -488.875305
955.249878 -353.972717 -591.759460
803.024170 -624.328918 -397.219208
868.529480 -307.115356 -695.593872
696.279785 -646.003296 -563.577393
725.662842 -615.840210 -648.171997
884.289063 -389.570618 -693.907715
1200.138672 -949.438416 -564.942810
651.423889 -678.365845 -487.083923
868.333130 -234.649033 -661.651428
1013.679688 -320.491364 -477.499786
836.839905 -256.448608 -729.344849
908.391418 -421.737030 -674.945251
769.958679 -641.237122 -511.577026
824.447021 -1047.373291 -735.195557
908.841614 -1073.147949 -388.868225
851.721436 -629.438293 -338.753937
759.360657 -633.487305 -469.673340
900.367004 -966.747437 -669.224915
712.955872 -664.235901 -498.246368
784.704407 -592.381775 -620.972229
1062.977783 -1047.223633 -439.300873
775.076721 -696.775635 -273.008423
1168.937988 -1022.988403 -303.017395
893.045044 -1090.913818 -471.354523
909.615540 -238.346741 -615.467590
637.499878 -712.924622 -485.478729
676.889893 -659.762573 -435.986237
885.497437 -985.038452 -636.109314
926.257996 -1085.586548 -540.778137
1067.931519 -1057.238647 -396.251740
804.038757 -643.797485 -313.783325
976.611938 -255.771103 -505.898956
958.247437 -411.682159 -582.092041
933.339294 -1079.073120 -374.572052
854.661621 -1053.042236 -402.754120
1128.017334 -1003.747131 -408.189575
880.715576 -312.867615 -654.835754
1213.420532 -918.804321 -594.089600
1225.697754 -968.799133 -564.771362
1008.374451 -293.552399 -491.904755
830.788635 -205.573059 -716.890747
951.268372 -306.594208 -551.517029
971.177246 -418.491333 -594.917603
1038.628906 -543.312378 -440.214203
1253.261475 -953.844482 -597.714172
773.972595 -640.403442 -392.807739
898.767517 -592.744629 -520.058960
893.320190 -561.743958 -584.483459
850.667664 -1081.729614 -630.072021
905.999268 -442.784912 -692.265747
841.321411 -1016.796204 -661.550476
1423.409302 -870.512634 -660.752197
1216.788452 -994.112061 -312.025635
706.673950 -660.367004 -414.380737
811.937927 -1086.722656 -594.923645
886.336731 -591.272461 -512.072754
932.399048 -373.985840 -623.183594
1017.158020 -400.402039 -500.827240
928.174622 -258.378265 -597.922791
1043.620850 -358.772827 -451.479126
864.981995 -250.466492 -686.057068
738.840027 -628.902161 -433.521210
979.863464 -206.412384 -502.280548
803.828735 -1067.912964 -720.070862
907.391846 -614.001465 -343.503632
841.218018 -590.701538 -627.668030
820.075500 -636.011658 -363.455139
937.887329 -1047.359009 -637.419617
800.681641 -1126.459839 -436.679565
883.498352 -1124.203857 -325.341980
814.970520 -609.893250 -473.118652
1420.416016 -869.965210 -676.921143
1130.998413 -1020.645081 -363.363586
881.731201 -226.185028 -660.121582
994.354858 -204.705704 -492.430847
1031.821777 -425.569183 -480.089111
1038.791504 -381.694336 -486.851257
759.908020 -1134.666504 -479.127808
1013.552002 -414.865021 -484.791748
804.539368 -632.825317 -540.927002
846.879395 -1093.979126 -436.721924
945.570496 -1079.744385 -330.473877
955.915222 -428.664398 -613.116150
722.815552 -626.988647 -647.427673
893.290405 -233.919388 -632.687805
1076.495239 -1045.760010 -343.905243
1123.714111 -948.968201 -432.701965
844.597656 -656.018616 -285.285583
924.642822 -397.290955 -649.375488
612.909302 -700.186157 -525.894226
917.742432 -607.273621 -371.036072
839.512146 -335.216217 -711.132629
961.382629 -577.871704 -556.229431
991.867065 -561.554810 -508.866791
894.985596 -443.330902 -700.540405
848.613770 -235.763397 -713.952087
760.310364 -663.843811 -334.870972
905.464966 -1031.375977 -519.575745
848.192688 -1095.282715 -391.209595
695.386353 -692.165833 -365.693176
930.045837 -440.397339 -671.438904
1024.047241 -951.004028 -527.881165
850.132080 -1127.621704 -462.584076
843.657166 -1082.094604 -523.725464
798.239929 -1088.514038 -735.774353
904.589417 -439.037018 -643.231689
994.561279 -563.135376 -408.644501
882.582581 -198.230972 -632.746033
810.637207 -594.379150 -638.554504
927.631226 -558.380676 -652.299194
729.427307 -622.700500 -522.552612
671.333923 -678.296021 -469.718384
947.211548 -1067.789795 -411.484619
997.071289 -416.125488 -527.700073
895.618774 -164.125946 -633.312500
795.578064 -1127.055176 -448.775787
1003.980042 -1081.712280 -396.575195
1169.364990 -1002.719788 -317.936127
851.812378 -1047.208740 -659.385864
891.068848 -1052.388794 -688.277527
812.802246 -581.715942 -632.275818
799.370361 -616.378845 -396.072021
916.144226 -247.366531 -604.639526
783.042114 -1130.227295 -468.670074
680.897339 -649.414307 -468.520416
1031.809814 -531.552856 -446.397217
1019.612732 -377.057526 -507.766907
772.985046 -641.327026 -333.561890
852.698425 -276.943634 -702.802795
851.223022 -301.209167 -708.927490
931.003845 -1069.678345 -578.293152
