ply
format ascii 1.0
element vertex 1384
property float x
property float y
property float z
end_header
-780.843689 740.544250 18.400162
-771.482849 669.684814 523.001587
-1098.748657 1125.139038 23.244165
-1084.109497 950.132568 -153.121490
-942.581299 545.656311 97.149887
-1075.563477 1022.819336 -108.389885
-1295.567017 758.218933 -107.492188
-1004.642212 632.581360 271.768066
-1304.358154 898.159363 91.204941
-1133.478149 1007.993225 -102.152687
-920.725708 567.904114 475.975708
-836.993286 674.005432 490.119995
-649.525330 812.938782 241.284332
-774.996033 770.997253 146.601761
-909.707336 550.519409 490.921234
-1075.223389 1080.253662 -70.077698
-1201.483765 1027.095337 120.458801
-1060.512085 1079.639160 -116.648834
-751.094971 805.610596 108.991516
-801.725891 641.434937 504.882355
-1098.935059 883.951843 -264.771332
-1031.411987 1244.548584 93.225052
-758.853943 750.609497 492.314270
-923.846741 417.104370 150.805313
-761.226807 781.836365 483.757690
-1068.903442 991.680969 -175.604477
-777.769226 741.334473 6.489671
-1108.376221 941.380127 -196.134262
-721.155762 739.687378 524.927063
-1018.409607 1148.815552 -87.869926
-842.770630 784.794312 444.546936
-1267.680786 840.057556 -103.056824
-1133.182495 948.294312 -150.524155
-1132.716797 1076.160034 21.496468
-1100.885986 965.785767 -143.840515
-974.382324 520.667053 114.047707
-1045.102173 965.425781 -268.253937
-814.911377 824.022583 241.391953
-1165.883667 1104.104004 246.413635
-1240.726929 905.271667 -49.495487
-1118.098877 968.378967 57.963085
-913.806213 546.003479 40.735134
-882.560791 601.284912 497.694275
-1103.260254 1035.914429 72.750298
-749.717102 767.989197 488.235474
-1060.544800 963.405151 -168.650085
-782.696838 740.013550 489.615692
-818.613281 789.253601 231.233078
-1288.747314 769.648254 -67.247314
-1003.802368 579.895691 230.292847
-1130.962158 911.519775 -179.694473
-938.299255 553.156921 464.646851
-1073.263428 965.138306 -194.858612
-744.987183 831.073181 67.782631
-1008.130005 647.607300 297.383911
-811.644714 733.452881 466.899719
-942.169678 646.565369 214.204514
-1179.265259 812.025391 -219.520065
-1206.974243 1137.182495 245.138840
-739.460815 592.069397 565.615479
-1135.745972 862.702515 -239.530090
-1301.293213 822.203918 -25.391193
-903.770752 562.423645 68.777069
-1099.425781 951.181519 -155.171478
-923.337646 709.042542 436.956543
-1004.495667 1236.917603 26.273766
-892.233337 641.158936 141.388336
-675.737366 660.631409 587.723633
-830.972961 490.886353 547.532776
-877.167114 631.800964 109.581863
-808.158691 698.763123 72.002754
-791.765808 481.806763 596.476013
-792.857178 531.277954 587.532043
-780.247925 510.498688 593.325134
-1013.255493 1106.942139 -89.673492
-867.824097 497.117340 530.764160
-926.896912 624.349426 453.761383
-808.445129 694.912170 92.465981
-1081.641724 1022.616455 -104.760269
-1231.517578 889.934814 -18.791695
-742.919617 553.050232 603.926880
-1238.006348 1077.714111 219.648590
-1140.410645 881.731567 -238.665298
-965.770874 604.851440 205.742828
-1045.120605 935.693604 -184.521057
-856.407043 612.092896 50.328682
-819.170227 504.083740 550.038025
-854.150635 728.962769 177.320694
-1081.807007 1075.399292 -81.755135
-1235.494873 841.285767 -125.635880
-1065.370361 1173.096191 33.916580
-1174.361816 999.007202 -6.264951
-1206.680298 910.311279 -117.091904
-1270.145142 866.504517 -18.490213
-1278.805786 1077.233765 328.703827
-1071.300903 1058.556885 67.108337
-1042.492188 1147.116333 34.813560
-1081.296875 938.613831 -166.264084
-746.451355 597.694519 578.291931
-1179.033203 969.525085 2.045433
-1227.360474 1061.959839 111.722420
-757.419373 611.542664 552.663330
-938.437927 521.931641 466.071960
-1190.092529 1098.911011 203.896896
-853.850098 598.231873 28.235723
-746.053772 652.014893 542.823181
-715.779053 666.004639 558.313599
-1080.852539 989.947449 -158.547928
-846.730347 747.763062 213.070816
-874.451050 665.887878 472.961182
-1130.259644 1082.700317 26.737009
-1083.042969 1131.874756 20.983637
-868.448303 610.355225 -7.166694
-1010.383118 1183.084595 -33.331455
-913.930664 698.672363 271.469879
-801.071533 759.067688 463.461884
-1139.633545 939.919983 -158.589935
-838.547302 495.885651 542.050354
-1278.251099 744.781128 -149.774811
-888.575867 572.382935 487.423676
-1017.304688 1197.272339 8.034638
-1123.098022 995.543701 80.893814
-1239.227173 1011.958984 162.513565
-1212.984985 1124.840210 241.192535
-1009.527405 1112.535889 -115.142906
-794.664124 767.510193 141.207870
-736.082764 694.457703 532.145935
-777.173584 833.798096 456.921234
-1067.303711 914.696533 -246.084595
-1018.738770 1185.511597 74.569336
-1006.498291 1192.864258 -53.532646
-826.520447 656.328247 39.316818
-1115.972412 1000.752625 -101.627945
-808.010681 688.956848 79.793625
-729.334045 785.907288 506.075806
-733.204163 819.448364 127.736504
-1139.205322 898.686340 -192.103287
-837.648865 780.822632 228.088715
-1224.746216 1102.077148 243.357666
-818.832031 749.028442 154.947479
-1229.311157 931.823730 -16.895435
-810.185242 652.026367 51.689938
-1148.552246 987.045349 -51.815529
-1125.111572 926.208618 -176.440628
-837.424377 652.011597 86.287308
-775.175415 722.067322 74.890511
-1134.370117 1050.452637 -19.275190
-1010.921753 1098.112061 -156.489304
-809.222778 561.262634 551.929016
-1273.779663 760.909790 -130.327408
-719.462402 599.197083 612.441956
-1029.572510 1038.355591 -164.483292
-1055.724365 1074.906006 -121.699829
-1063.541260 1139.510620 -30.032391
-1200.952393 833.161804 -153.979233
-890.604248 586.701538 10.663931
-862.237061 512.214783 529.486145
-780.410278 736.902100 61.195141
-1311.444824 781.635010 -63.266914
-1112.558228 952.580811 -112.204971
-581.817749 783.593018 324.523224
-1262.303101 815.018738 -116.046005
-1243.639160 897.616882 -53.903648
-832.776062 645.921387 503.151886
-1002.634338 684.803467 332.999847
-717.793152 723.312378 515.633972
-1090.526123 1106.040894 19.422773
-843.043579 671.380005 111.148811
-845.093323 699.965942 150.210495
-1282.421875 761.777710 -121.691612
-923.965881 640.095093 162.721802
-1157.192627 1131.302979 234.290009
-855.244568 752.700623 257.871002
-912.902588 625.497070 133.009888
-1278.240967 788.822754 -122.671860
-787.898010 826.333435 225.992264
-765.650513 740.602295 493.618408
-1073.442993 926.734009 -162.483307
-1067.751953 981.453064 -178.306213
-802.984192 755.856995 464.975616
-722.183533 883.181152 242.466248
-1179.661499 862.005310 -186.270233
-820.375854 655.643799 501.194763
-1019.421875 1209.326172 13.505240
-1226.544434 912.278198 -20.371149
-1000.096069 665.454834 350.223419
-1038.246216 1230.405273 76.473457
-1076.491211 954.270691 -178.487823
-800.087463 759.834595 139.183319
-811.117310 790.234619 242.504791
-1254.857300 929.027405 34.271370
-1026.130127 1106.453003 -106.671188
-810.226501 814.096741 222.837631
-1147.847534 1004.760071 38.443455
-1245.513184 1032.634766 157.466110
-923.895142 660.807922 212.958817
-1085.786133 908.713623 -263.364319
-1134.947632 880.611145 -230.689224
-909.724243 748.848816 298.205627
-736.440552 819.522766 106.190063
-1177.925781 895.876282 -190.452179
-834.741699 523.370544 534.433044
-816.125854 864.690063 311.497162
-824.758057 739.573669 162.067444
-716.631653 712.207947 527.809265
-738.405212 800.621338 123.694397
-818.201294 529.574524 565.799255
-788.114807 830.090332 222.586029
-895.407043 641.517517 160.342911
-1244.738281 931.704651 32.672726
-1302.032471 800.392761 -61.754730
-791.422546 767.722107 142.366226
-1140.650146 862.557434 -237.167175
-760.506287 523.613098 601.209106
-1279.122437 750.778564 -142.360138
-953.196838 765.091675 348.497681
-739.216675 635.087341 554.674072
-750.305969 756.608948 34.554890
-939.523315 521.429504 49.993301
-932.223450 549.615356 471.355774
-1153.365723 893.608154 -180.013885
-1182.395874 892.777283 -176.478760
-932.373657 666.010864 254.750732
-1094.363037 975.492737 -142.988602
-1065.702515 1115.168213 -1.620629
-787.485046 539.499756 573.423645
-1023.853333 1212.115234 23.300917
-947.485596 640.391663 185.691605
-693.079407 711.649780 561.501709
-930.986389 494.099670 474.776031
-890.497864 538.893738 501.087616
-1054.092163 1134.978149 -53.597752
-1170.314941 888.212769 -168.256683
-1115.794922 1066.294189 33.991604
-912.766968 700.282166 445.403534
-788.355652 684.908142 56.309490
-766.221252 517.051636 599.949036
-737.502991 768.214600 491.280121
-695.213806 662.340820 572.067200
-820.144958 498.101837 562.556946
-931.803223 687.239441 221.015656
-739.033020 627.420105 559.794617
-963.124695 547.197205 458.212067
-1077.538330 1055.915405 -116.566444
-968.057739 673.564392 280.144073
-1069.869141 960.402283 -248.417908
-1008.463074 1071.025269 -169.264740
-1216.967407 918.718018 95.403984
-1159.839722 1019.284302 -24.809332
-816.704956 726.358704 153.143646
-900.419983 580.742004 -18.033773
-823.621704 767.109741 462.129181
-794.745483 601.923523 546.581482
-839.162292 662.029480 124.392868
-840.305969 776.895386 452.415497
-773.818115 786.183594 493.390472
-923.338867 626.520386 174.818222
-1077.668823 921.110413 -199.610947
-997.378723 1202.688110 4.342397
-757.745361 749.472961 55.136127
-937.298096 591.846436 435.540161
-856.794983 727.611877 160.472137
-1202.350220 880.277710 -46.561100
-1035.766602 1164.606445 8.178100
-1015.754883 1188.242676 16.905149
-818.839355 606.264832 508.181305
-1247.946533 800.866760 -5.596420
-1179.807983 833.553284 -219.775040
-1172.751099 908.863647 -128.749634
-1104.913452 911.223877 -250.998367
-1033.643188 1166.444946 -10.193569
-1215.568604 1110.393555 215.751968
-880.429565 570.658142 490.667236
-1283.242065 732.548950 -25.775282
-941.062622 679.498657 230.180237
-1203.701782 879.893921 -135.339371
-1136.587280 922.585449 -55.886555
-1053.417480 1016.843140 -183.441040
-755.605408 587.226929 561.091125
-998.647278 1073.402222 -151.129532
-793.688965 682.110168 44.452808
-801.274475 634.308044 527.379333
-779.987610 550.236389 576.027405
-1063.875610 985.018005 -196.106842
-853.462891 622.037292 32.258224
-720.206116 687.265747 531.260559
-822.624084 707.616516 465.346191
-1218.768311 817.808411 -173.682571
-789.505371 722.958557 129.074478
-1327.874023 732.203613 -98.537659
-1208.673096 830.910583 -180.627945
-789.787231 530.403625 579.850952
-1044.456055 1049.580078 -159.056000
-722.519226 732.920166 526.269897
-963.926025 771.889343 351.832947
-1169.025879 928.767517 -120.528000
-884.426208 782.700256 309.876251
-802.668396 500.282013 584.695068
-1122.357056 952.117126 -64.087341
-1167.662354 1101.736694 269.651520
-967.438354 700.861206 322.779968
-871.228760 649.595337 137.013855
-1111.356079 1155.048950 109.596199
-1117.151245 1122.025757 95.008736
-953.938660 525.877808 104.699043
-1145.929565 1008.862000 110.781891
-1023.300964 991.907227 -246.914764
-848.844666 642.492126 119.129204
-1106.844971 1063.755615 -9.815557
-1092.976318 1036.425903 55.562447
-1068.943726 962.151978 -205.283401
-1085.642456 1106.413452 -1.892430
-885.792358 705.026245 447.781433
-879.859802 674.015076 163.884979
-813.047607 445.697693 600.706604
-1001.075562 596.144714 216.895432
-1262.390015 1214.520386 413.889679
-701.436462 629.727966 615.907043
-1239.487671 997.629395 207.110229
-738.157532 830.753540 87.331909
-1057.708618 1142.138428 34.279606
-1183.605347 1102.637939 246.919098
-999.239868 1117.901123 -122.281540
-894.685425 642.340576 468.602356
-776.458252 732.340088 3.838925
-734.007080 628.871887 554.402039
-814.859192 687.534790 89.136993
-1059.348389 931.431946 -107.081596
-808.798645 723.728210 152.690948
-1106.535156 900.638550 -121.455399
-919.988953 519.225464 484.652893
-1153.143555 1058.788574 22.575546
-819.878540 809.706482 265.229797
-1150.499634 936.401978 -154.213776
-821.099243 665.597961 498.785339
-1246.655029 826.401184 -127.275299
-838.259399 750.585327 172.560806
-773.064209 742.528259 100.473297
-848.316101 630.101624 9.594727
-797.353088 726.073486 122.027969
-1025.114014 1169.582520 29.032408
-1372.026001 748.333679 -0.157881
-821.049194 804.659485 432.414948
-850.072266 836.398010 331.441956
-1285.770874 792.903381 -51.792862
-875.901245 590.410339 12.668248
-1048.560181 1075.127686 -85.454826
-1107.603638 931.513000 -116.466820
-852.191711 643.360474 491.050079
-916.009949 587.506470 456.342804
-842.484192 451.564606 565.428833
-771.411377 668.890381 527.075073
-1133.367065 1077.306152 77.115387
-786.845093 693.235962 503.922211
-1179.501099 809.346313 -213.024841
-1243.794678 892.075073 -31.667179
-1073.981079 1081.792969 64.500793
-961.890808 589.016724 436.340820
-1087.217773 1180.890747 130.481369
-840.828552 686.953857 162.347260
-1033.286743 564.608582 240.064255
-1073.889160 989.637268 -118.965851
-737.980286 815.467773 112.465607
-1137.685181 1007.744446 -39.813442
-777.641113 635.455383 537.785034
-1241.732300 857.883118 7.877747
-1261.706787 918.242310 175.412186
-928.508423 727.273499 284.276276
-785.657532 712.894836 42.575478
-1234.685425 839.576416 -127.047615
-844.786377 697.027649 456.017426
-842.862061 662.949280 81.228477
-892.946716 681.345154 187.354080
-729.718140 734.921814 517.787292
-1127.673706 857.015869 -258.306946
-1277.301147 819.184570 -74.193619
-1067.052856 952.942871 -263.736115
-834.147034 632.569336 -8.923911
-1104.558960 1073.075562 46.255482
-781.471375 590.661438 558.492554
-1244.562134 792.657837 -9.318028
-764.143250 783.944092 106.631226
-760.101746 845.427002 227.836884
-813.326233 791.837280 198.754227
-1260.839844 840.881409 -5.228117
-780.685791 731.623779 104.283096
-775.909485 701.786865 56.777458
-877.730103 637.962830 117.007431
-775.188232 701.448242 507.828369
-1115.858521 889.620605 -247.325668
-1193.864258 1033.275146 48.655491
-1257.620850 865.490173 26.154783
-852.284851 735.236450 207.477783
-1000.382263 1118.287598 -121.935555
-796.488708 773.220154 199.937729
-1151.578613 1023.757507 39.634346
-1062.558350 1226.068115 118.953598
-1201.084717 866.321533 -181.248306
-780.071167 708.178345 30.755522
-878.237244 634.845764 457.699554
-1285.148560 797.473450 -119.002335
-695.071533 625.298767 591.854126
-1161.650757 894.686401 -188.739441
-773.741028 774.987549 169.694977
-1236.084106 861.570923 -68.671440
-925.870667 496.255524 491.506714
-866.186951 712.925476 453.332214
-718.136047 846.981873 97.681641
-788.674194 656.802185 521.208679
-854.154480 646.548767 101.276489
-971.069702 597.728699 202.760208
-1311.233276 761.756653 -34.711399
-713.745972 599.460999 599.209534
-877.136353 596.730286 -9.392226
-877.042969 768.336792 256.951385
-785.564453 723.717590 14.223173
-1222.988403 923.305298 -49.061577
-740.085693 622.599426 553.515869
-1143.167114 866.157288 -230.038467
-824.597046 652.703003 8.308043
-1011.849731 674.188354 343.494995
-1034.114502 1092.591919 -78.311348
-1021.187134 1193.934326 -9.947917
-1065.202515 942.580750 -269.114655
-892.267029 718.723694 206.225815
-814.560852 590.216003 533.027832
-1123.582764 885.733032 41.998505
-1292.105103 867.439575 -35.188492
-876.972595 682.863831 467.253296
-782.554504 737.875671 488.090454
-1060.685303 1041.400024 -146.173798
-1306.865356 894.841125 82.565918
-1284.897705 1202.918335 403.891388
-1131.537720 1058.480225 -16.901831
-1136.747681 987.640503 -91.548241
-953.835022 576.090759 448.142700
-807.937195 486.577118 579.555725
-754.935608 567.831177 580.649109
-873.868286 498.245026 515.401733
-771.194031 736.822754 492.340240
-1069.375244 974.431030 -202.115265
-1275.439575 821.937378 -13.577535
-746.370483 729.249878 510.126312
-1255.796631 875.380432 -27.313675
-1264.943726 780.802551 -91.821495
-1056.435669 1084.228027 -122.159271
-1233.236084 1116.527954 191.724930
-759.060059 717.998474 507.653625
-944.044250 640.197266 213.801529
-1061.400024 1133.637207 30.324394
-793.504456 704.514160 496.411011
-1060.728516 936.582153 -265.341675
-1289.400024 849.785889 -18.788252
-815.267334 590.629578 526.251709
-815.543457 550.728577 543.624512
-1189.704834 1077.950073 207.998962
-1227.843750 1100.761353 303.266907
-730.036865 646.014771 553.008362
-1055.456543 1139.205322 12.437647
-751.716736 773.278870 484.407440
-791.440613 708.499329 479.910797
-937.483643 580.785034 452.952240
-1406.912720 835.287781 88.339912
-889.412292 725.498657 219.370789
-779.486206 701.897339 55.366535
-1224.159058 1091.973267 302.861694
-821.935059 621.850342 511.866882
-1048.834106 919.034973 -163.368271
-1226.302246 1061.644897 127.764015
-818.364014 467.430878 596.237244
-902.477112 511.603943 498.991302
-807.298523 687.628601 57.770924
-1084.003296 955.076294 -162.921768
-1085.416504 912.072876 -252.034302
-833.706970 614.465393 -26.275635
-1032.121094 1100.208130 -118.190277
-906.978271 612.840881 139.464157
-1171.197754 910.154663 -130.117813
-1005.821777 1089.970215 -120.737297
-823.812439 735.751099 158.029129
-734.646729 816.362976 75.849625
-1333.057251 873.281189 135.807770
-1039.362671 990.965332 -253.794022
-1252.478027 1080.133667 176.079773
-1097.948975 937.740234 -109.037567
-784.896912 573.806274 558.228149
-1212.894409 1013.858948 57.405693
-1026.931030 1169.937988 -23.630606
-1059.071777 1031.665405 -176.175598
-725.838257 814.845581 63.395477
-834.195129 630.825500 78.351807
-844.538879 528.140625 537.987793
-1234.161743 897.361877 74.514076
-1234.998291 931.481262 -5.991443
-1216.624268 874.704834 -114.692894
-757.634521 778.992371 505.925323
-1029.448608 1119.790039 -57.417286
-827.881409 672.883423 14.818330
-796.423645 791.575623 223.910583
-912.451660 486.321655 495.197968
-1294.517822 766.710632 -70.830254
-971.712585 548.215210 162.398163
-714.151855 695.761047 545.675049
-1023.566650 583.492798 291.007782
-1019.975403 1142.956299 -93.160728
-750.296387 804.136353 170.039047
-1246.824829 914.283203 92.020966
-867.941711 688.348694 454.962585
-1131.175903 907.930481 -46.713623
-806.043152 510.653687 567.674377
-1291.350342 866.634338 32.928474
-1304.839478 728.567078 -94.098953
-733.574219 808.635376 111.720215
-732.936584 830.051270 126.573265
-1342.017090 881.081665 129.726273
-1072.086670 1174.842773 82.367989
-710.408325 625.817078 578.227600
-1203.209595 887.932678 -92.683655
-897.752319 564.122437 36.909824
-1267.409546 1167.975830 314.501221
-848.451660 572.350830 504.680664
-922.328796 616.043579 111.949905
-1202.996582 864.307007 -151.122681
-814.480347 775.115356 227.879517
-741.031616 820.456299 59.286118
-1124.982422 943.798279 60.664387
-871.488098 733.778320 228.783081
-1369.133301 874.468567 97.371368
-874.894226 680.925659 165.058411
-1133.250244 835.602173 -256.796265
-1012.083923 1201.025513 -22.311096
-762.148254 736.266418 62.259033
-909.406433 555.000488 28.838711
-734.276062 737.445129 515.769592
-843.151184 739.399597 201.982224
-1119.575928 1059.037964 109.031624
-930.873291 690.383850 438.200104
-904.329773 645.958557 133.742569
-1266.349854 912.807556 163.431137
-902.580566 709.717346 208.634308
-761.567444 754.856812 68.656143
-1354.292114 743.701599 -68.257431
-1347.645996 716.742126 -87.032799
-774.090942 740.514038 22.259531
-1030.838867 1003.198608 -221.175064
-747.629578 776.851135 119.732613
-845.165527 850.926025 340.690094
-752.081543 753.779541 511.403809
-838.054077 647.584961 76.317841
-770.286804 635.564453 533.185791
-960.719055 587.999084 432.056549
-932.458862 484.494446 485.999573
-757.151062 769.228210 95.057739
-862.822266 617.282166 491.235840
-932.002258 602.118652 150.520599
-1290.224976 1169.718140 391.023621
-896.710083 692.505310 180.116791
-884.921326 615.544006 460.313873
-1087.094360 1023.158691 -126.997910
-862.843079 618.546326 491.822388
-712.959473 683.722534 549.780701
-995.747498 614.512695 201.589508
-1185.692993 1141.950562 160.483780
-1066.253784 1002.565674 -191.247345
-1035.851318 1026.591309 -203.669403
-1221.072632 1127.031860 231.009781
-1141.605835 986.226196 -62.268436
-930.707336 743.550415 321.990143
-1070.890503 1151.867920 60.455238
-1119.758301 1055.728027 -63.298691
-1307.168335 1156.541260 408.858093
-1141.564331 1055.005249 12.988898
-1335.784912 886.186646 175.158005
-1326.921021 788.144531 14.371322
-974.064758 573.038147 172.972656
-792.097351 717.653564 487.961304
-1177.453125 892.291199 -143.612839
-1118.972412 1092.112183 56.776196
-1199.746948 1009.007141 39.388126
-870.908142 568.971130 492.252716
-779.167786 717.194641 35.811058
-762.502075 489.868439 610.064026
-1047.009888 1070.147583 -121.598640
-1199.773560 1082.331177 187.288956
-1179.656372 1119.591553 164.364822
-757.625061 570.738647 589.322144
-843.993896 627.793457 18.774097
-969.124207 612.772888 245.172821
-1109.396484 1034.414917 43.040154
-1242.020142 1019.364807 226.941406
-873.587280 525.229858 515.192932
-775.581482 529.387146 578.329590
-935.622375 641.425537 440.987793
-868.524658 720.409424 427.341980
-1064.181885 946.201843 -210.042862
-829.234314 620.005371 513.788452
-912.501831 472.330658 505.694672
-898.043213 806.822021 351.754883
-1077.065430 944.828857 -201.362869
-1242.356201 1058.770020 129.808685
-755.133911 823.669128 173.318863
-1035.275269 982.575134 -249.662643
-902.454651 592.304871 60.350384
-723.867004 859.319702 152.737701
-1276.251587 761.680420 -132.447235
-886.606873 690.373352 443.515106
-1068.774170 918.492859 -239.974548
-824.991699 701.061768 119.213020
-825.658386 717.146606 472.468781
-1180.921997 935.526489 -93.962929
-1006.305603 1250.251831 55.742313
-886.202332 604.655457 488.862427
-928.737366 541.822021 95.372139
-800.859009 794.300659 220.695129
-945.492737 637.784546 211.505188
-909.426392 375.048859 242.531250
-1249.292236 916.451660 47.262970
-1116.455444 902.063660 -180.777954
-855.684692 782.438843 271.558990
-859.550842 519.774414 537.346863
-1080.036865 973.484741 -183.671402
-1219.879883 1111.902954 230.136078
-784.668762 518.179504 603.006287
-782.729004 706.776367 496.544861
-1199.058838 905.920593 -96.747330
-1203.380981 917.432068 38.750561
-744.738525 821.680115 160.266327
-789.879639 494.580902 597.093262
-1176.992798 830.184326 -223.725906
-700.932861 631.576599 612.507629
-790.827271 781.702637 450.379120
-1319.129517 1065.164185 305.335968
-746.956360 728.745728 510.473785
-1174.094604 864.417053 -182.011627
-786.330933 785.197449 145.843140
-1041.936523 978.585144 -246.220383
-951.383972 625.203552 440.560120
-1314.501465 773.507690 -82.817207
-1065.386353 1192.248779 82.006134
-744.773865 625.965759 555.600464
-1095.738159 1105.688965 -29.516724
-1016.391479 1186.705933 -27.593395
-1172.548462 1012.537781 136.121368
-845.268494 673.943542 125.573341
-1266.335205 815.675903 -116.384842
-1009.276245 667.636292 316.623322
-1164.611206 1046.175903 52.926140
-1032.600586 1119.104980 74.416893
-735.694458 716.974548 509.184143
-1300.203125 767.697937 -115.479294
-1049.746338 972.982300 -232.161896
-1200.733398 931.911926 -2.452000
-1000.322388 1127.326050 -90.605515
-961.092224 643.384033 222.587524
-1077.535522 1123.117676 -38.897915
-853.902344 661.701538 462.967072
-738.860352 706.713867 521.408081
-1082.654297 1085.542847 -15.944102
-1186.865845 1143.855103 169.374588
-802.856506 665.694519 64.814079
-827.124207 537.685364 567.592102
-835.392761 729.509460 197.298782
-842.048889 585.935608 517.846375
-1103.308472 934.745361 -158.310318
-944.341919 509.572662 469.149872
-1025.426880 606.372742 248.103821
-993.621887 659.765686 341.845337
-1091.735352 930.349670 -200.846283
-1008.347046 1247.368286 17.221149
-782.767883 750.688477 125.669983
-1002.013672 1115.864624 -128.382050
-809.764893 710.039734 482.692871
-747.200500 859.213745 204.050171
-871.210449 459.588562 547.094910
-867.799255 602.491638 495.348206
-1141.951660 1063.743164 -17.113049
-1244.663086 815.357849 -147.556854
-814.043396 663.707458 21.596228
-1044.669678 1100.533447 -88.561584
-739.358643 809.415405 130.086472
-980.968323 580.863159 163.917908
-914.218994 606.918335 137.877289
-880.642700 729.354248 193.004791
-1150.393311 976.586304 -61.813404
-954.744385 655.039368 275.332031
-1022.320618 1158.990356 -56.002968
-1247.752930 908.884583 76.387009
-1199.237671 1141.156494 227.829453
-980.226257 558.187134 436.207581
-938.765137 660.911316 443.627960
-1079.946899 928.297546 -172.188583
-869.950256 619.475403 4.103454
-757.436768 764.823059 102.895332
-761.514954 580.799561 560.007996
-694.433105 662.180969 568.025635
-791.793030 686.193665 58.732727
-1080.459595 1134.013916 2.562265
-1163.214355 1106.740967 138.435242
-1094.153809 921.932007 -82.262642
-752.019104 800.736023 104.311516
-1043.028687 1127.050903 -53.241764
-848.091858 617.071655 38.740078
-1356.819092 882.624207 91.449745
-1014.584106 687.225464 359.376862
-921.226990 687.025513 241.777969
-743.683105 753.659973 58.777798
-724.298584 623.919373 567.631531
-855.029663 516.951721 520.198730
-1016.639221 1161.422852 6.554112
-943.078003 580.110474 148.937378
-718.801453 844.288635 78.584076
-919.229919 572.682190 135.023926
-1023.824585 1165.855957 -57.187092
-1102.022339 912.858521 -182.123108
-1237.309326 1054.422607 174.361435
-785.696167 664.361938 -17.052090
-757.358398 743.896179 32.557400
-1078.656860 1074.877808 87.753044
-986.655396 649.478882 270.249695
-1176.750977 1134.394897 183.812622
-902.207397 582.398621 56.650421
-918.271790 396.099579 195.927353
-844.572693 589.803040 519.178772
-746.601685 714.549561 504.729004
-903.222961 649.160156 126.793274
-865.941956 470.129852 544.689941
-1197.495728 1139.813232 174.096344
-1134.037964 852.028564 -227.817169
-836.573486 839.304993 321.648987
-1087.001099 928.848572 -254.737000
-955.442871 702.158142 272.369171
-828.071472 653.873901 17.983988
-1163.767090 1002.802979 -27.642282
-1231.892822 771.658203 -181.129578
-664.657715 801.231079 212.625519
-1009.705383 1141.961792 -112.232033
-761.941040 765.201721 489.060547
-946.439209 584.860046 459.126831
-1381.047607 936.051270 143.117310
-847.156921 788.883850 264.894501
-745.885132 792.803223 56.260578
-1363.923462 737.853394 -63.837582
-1131.126343 884.739197 106.235626
-723.577576 552.918457 615.589233
-753.892578 864.628662 184.321014
-1031.307129 983.311890 -245.665176
-1260.377808 888.502441 8.461455
-1287.110474 828.709656 -40.338909
-713.541931 593.198486 595.920166
-1274.828003 778.731995 -115.080338
-878.520203 574.546814 -4.222289
-1268.805664 913.646545 17.590988
-785.596497 710.399536 43.673351
-865.984985 675.514709 477.899384
-799.941101 684.297546 -13.434782
-814.805298 797.848816 214.394501
-876.513977 646.738281 452.744385
-756.242737 753.405151 6.406725
-1122.331299 892.703064 -188.506409
-806.093323 720.614807 489.214691
-859.512146 591.759094 506.471558
-840.041748 657.644653 119.647598
-854.267822 648.446533 477.782898
-786.961548 819.446777 222.064087
-1267.733887 855.402893 -85.494629
-776.754761 705.751831 69.984314
-1089.636230 1127.633789 93.048721
-749.509460 870.812134 234.989929
-1029.445557 1228.919678 63.600029
-747.750122 809.830261 131.291580
-1096.980957 876.668762 -276.484497
-1001.114563 607.938293 246.858627
-904.096985 773.745850 323.563416
-758.014465 556.947815 580.564697
-848.491150 726.902405 439.587067
-852.801025 619.090393 510.794525
-1282.146851 821.178711 -18.101088
-1318.133301 773.487061 -61.284081
-705.171265 573.627014 604.147949
-963.582214 535.430176 112.604202
-775.443604 759.487061 17.133759
-1353.029053 875.447083 153.565186
-871.938782 814.321594 302.036255
-1113.045532 992.108215 -116.322952
-1188.521851 838.520142 -206.545700
-1072.417358 1040.972046 -143.067307
-1059.435791 1164.428223 9.337946
-1097.744873 1178.746338 128.601120
-1257.175903 1000.142151 171.132111
-1129.678955 938.721497 -60.125824
-755.941895 694.572327 530.343018
-867.036560 624.241089 498.396759
-1137.633667 1053.655640 -6.726379
-751.255005 754.514954 39.550026
-1176.840576 902.235535 -87.533829
-909.315369 525.824768 504.246277
-748.808533 857.984497 187.682541
-744.986206 763.738098 66.264091
-976.158203 547.184204 434.433075
-850.269714 620.696350 15.566199
-1155.921265 1137.381470 252.861252
-974.405945 724.298035 331.367340
-905.880371 603.681580 115.285263
-715.631714 704.454895 543.192993
-744.339233 770.705933 19.044456
-862.853027 701.586609 454.889008
-1085.135620 929.005798 -268.767273
-1054.286743 982.200623 -191.605774
-877.034546 759.535583 274.723328
-832.041992 436.047638 586.336792
-1251.787354 885.530945 -49.535107
-763.265442 739.172974 97.062149
-1061.598022 1003.896118 -150.430603
-850.715759 749.093994 238.491302
-1060.166992 822.800659 40.635857
-958.960510 612.561279 229.719254
-803.539368 805.061462 239.004501
-850.675598 561.315186 516.037292
-1040.551758 1031.330322 -189.377853
-810.300171 672.763855 16.734129
-800.157532 541.065857 556.350708
-871.073425 775.003357 257.621490
-870.319092 625.208008 -16.164150
-957.343018 609.250854 165.749817
-986.915894 554.625305 210.212952
-848.367554 506.634521 534.708496
-816.167542 610.956848 521.694336
-843.946228 539.325989 543.960510
-1044.498657 999.566345 -216.995163
-870.553345 554.184387 515.531189
-1091.352417 916.474182 -263.735535
-725.186768 700.060486 535.349731
-893.308533 774.690796 263.517334
-773.165894 852.599365 242.230606
-1155.984985 985.172424 -71.110504
-890.814758 626.118164 455.481812
-830.201233 625.189453 35.211376
-1047.467651 1136.769775 -61.170372
-1071.721436 1126.609985 78.942909
-1242.916992 852.873413 -129.762497
-830.547974 670.118103 126.051559
-759.253235 760.693298 21.354488
-774.828796 728.222778 14.327635
-1019.573730 1040.844604 -193.397415
-1217.729858 925.164856 -45.573978
-837.198486 627.935852 5.131308
-1035.904663 977.585205 -254.701859
-700.391357 577.864624 607.463684
-731.998291 560.582825 598.912109
-735.193970 833.812500 190.877853
-1040.477417 970.247070 -250.111008
-1039.571045 1165.084717 29.699030
-848.082458 548.196106 514.203491
-745.418762 789.826111 40.292313
-995.955994 603.269592 228.261703
-871.678894 590.982666 76.765633
-1278.672729 881.716248 6.380025
-1108.809448 928.474731 -97.964691
-1225.002686 889.133728 -29.971863
-865.519348 485.684143 545.326355
-1326.521973 749.852539 -82.604324
-783.881287 624.834412 530.604187
-946.545837 720.164246 338.260437
-868.492004 430.619934 562.424500
-934.854675 509.890289 483.583557
-857.923340 615.425476 38.858845
-1086.015991 984.312622 -171.515717
-765.800537 780.793701 22.156755
-800.934082 669.333435 50.744133
-1032.564941 1162.545776 -25.607424
-1025.368652 619.000793 243.767807
-1408.420532 826.266907 82.807007
-932.736694 593.027649 118.365471
-777.550110 735.499268 -4.419829
-743.557068 617.076538 568.688232
-1153.640503 992.397888 -11.713252
-850.413147 863.092468 346.900726
-895.542664 465.634583 521.278381
-854.376343 632.704102 97.995628
-922.226318 545.470459 64.221893
-762.149597 508.176392 610.160889
-868.479553 621.416321 36.085190
-879.662964 671.935791 469.137817
-1369.422974 750.063599 -66.491028
-864.424133 492.017639 534.489136
-1142.900513 1110.533936 114.666199
-1059.950439 1133.054810 -7.649416
-1100.200073 1130.393188 58.543884
-740.024475 787.105225 103.896843
-735.935791 609.233337 565.351563
-1009.280151 825.971436 -4.529327
-1099.209595 1061.736938 60.246975
-988.651001 596.767212 217.853516
-1057.253662 950.796387 -147.097977
-846.709839 625.967590 503.641937
-852.094238 516.404297 530.076172
-811.300903 593.171387 541.667725
-936.671326 704.140808 287.269897
-808.176147 699.314819 478.931305
-1078.923096 923.067505 -154.171677
-1072.129150 1005.099670 -180.852905
-841.283081 679.492859 112.989479
-714.784485 836.975647 156.111160
-1074.195068 1083.076538 -34.744442
-878.845398 530.339233 540.877075
-1055.818970 1136.516968 -51.573814
-830.139893 675.721252 471.947174
-1011.001099 1067.473511 -140.899261
-879.484558 594.320313 21.766529
-1181.164673 885.540833 -126.932549
-1096.505737 927.891174 -163.817276
-1293.072388 799.010376 -16.120842
-738.103638 772.810425 42.569599
-779.692139 731.707031 12.250829
-1129.194336 1056.323486 -4.434396
-1108.770508 893.215515 23.728994
-865.614746 735.840759 244.614120
-891.270569 611.664246 115.197189
-790.869141 700.275024 34.646191
-896.820251 606.328796 484.965118
-975.932190 596.735901 200.659973
-869.424072 579.925842 58.759544
-1035.777100 1209.942749 42.483067
-759.566406 855.495483 305.034485
-1007.939392 585.115540 271.225128
-1244.309570 808.206726 -1.351363
-1214.651367 1184.782715 307.488617
-1153.662598 902.322327 -161.933502
-975.984985 732.858948 345.115692
-942.415527 525.992310 46.714218
-848.360901 671.112854 144.552002
-1148.654541 1069.669067 28.237400
-1228.588379 935.282471 10.141975
-1161.854370 1047.819824 16.418295
-1036.146606 1130.847046 46.486271
-1197.385986 1038.760010 56.719067
-770.322144 741.569946 58.113064
-774.925110 627.487366 527.470520
-1101.566406 1121.193115 29.734903
-1161.476929 840.913757 -231.100739
-1169.222168 1099.582642 123.317589
-999.834595 1085.026367 -163.447479
-1263.056396 876.549377 -31.112463
-1035.243286 957.653625 -249.128159
-1008.222961 681.191101 350.945160
-836.156738 763.810425 436.993805
-912.961609 747.678528 290.111298
-879.629883 612.583008 47.652531
-960.291077 718.042175 297.406006
-1006.625610 621.363220 279.791992
-1137.561523 911.404602 33.669243
-1213.874512 829.634399 -170.382858
-759.211182 746.192200 494.837189
-1394.430908 817.045898 63.752960
-1101.423340 1086.689209 -26.205627
-852.632813 712.809265 466.014771
-746.968628 858.089661 150.481689
-1165.030640 919.984741 -141.471741
-941.210815 686.378296 294.502136
-1089.259277 1169.651367 71.868660
-851.242310 592.137573 9.270276
-1258.205078 1166.527344 336.155762
-785.524536 672.429871 513.312927
-1272.485596 860.973511 -47.955833
-1248.854614 1046.312500 202.010986
-1075.685547 897.393188 -102.574226
-1120.765991 990.844543 -85.266220
-1046.255249 1202.420044 65.794937
-1057.668335 974.285095 -172.861450
-798.520325 695.518066 4.155639
-1136.284668 1042.798828 -55.971752
-1213.781128 837.263794 -158.358932
-1116.321289 1110.314697 24.258673
-880.103210 649.115356 95.755280
-781.600098 826.669067 208.620758
-1076.495361 1112.132813 -39.433128
-795.215576 510.443268 573.887390
-973.934204 527.029480 134.362961
-895.935120 560.451477 477.001556
-1059.785278 1040.811523 -120.461685
-882.568359 597.757935 483.010681
-1115.574097 1034.647217 -35.903889
-881.745239 596.405762 41.711643
-1147.661255 1022.635986 -26.009924
-998.198120 521.331543 131.445221
-1132.415649 1091.988892 122.561684
-715.524719 621.687805 573.461670
-838.468689 667.154724 56.412109
-1033.550049 1069.505981 -161.079071
-845.196472 754.985840 206.907486
-1167.707886 1022.585266 -41.647984
-997.924683 1084.302002 -149.729034
-1163.814575 888.217529 -87.722595
-1229.915894 881.214417 -15.992375
-1130.142822 988.040344 52.303181
-704.020569 641.663879 584.454895
-1234.204590 872.293396 -88.635849
-940.874756 647.296753 437.357147
-1248.230835 900.171082 86.618713
-1094.693970 1052.736084 -92.596344
-822.419983 848.201904 275.844086
-820.631287 659.782837 53.956921
-947.831726 764.199158 362.589783
-862.541687 524.016785 535.237915
-861.316650 611.401001 483.580627
-1029.661621 989.324768 -241.073166
-1020.031250 1131.494507 68.137863
-920.498901 536.396729 42.807831
-1119.473511 1088.457520 3.757222
-931.302368 670.285950 230.577362
-860.345398 601.631287 503.975006
-1047.514526 964.416870 -221.628922
-1021.365356 1074.510132 -150.768982
-859.914124 695.386169 175.593658
-1047.388550 1157.074463 -29.133123
-1289.515381 760.928345 -87.930038
-1238.101440 732.501160 -33.157967
-1117.358643 950.585327 -122.376656
-1048.781616 930.637085 -279.728577
-1173.392212 967.401917 58.961300
-1348.647705 741.668274 -80.012146
-874.276001 543.786499 516.704041
-811.675476 812.298889 440.779694
-1057.986816 582.716675 283.705627
-1128.632935 1056.612549 -47.997776
-736.305298 801.049316 77.439003
-874.386292 610.172729 472.136627
-749.668274 740.283813 52.573219
-779.022705 506.447266 589.454834
-1019.720398 1193.419434 -5.969438
-774.200195 797.628235 148.966965
-1039.930054 1197.992676 51.155205
-808.036499 685.010315 479.398010
-1299.677246 850.559326 -33.367962
-1038.854248 1043.786133 -164.211884
-1189.670288 1109.153809 115.354134
-1096.708618 1025.695435 -106.697136
-1086.503174 1010.626709 -149.259537
-866.305298 626.170166 40.692852
-762.430298 841.465332 181.071655
-1252.851685 828.918457 -84.082787
-880.175659 543.833862 493.077026
-1157.129150 828.074036 -223.123993
-876.430176 601.984924 43.790524
-1221.127808 890.851746 -138.735703
-1269.178467 896.464722 -10.227161
-825.059265 574.944702 532.931030
-801.826843 684.143921 486.600067
-1156.928467 880.969727 -189.908127
-857.673157 744.143738 200.292221
-853.075134 524.574585 540.732910
-1136.735596 916.328674 -197.892853
-842.651917 742.160095 189.996613
-776.467529 769.445923 130.738800
-1043.324341 1170.772339 39.025803
-735.421448 611.763733 564.242310
-880.250549 599.941101 -10.774504
-1008.699402 621.675842 316.481873
-751.570984 761.476379 102.023308
-849.571045 613.696411 493.604156
-851.597595 752.832092 237.710266
-820.205688 484.115021 589.963562
-695.567627 635.423157 589.607605
-725.627441 857.241699 197.005569
-1136.268799 932.382324 -96.085030
-847.490234 751.350403 454.991608
-725.193726 715.438904 524.343872
-1232.677246 1093.112671 233.134216
-723.997803 737.570984 528.123474
-1342.482910 1122.368530 350.789246
-738.019165 846.365479 116.325508
-1147.639404 1053.931763 13.578233
-682.590637 618.087708 619.173828
-918.053528 556.119019 100.320206
-1000.132385 1195.846436 21.141354
-1039.096436 998.622009 -225.820496
-901.654602 829.584351 351.802948
-1068.774048 1124.558472 -6.400074
-810.293274 731.364624 134.190765
-794.310608 595.023560 542.868530
-910.543396 570.761597 71.420425
-745.549805 562.173767 591.900330
-1221.055908 834.073792 -132.318115
-1377.911133 850.805664 93.010605
-727.489563 599.160034 649.345093
-625.544861 789.357422 243.740631
-803.710510 708.794739 483.926514
-1037.977295 962.707825 -269.809082
-934.124756 641.757629 447.331146
-916.429688 649.380676 194.548798
-893.569824 634.283447 148.926346
-991.940674 669.310730 275.895752
-730.946777 795.259155 65.023949
-901.623840 668.057434 147.373795
-1201.135376 906.188232 -92.652908
-1278.075195 907.469604 176.547394
-796.908569 494.927216 634.444031
-965.138367 559.930359 182.035736
-739.940552 780.601807 106.438187
-886.506531 621.756592 66.104065
-1163.454102 1104.516357 126.703827
-990.175537 636.770935 306.245209
-855.679016 593.633362 52.350731
-726.812073 794.888367 78.236938
-1217.285767 930.285522 18.746872
-958.369690 717.637878 325.640106
-884.112976 743.447754 233.706329
-1004.936279 612.993591 269.681091
-894.552368 613.114624 469.660339
-743.373291 778.793457 496.636841
-947.254700 715.846008 307.901428
-1298.782593 794.234680 -71.068596
-1280.600098 797.321106 -94.956093
-815.529053 605.853516 530.172485
-959.061768 653.651672 256.176086
-1259.789917 806.574219 -136.224854
-810.072937 735.676147 469.382751
-1365.864624 867.141174 88.255791
-916.375854 393.540558 203.524307
-873.875122 473.573761 520.067383
-1301.588013 800.576904 -50.039593
-1040.119507 1136.569580 58.892448
-1034.352661 1000.824036 -222.635254
-822.271790 554.087036 543.624695
-794.328125 758.717102 171.474777
-914.613342 384.292664 273.736084
-867.675537 517.257874 530.101685
-916.996582 475.396393 508.662354
-898.720703 495.752960 505.966034
-941.688171 632.351440 228.691956
-701.002625 732.180481 523.766907
-1050.438965 1230.472412 72.932655
-1323.693481 1106.172363 379.636597
-911.377136 790.367615 324.238403
-1260.045898 894.330688 14.651299
-1113.115112 933.697937 -179.858673
-747.243530 764.039673 97.416145
-859.203674 608.756104 494.866577
-764.007568 558.970459 610.417603
-860.300903 792.032654 307.443573
-611.463745 779.671326 294.316101
-771.725586 554.909302 590.143311
-1130.394897 989.321899 -74.695198
-1113.533936 988.444092 -99.750435
-1221.548462 925.444153 -45.736385
-1186.801636 1043.852905 44.918514
-857.993103 749.583557 249.246902
-763.944824 588.319763 563.731628
-1231.769897 844.441711 -99.102432
-866.304688 485.716278 546.399780
-746.510437 772.145569 112.639870
-960.165527 750.660583 370.175781
-933.204895 610.988831 139.534760
-1140.941772 1057.460083 -27.367905
-740.846680 647.604858 549.935913
-1131.003784 889.260376 -253.041595
-1299.387329 904.618652 92.297615
-839.169800 568.716309 521.241943
-708.052429 645.847778 564.235718
-863.648132 590.389893 6.118878
-1159.089966 870.316406 -197.839432
-1070.199829 1089.118774 87.194199
-778.468872 526.389832 579.973877
-790.381775 729.483521 11.832186
-1252.101318 815.494141 -137.309036
-1294.707886 893.170044 150.024734
-1026.857422 1144.083984 -53.504848
-859.789734 851.091614 331.252228
-965.302795 578.213806 175.880478
-752.205750 562.288635 577.345764
-1251.434326 914.393799 23.699745
-925.724854 592.687927 459.348846
-1024.866455 1079.289063 -142.523834
-788.850769 718.519958 97.042068
-854.064880 644.103577 72.686150
-1091.247559 1099.808228 70.463821
-839.136292 624.440552 34.698910
-852.089905 789.859131 262.102020
-784.623596 671.928772 517.017700
-916.390625 570.238525 91.753014
-789.693298 693.988281 32.009659
-1105.402466 910.853516 -164.247192
-1046.257202 1170.908447 27.727783
-942.689880 541.164368 460.150696
-1144.983154 1058.801636 14.770425
-1110.217041 1059.704102 -62.254837
-1063.727173 907.416870 -260.702545
-1018.949829 1122.203247 -120.091644
-1127.790283 859.389099 -251.743683
-1030.307983 872.834167 -55.153423
-758.402222 730.136902 63.637589
-1211.126099 1119.310059 177.176987
-920.542236 548.854736 73.377357
-776.606018 707.289124 16.396915
-702.289429 651.811035 565.751465
-731.789246 756.677979 514.784302
-1185.440918 911.983032 -21.380688
-1145.564575 873.259949 -209.695923
-997.505371 1186.676270 -35.860588
-956.167786 736.973572 353.677917
-1139.033569 1028.201904 -47.072235
-757.873779 797.804626 144.448074
-737.218628 809.771423 87.595894
-959.591248 714.675049 296.068512
-1179.804199 893.722168 -49.922070
-1115.109375 904.679810 50.314095
-874.740173 647.085571 150.763519
-813.262451 826.128784 260.680237
-1051.747925 1228.953613 140.224030
-1329.030029 857.745972 129.423523
-751.114014 769.767273 115.362587
-779.102539 646.030579 530.060181
-768.629211 613.519836 547.495850
-912.941956 641.751892 140.705338
-1029.972656 1189.547241 27.004047
-882.868286 694.144714 219.995560
-1278.305542 769.594788 -150.408157
-1058.080322 1128.132080 -32.402485
-726.026428 675.404419 544.923889
-1110.956787 875.322876 -232.361877
-987.591614 654.916931 234.719940
-798.418396 679.406494 514.151184
-858.550964 722.157349 197.709396
-1139.847168 1028.787720 56.044079
-808.007019 761.911621 461.491394
-937.945740 771.797546 357.510559
-743.430176 596.691406 571.646301
-880.033813 696.082397 445.558624
-923.609802 602.358887 151.495407
-1250.302124 894.867310 -82.748825
-787.008667 726.902649 487.324036
-1102.301880 911.452332 -236.478668
-740.224670 571.860962 615.408875
-740.996582 737.436707 523.520081
-982.038208 640.666443 297.087463
-785.857117 651.258850 515.162537
-1132.928833 887.484741 -191.631561
-1148.018799 859.065308 -231.983856
-843.257568 703.762268 179.574203
-1004.210938 589.288635 241.478317
-708.007263 583.303772 596.406616
-1235.623901 930.936462 -18.693199
-875.145447 647.472839 92.162476
-865.692932 560.079773 512.441345
-1305.723145 1148.536865 355.983521
-841.872681 604.610291 -12.486609
-1090.155029 1105.762695 34.003948
-942.715637 680.531677 266.913330
-929.899780 537.810364 60.787037
-816.473083 758.401489 196.269226
-882.322632 622.508606 -11.421755
-950.882996 617.593933 186.165222
-1253.174072 849.452454 -52.626129
-1049.119751 642.780334 340.470123
-1037.814209 1207.828003 53.010406
-858.169983 820.917175 322.248871
-928.015564 512.801025 65.702721
-1363.343628 729.034912 -50.039253
-960.675110 568.081604 442.677917
-776.489319 840.567322 232.529800
-1160.551392 987.247498 -33.033058
-1074.865112 1021.787415 -142.354202
-1194.127319 1121.392090 192.950363
-807.084473 781.434143 198.834610
-715.670898 732.609558 543.857727
-1184.282959 1076.391724 243.733566
-1119.337646 866.006653 -258.378204
-951.248840 582.635803 437.798340
-746.561523 869.988220 221.180954
-888.328308 619.435608 471.385406
-806.720154 823.403625 223.096786
-800.834412 653.353638 499.751648
-844.530029 624.606689 35.881187
-788.281799 723.290161 88.418419
-1127.666016 999.065308 -97.277382
-1068.762695 932.490051 -225.646774
-1230.967529 949.407776 30.891987
-1046.802612 1093.402832 -70.335976
-848.042969 644.263916 114.890915
-664.818665 836.011108 241.809921
-838.374512 524.416870 544.584534
-870.427673 638.662354 477.105774
-872.119080 597.514221 40.851818
-943.385132 583.390930 158.092636
-861.702637 692.558472 468.848358
-783.748291 752.582397 121.055595
-832.068542 737.231201 189.022461
-769.104492 742.318115 30.873047
-786.496216 693.206970 31.104481
-905.230774 697.280151 258.596771
-926.002258 473.855682 495.402985
-1113.179321 901.880310 -176.886429
-1270.404541 1145.949219 340.815979
-851.909180 513.205322 540.884155
-1299.084229 785.808350 -80.294083
-1001.345764 621.023132 303.159363
-876.387390 652.565125 164.049957
-1187.190918 1035.366699 135.793198
-921.176270 772.878174 368.730164
-737.535034 596.681274 606.298401
-1064.062012 991.932068 -203.908112
-734.994446 628.325745 556.763672
-1010.436035 1124.318970 -79.545540
-751.883850 625.068604 547.734863
-1052.716675 1109.532227 -29.082640
-1411.241211 879.785156 160.887482
-811.012329 662.733154 77.982002
-1088.738037 905.239685 -101.857224
-739.108154 761.106262 499.183136
-1147.900024 876.238159 -217.589310
-924.335022 717.614014 234.116409
-768.415894 814.268066 161.822128
-1305.583496 776.454590 -124.825890
-1059.157104 982.179199 -159.481079
-724.929138 784.097168 474.690521
-803.613831 768.220703 180.128891
-944.975281 703.772583 323.607330
-1223.193726 1152.441772 282.713684
-1069.457031 1135.044800 -25.962858
-961.336670 549.995300 133.519241
-775.996094 671.281921 514.765503
-1167.954102 1110.470215 274.941925
-586.916138 792.729370 230.936661
-833.054260 740.478760 447.792053
-1152.303223 901.457520 -149.414490
-1257.923706 1046.477661 168.777115
-1014.622498 1137.640625 -103.088310
-754.273743 735.513794 49.128971
-742.153992 855.131104 191.064560
-765.454407 809.696899 465.197723
-1045.879883 923.270081 -275.135834
-1242.543579 1095.795288 244.864899
-737.556641 571.222900 605.033813
-1099.273682 1011.369385 -122.588623
-887.663452 560.831299 487.327240
-1056.831543 1083.573242 -88.672768
-737.855652 835.783569 92.078773
-797.234985 831.429993 220.684494
-812.465332 812.985596 203.220108
-1083.626587 1064.186035 -79.594467
-974.168335 525.086609 115.010231
-1045.216064 957.373474 -258.272064
-1272.123413 802.647949 -140.712585
-1029.588257 646.490234 342.188080
-1309.087158 779.300659 9.539674
-970.633484 512.645325 456.397003
-825.928406 628.703735 506.428986
-1299.377319 757.295776 -105.931374
-1250.316162 845.442383 0.169516
-1205.740479 1068.524048 187.808594
-1042.311890 1149.942017 -48.669163
-885.891235 519.821106 505.869080
-1191.634033 858.202026 -175.899445
-717.608215 814.992920 44.896343
-1081.637085 1150.402100 37.137375
-752.530945 530.433533 601.088440
-1192.724731 886.654602 -181.129929
-1045.522095 1099.677856 -104.719810
-945.775452 569.577209 460.470306
-1081.412231 940.043579 -192.611710
-755.870605 759.756653 29.986687
-1005.775940 1083.011108 -160.631241
-1065.314087 968.867004 -233.690964
-929.928589 613.963501 453.870880
-1129.985352 1054.112671 75.478088
-1083.399048 913.600464 -218.112854
-784.663696 775.653870 166.951080
-880.264648 666.243591 182.645157
-858.417358 706.231812 461.850433
-920.357117 590.731995 89.677750
-1023.410767 902.661255 -52.438377
-889.159912 515.816162 521.639465
-909.593384 575.077271 76.353836
-1158.294434 821.725220 -235.505890
-885.571411 693.668640 207.056686
-956.180481 614.161804 440.206451
-1072.661377 959.235718 -203.933090
-943.957642 765.305237 366.178558
-1205.878296 1139.813354 172.773453
-888.513367 471.798157 521.542725
-852.291504 803.259766 256.652344
-1028.472656 1171.330444 -47.442123
-934.380554 705.319885 268.964722
-734.410278 840.228333 142.973526
