ply
format ascii 1.0
element vertex 1350
property float x
property float y
property float z
end_header
754.914917 -617.400696 -594.613647
897.434875 -535.599426 -634.265564
853.072021 -583.878967 -396.011749
635.540649 -670.533630 -481.187347
639.077271 -663.996338 -529.738770
911.238098 -281.784424 -651.810486
919.464661 -917.291443 -659.183838
923.595337 -1036.786987 -536.911743
892.661377 -1087.416260 -424.709045
827.732788 -575.955933 -452.473724
932.200073 -536.270447 -634.347290
924.703796 -243.224106 -621.781677
630.676941 -692.776978 -519.553162
869.355774 -210.102219 -677.297974
760.885620 -245.278641 -798.288757
968.647400 -278.720062 -584.450195
1085.541992 -974.924927 -566.752930
816.238037 -261.298157 -756.180237
871.956665 -339.894958 -695.250000
1031.483521 -1027.129517 -495.317352
933.862000 -319.462097 -633.130554
878.808899 -187.143616 -667.035400
743.622070 -1035.285034 -776.248291
753.489624 -612.232666 -668.307922
856.857971 -562.614014 -598.659912
949.355835 -998.093323 -687.893982
991.666321 -512.010376 -574.911011
1205.541016 -927.057373 -659.756226
724.284180 -1082.138916 -691.763672
877.005432 -612.925537 -360.169647
811.670166 -1099.862305 -469.548859
1012.404602 -1028.202759 -480.530670
1208.665039 -949.398926 -480.883728
1106.752197 -978.035583 -515.755615
894.773682 -368.549866 -702.917175
839.305481 -1073.074829 -704.814331
1109.793213 -1005.660400 -407.845917
868.460083 -576.915039 -436.177124
1035.901733 -1003.610352 -585.345215
661.616516 -653.654358 -495.992584
817.729004 -187.829483 -742.363098
792.386108 -1115.699829 -577.130005
834.134644 -163.846725 -699.495789
743.434448 -646.804871 -384.309906
820.261719 -562.448242 -652.959290
904.044128 -298.029449 -653.617920
940.295471 -305.359863 -620.970642
735.480530 -608.082092 -561.196167
1057.727295 -1018.560852 -413.107208
881.389954 -563.844299 -438.848175
823.446533 -347.553406 -756.068542
990.495728 -253.588409 -534.553772
751.732666 -629.492188 -497.745789
801.221680 -1098.159912 -524.201050
902.483582 -385.538727 -680.253113
799.855347 -1102.754761 -569.698975
930.497498 -235.791733 -593.798401
870.491150 -277.426758 -678.800171
875.997253 -420.482300 -743.949280
967.892700 -297.895294 -590.290588
942.363342 -546.192383 -511.693756
880.341736 -243.959915 -668.251953
920.499084 -973.632141 -716.964050
1049.802734 -962.938293 -658.414001
698.755981 -623.587158 -519.077026
882.923401 -540.367615 -655.499573
770.387634 -180.426453 -783.214539
842.009277 -339.071381 -745.670776
858.343079 -1052.963257 -668.227844
1241.114990 -932.088013 -406.362274
847.193726 -343.244537 -727.889404
858.063171 -585.672791 -409.894409
869.670715 -200.186371 -671.657288
981.802002 -1051.022949 -399.013458
771.231628 -1083.096313 -693.171265
847.171936 -1091.349731 -483.194550
878.136475 -536.898010 -564.270752
824.293030 -541.772949 -757.871094
800.325562 -551.772278 -678.308655
1019.245544 -1001.884705 -523.629883
865.205383 -346.878571 -728.795898
1369.607422 -807.639282 -827.618713
973.394592 -1049.236084 -424.853668
898.413635 -554.140076 -590.326965
1204.553345 -949.062134 -494.491150
787.453430 -591.531067 -545.772156
746.179626 -616.126831 -447.242920
699.696228 -588.479126 -668.643066
612.456848 -656.043396 -613.823669
775.253113 -611.868774 -572.750610
1159.906616 -897.765686 -710.123535
866.421875 -1048.237915 -693.808289
917.770569 -227.594971 -611.232605
785.710999 -1094.147705 -482.907562
840.277039 -1058.004761 -692.754395
997.112000 -1050.081421 -388.609680
953.316956 -227.206772 -573.280029
876.432922 -425.394623 -752.631287
942.643127 -1047.321899 -405.307861
837.116272 -545.680298 -755.329468
604.899963 -653.687256 -599.240051
845.498840 -959.832458 -727.986633
722.287781 -617.219543 -467.971924
812.795837 -370.175690 -798.700439
846.105469 -187.227951 -695.507202
1120.629761 -933.508179 -510.059174
870.172607 -559.217041 -452.865448
1006.105713 -1036.509888 -439.177490
848.310181 -1011.007385 -480.688568
875.844177 -558.622070 -490.691864
907.006897 -1035.717285 -717.952026
759.288513 -1068.508423 -742.326843
967.616882 -964.450623 -778.456177
1161.734863 -959.143982 -499.743378
796.364075 -598.516846 -528.850769
905.468628 -1071.583984 -459.323120
657.963806 -645.824890 -513.618591
1101.605225 -903.693176 -534.407104
795.259644 -587.046265 -520.557617
918.393005 -1084.013672 -406.557312
750.327026 -1093.980957 -683.884338
830.189087 -147.634933 -705.839966
888.276855 -987.717529 -529.299377
947.567261 -1014.415894 -598.329590
867.553101 -565.411072 -470.102600
1003.262451 -945.976868 -626.937378
908.692139 -260.443237 -647.769653
862.996765 -1095.473022 -404.850189
895.289612 -289.071686 -675.019043
864.848389 -382.393646 -737.925781
995.260742 -527.770447 -499.236847
761.839844 -643.058716 -378.697845
1128.905640 -982.961548 -434.136353
934.914673 -511.115875 -612.417664
842.219421 -360.388428 -762.176025
767.234436 -577.051758 -745.193115
846.680542 -414.426361 -771.407349
977.666260 -242.704575 -549.082581
1018.384155 -912.495544 -586.065125
915.692627 -1045.037842 -661.582520
878.984314 -189.431000 -683.075378
1147.593140 -904.404175 -471.246277
766.031311 -357.708405 -824.943420
756.112061 -634.807373 -383.913910
854.678406 -397.791290 -740.425781
800.574341 -568.850525 -629.708252
612.887695 -694.183777 -516.599609
772.160278 -579.781311 -673.778381
868.185913 -1054.414673 -640.901123
920.130615 -142.720154 -602.485291
913.392395 -918.159851 -614.443237
813.534058 -1090.440430 -500.599762
1053.583862 -1014.946594 -497.355042
986.965820 -523.255066 -668.058716
1254.815308 -874.012024 -702.073792
822.680115 -426.814423 -781.110046
887.759277 -490.616669 -293.092743
937.343567 -265.067169 -612.960693
906.623230 -529.551270 -666.531250
645.376160 -691.825012 -470.845978
935.279236 -397.613586 -645.006836
1128.199097 -1004.436768 -401.000610
1059.061890 -1010.650452 -525.887817
1024.158813 -1020.617615 -492.487244
834.510925 -257.698639 -729.990845
697.615784 -597.126709 -625.500610
834.666870 -577.753357 -425.898529
895.068115 -283.508820 -658.820862
825.808716 -550.929565 -714.689575
1074.201172 -970.791382 -571.957520
740.201050 -595.997437 -623.447632
1001.688843 -1025.167969 -419.964630
615.022400 -631.886963 -654.385437
968.730042 -1042.665527 -388.770782
800.440674 -1097.790894 -443.777557
818.464050 -318.479126 -786.456848
864.028992 -899.736084 -522.866821
956.168945 -343.530426 -629.968079
1010.530457 -364.925537 -551.610413
880.503601 -554.787170 -538.360474
831.141724 -585.318726 -394.844727
907.893005 -1062.406982 -500.773499
902.245728 -274.729889 -662.836792
717.052490 -621.103333 -701.840881
963.681763 -1066.255493 -387.091553
940.800415 -1060.741821 -444.203613
773.674133 -1093.247314 -630.636719
844.408752 -373.575287 -743.497925
877.462280 -1059.348145 -498.245117
883.489502 -538.516724 -674.606445
882.880737 -144.632828 -635.207703
1086.209229 -924.144958 -588.831726
1231.554688 -941.024475 -481.062622
616.066528 -634.912048 -666.260559
545.673401 -459.247437 -712.470337
722.536499 -682.132874 -403.599823
966.221069 -377.573029 -636.269470
872.997620 -569.882813 -410.738434
1050.994873 -1018.983704 -482.720734
871.436523 -997.037415 -486.808777
735.964111 -1043.819580 -779.719604
866.437134 -209.476685 -681.210754
830.103943 -293.138489 -769.597473
776.899658 -570.863525 -609.434448
814.672852 -359.665070 -770.402100
787.486877 -1066.042114 -731.284119
850.009033 -306.676483 -722.321045
838.968201 -1085.438965 -450.551117
834.064026 -188.650742 -702.805542
811.969238 -586.054260 -485.215973
1148.591675 -955.490906 -606.361572
721.604431 -584.742188 -649.322693
932.637878 -540.386719 -597.630005
851.841309 -189.765182 -681.836914
1023.230164 -1042.745728 -396.491638
916.419800 -563.002808 -403.450409
901.000610 -185.040741 -619.482300
737.552979 -635.293091 -476.399872
1378.051270 -827.929321 -800.274170
815.281799 -1076.958618 -613.752930
803.945923 -979.890076 -758.167358
863.472656 -1081.115356 -452.044556
1009.982361 -959.330200 -761.384277
1204.102661 -903.181763 -722.504761
870.425232 -230.780838 -665.876709
859.955505 -158.887756 -696.536987
860.318237 -615.555176 -360.448944
860.751465 -1084.263672 -394.166840
912.161377 -853.153381 -580.318604
832.353394 -626.288208 -370.696808
887.331543 -218.919235 -648.313599
1083.637817 -907.182556 -569.981384
836.677063 -629.645325 -320.651367
780.800903 -561.472107 -651.034241
1221.856323 -924.331970 -453.771759
1159.755615 -915.367188 -712.033569
599.340820 -673.897156 -523.424438
620.189941 -676.757080 -498.569153
895.960938 -525.546387 -720.167847
880.568665 -1051.497314 -514.928040
821.157288 -370.617889 -779.017700
921.865356 -1029.678467 -685.149963
777.201599 -376.908752 -806.997131
821.917847 -1055.670532 -733.954712
842.419434 -294.641174 -737.138000
1066.407837 -1002.609802 -505.263367
955.872070 -200.481461 -567.889404
843.739197 -565.117249 -546.895020
716.349365 -598.173401 -711.384277
593.073242 -649.383667 -622.971741
809.334229 -274.259460 -763.230042
890.192688 -562.658264 -569.680542
1121.089844 -929.474915 -553.670471
825.546753 -553.711792 -787.983337
1104.398193 -925.440613 -515.885620
1152.330322 -992.109314 -399.591339
830.031677 -560.082520 -655.913086
1171.756470 -929.425842 -605.221680
767.620972 -628.380981 -373.496033
766.489868 -586.979309 -626.315857
866.942017 -382.585205 -743.104797
708.724792 -595.221069 -721.488342
784.864197 -562.665527 -731.437500
735.985352 -1112.649658 -488.578583
909.738220 -937.026123 -700.805054
840.264465 -428.441986 -740.854492
1069.210449 -1001.314209 -502.850891
797.186218 -1127.225708 -455.487061
1189.889648 -835.383606 -683.874573
949.773254 -325.913330 -615.352600
1074.282349 -988.119019 -534.311707
833.346375 -548.963013 -601.440369
800.767700 -587.865479 -536.731812
842.868225 -363.243530 -758.211304
761.173279 -1087.356079 -714.729553
838.371582 -580.587952 -545.996704
936.124451 -1010.351807 -725.151245
918.238831 -274.296570 -645.990784
1047.746948 -984.886536 -588.669373
832.893372 -1058.127197 -707.194214
909.595337 -292.911133 -658.099609
637.224609 -674.780640 -517.029480
1122.142578 -1010.318115 -378.637939
657.437683 -620.280029 -672.378906
974.473389 -364.757843 -606.060303
1149.447754 -912.191895 -478.455292
852.037476 -357.180115 -722.515320
844.717041 -302.762390 -752.184387
804.435974 -1118.717529 -491.761719
776.655640 -1022.387390 -765.511658
807.206421 -596.292725 -513.967957
959.840332 -200.979996 -554.806763
861.005249 -568.944275 -479.639099
647.855408 -635.189941 -524.883545
1214.978516 -851.799072 -715.005981
925.750366 -172.209427 -589.859192
979.453186 -383.585724 -617.765015
834.225647 -275.063599 -737.476074
708.574158 -604.980896 -629.748962
893.664917 -550.473206 -515.116394
902.031006 -318.246002 -676.223267
634.544495 -654.804199 -551.285828
861.422852 -1049.766968 -600.273071
1202.939209 -975.371826 -387.555023
848.324951 -531.197510 -687.419861
1089.902710 -995.397034 -464.275238
1337.518555 -845.608398 -745.801147
887.248474 -559.307312 -688.242920
760.003845 -588.001709 -582.527954
883.832947 -302.496307 -672.083984
926.875244 -210.913208 -609.500366
919.381409 -1058.389404 -415.782196
965.168213 -1052.198975 -416.423492
846.112244 -609.601501 -382.049133
1157.953857 -961.090332 -410.996826
841.250977 -602.923767 -369.946228
879.874390 -1038.301758 -735.671692
762.125183 -1117.221558 -480.434998
1352.373535 -834.375183 -822.691101
886.758240 -448.466827 -292.065643
770.059021 -170.390823 -770.592834
1113.202515 -925.919189 -534.573669
1241.549561 -900.025452 -695.362915
1004.019531 -1031.981201 -581.305847
803.233215 -1096.595825 -499.847504
836.007996 -265.971039 -726.998047
978.334595 -1068.024780 -389.924805
738.718384 -1021.456970 -785.645020
975.607666 -332.440643 -592.266907
1119.360107 -992.167603 -466.670593
749.448669 -1073.831665 -808.922546
1177.134521 -904.938416 -719.780090
846.653992 -971.750793 -496.896271
965.335510 -370.295898 -620.348206
1040.023804 -381.132904 -599.684387
801.793396 -601.884460 -574.150757
881.330200 -560.416138 -469.187805
1088.397217 -997.757324 -495.443787
947.416382 -178.539948 -569.177246
863.733032 -362.284302 -731.277222
775.528442 -580.910034 -619.241821
1090.069580 -934.033997 -589.964783
859.464722 -923.397217 -666.136108
790.212769 -616.467529 -377.972961
762.161377 -631.334473 -415.667023
1028.821289 -1029.390991 -521.083557
1194.415039 -889.199402 -691.759949
986.940125 -354.202240 -591.553223
576.037048 -682.720703 -569.452271
795.812988 -578.680420 -479.585754
1248.615845 -867.609375 -870.440430
1085.312866 -909.347839 -456.610718
987.670898 -363.960846 -600.687073
886.078369 -296.336517 -671.573975
826.132690 -1085.282715 -449.859802
818.993835 -605.825989 -393.620544
887.587585 -298.078003 -681.529541
933.087952 -993.922241 -755.438660
775.776550 -1105.815186 -532.363464
1116.968506 -924.463928 -506.141937
832.983398 -565.861023 -600.903259
798.650024 -576.420837 -733.594849
1292.465332 -868.297974 -724.496826
881.383728 -553.395325 -572.598328
906.169556 -130.043121 -609.861023
964.596802 -382.973358 -609.149109
807.808899 -1087.295532 -483.646240
1090.105103 -936.622314 -571.604675
772.825256 -1076.043945 -642.132996
854.408997 -283.759644 -724.356567
555.622559 -449.793457 -726.629272
865.441528 -1067.553467 -654.745667
1102.006592 -975.580688 -480.294128
924.540161 -552.042664 -602.031494
785.590088 -261.328186 -786.103821
888.269897 -1053.121338 -510.545715
997.738892 -1041.942871 -400.930054
901.890137 -221.874802 -648.276306
962.446350 -551.812988 -417.065094
784.947510 -340.409790 -795.774536
776.463318 -375.751343 -836.710571
751.946289 -589.555359 -511.824280
1092.774048 -1014.884277 -435.477844
831.697754 -576.573242 -506.159454
1204.874512 -930.572937 -667.727051
624.495728 -667.816833 -535.662415
1049.846313 -1025.646118 -474.124146
863.201050 -579.637024 -477.041595
937.608826 -516.303467 -690.884155
775.526917 -594.108215 -498.711060
831.957520 -384.253204 -781.884094
964.345886 -303.080780 -587.279114
726.301636 -1108.957153 -534.869751
889.384888 -1005.361938 -866.568542
1329.189209 -844.799133 -839.064880
878.534302 -1096.683716 -386.017944
890.819580 -1039.556030 -581.910522
813.280945 -233.262711 -753.200439
738.742920 -631.511536 -497.179443
774.574341 -303.608551 -794.828613
882.697876 -159.270401 -636.862976
866.003784 -569.150330 -502.821625
709.512573 -601.394165 -561.639160
606.404541 -653.426758 -608.279663
859.117676 -572.638611 -400.194244
906.321472 -991.095032 -529.411987
926.142090 -1039.512329 -558.679871
1069.016235 -1015.251282 -413.002167
822.860962 -553.413025 -753.821838
1389.255371 -808.436279 -797.079163
853.194519 -977.803223 -816.689453
893.558899 -285.952362 -667.018372
895.139587 -400.663452 -717.143188
908.430786 -384.017059 -673.353638
799.311279 -1082.442139 -547.556519
776.650696 -200.052063 -774.881104
766.218262 -583.069946 -719.425964
1113.892700 -983.215149 -452.359772
1068.712402 -976.746399 -605.981995
888.167358 -355.056671 -718.640198
886.257446 -1009.565796 -557.769165
1135.051758 -956.010742 -529.789978
905.008667 -1052.268311 -647.468811
803.797546 -582.369141 -516.350891
1181.151367 -923.950378 -626.535522
921.767029 -1053.975220 -416.550995
1105.767944 -962.502441 -541.503113
1111.182129 -989.724304 -434.763031
944.508362 -531.429565 -539.842041
1013.579529 -1038.704346 -440.255402
1122.332031 -970.820251 -425.446167
983.301880 -973.448547 -640.041321
992.384033 -1063.155273 -380.547699
867.850769 -136.248306 -672.597046
852.706116 -198.397614 -705.838379
1019.334717 -1004.279663 -569.076965
755.093262 -274.099792 -811.844849
1072.957275 -882.483337 -492.658417
927.412720 -227.066360 -593.518555
819.268311 -1093.896118 -488.146240
851.096130 -389.237671 -740.492737
739.739075 -655.092468 -389.704224
735.772278 -599.979248 -647.242065
789.806519 -577.440369 -611.404785
945.531128 -537.282776 -692.243591
775.097351 -594.203796 -443.400146
1226.531982 -933.707214 -454.315979
900.258301 -231.779846 -634.664368
817.277954 -1065.913086 -726.827209
758.722046 -1076.729736 -726.623718
1115.038940 -917.410400 -559.809021
1053.843140 -1010.883301 -473.667999
1058.207886 -849.359741 -664.721069
776.417603 -198.894424 -775.576965
955.427246 -1000.796326 -627.386108
969.358704 -1057.677856 -443.943848
850.725342 -372.766846 -751.231934
836.171143 -1090.278320 -421.690674
753.643494 -1102.305664 -531.192139
1104.210449 -913.215820 -542.460815
821.012939 -198.047256 -714.674072
744.683472 -612.322632 -485.266663
1046.786865 -1026.562744 -388.180756
755.506653 -1066.174561 -818.041260
833.872314 -1056.274658 -515.195679
894.878723 -1009.503479 -756.071533
961.395447 -368.365265 -599.774963
1065.271484 -912.165955 -594.878113
836.457336 -572.285339 -647.954651
832.277039 -1120.120850 -405.473480
861.643555 -596.979919 -386.572998
945.769653 -1016.950562 -707.067871
965.905029 -1067.233276 -379.817535
934.703857 -514.145813 -683.566467
913.082031 -318.188141 -663.218201
851.146729 -567.686646 -564.102478
1055.748901 -986.802917 -521.472961
1005.553345 -1047.937256 -433.223511
908.917969 -422.198364 -677.255615
923.355713 -986.018921 -821.336853
702.088745 -620.532593 -530.701782
806.316833 -572.526367 -516.335815
888.461853 -384.252441 -723.638489
792.912659 -625.259521 -361.745270
834.824524 -1075.487549 -590.692871
1155.783447 -960.495850 -448.379944
1210.495361 -933.968445 -486.085541
831.538086 -1076.959961 -510.210907
896.590698 -847.609985 -542.452087
785.168518 -159.751343 -769.041321
858.505615 -342.425873 -732.490845
881.554993 -493.419708 -363.631226
863.987366 -319.936279 -725.626282
1107.462646 -1004.246948 -379.636200
851.118103 -1079.023682 -553.488831
840.790283 -640.299561 -335.420654
1241.015625 -927.340149 -453.062164
956.854919 -146.207672 -584.921021
630.164551 -676.419983 -483.365021
762.452271 -616.908203 -397.367981
1150.007202 -932.498169 -463.216949
1165.020508 -953.515015 -587.717407
858.615540 -175.220474 -709.036499
948.735474 -955.346497 -621.380249
914.851318 -555.791687 -481.250305
810.524902 -148.189011 -749.873840
1097.636719 -936.935974 -561.638550
901.355957 -1043.701294 -534.896606
1057.387817 -1029.461304 -434.037170
939.258728 -1005.063232 -726.383911
1068.758423 -983.630737 -499.266296
828.400146 -583.018799 -499.431671
911.124207 -252.821045 -641.001343
891.967346 -600.171814 -377.611755
803.923279 -650.301086 -333.165680
1097.900391 -1004.940247 -376.474884
853.654541 -251.418228 -714.146362
1000.375305 -1054.452393 -402.578644
885.250854 -1071.372070 -417.265625
1136.066528 -909.669067 -614.576111
824.933411 -564.279480 -527.446350
1044.089355 -908.364319 -592.551331
631.738586 -696.515320 -512.678162
753.243469 -600.043640 -573.450500
837.307495 -574.957397 -480.196625
1158.318970 -936.466187 -704.408081
1087.889282 -980.866760 -593.088318
696.380493 -634.083557 -587.641174
989.905273 -323.264221 -566.755127
1236.069336 -893.249573 -695.389160
947.674744 -540.744934 -567.427734
1064.722900 -996.136658 -451.374786
1172.802856 -910.282104 -699.315308
787.221558 -1081.059692 -652.098633
928.644287 -970.819763 -741.751526
732.913086 -652.777588 -396.190887
904.645874 -153.530670 -611.124573
887.439087 -991.843872 -578.912292
918.502380 -402.891815 -682.676270
591.810913 -684.845215 -548.879395
758.184814 -584.381348 -683.181702
975.931702 -972.335938 -884.664368
771.441345 -592.167786 -586.431274
886.557983 -1038.147827 -561.636658
765.039001 -607.775085 -418.281738
1077.950317 -1026.667603 -402.248566
888.029785 -521.848267 -648.386658
1043.290283 -931.805176 -607.382996
787.399719 -622.042419 -406.727570
879.299072 -1046.365723 -476.259613
1116.015503 -949.583679 -530.976379
782.319824 -212.029816 -773.521423
1098.627319 -970.500610 -550.921143
861.396851 -581.644897 -449.532349
1190.428589 -894.815979 -755.307312
905.134644 -135.306839 -630.117920
896.350525 -365.917297 -696.559875
1299.437378 -857.092590 -785.879578
780.430969 -1068.278564 -656.830139
1131.164307 -972.918335 -562.887695
735.554321 -628.433533 -428.651215
804.769897 -218.922745 -734.292358
1119.224854 -989.326111 -396.121857
855.182373 -244.387070 -709.825562
1121.734863 -973.122437 -463.633972
1146.198242 -930.224426 -685.567871
1095.097900 -1006.689209 -476.077728
647.161682 -642.162781 -499.507690
774.361328 -247.250641 -783.206177
774.020203 -636.868958 -387.026733
648.816711 -696.031860 -475.611633
663.887146 -642.697632 -510.979401
1005.390808 -380.836884 -559.743408
772.503418 -615.370850 -404.109711
886.987061 -369.436890 -328.979034
1211.969116 -900.523438 -515.706726
1193.642090 -920.433044 -450.490448
1223.631836 -923.619690 -527.626221
1039.362915 -1022.163452 -505.701630
916.953613 -530.736938 -598.883423
829.377197 -595.153931 -461.057770
913.298157 -1023.640930 -727.164551
795.075073 -420.718842 -816.672119
832.424316 -578.757935 -621.914490
1005.950867 -1046.756592 -477.192352
951.477112 -535.503052 -591.075623
1142.141235 -913.594360 -609.792297
968.679688 -370.066254 -614.213623
981.595276 -410.867126 -642.304077
1056.017334 -993.934753 -544.112427
1230.102661 -942.710815 -441.249939
817.279602 -152.501907 -729.657104
666.500183 -657.122559 -560.468933
1353.116943 -812.296387 -840.256775
635.555603 -636.281799 -620.829041
982.625122 -326.479034 -570.241516
806.199036 -376.736755 -803.184204
821.148254 -1108.198853 -434.695068
862.054443 -1075.788452 -442.432587
777.133118 -260.709991 -796.080322
705.700989 -613.712708 -569.236206
818.904968 -138.163895 -749.522461
925.464661 -329.102356 -638.149414
831.237793 -1033.785400 -764.971985
892.573242 -597.631958 -374.668823
1087.492065 -972.338989 -577.717957
1057.575928 -1023.541382 -439.153046
855.976074 -622.634216 -333.077942
976.700623 -922.730286 -699.178589
879.149353 -605.333740 -367.584290
641.404907 -641.746643 -543.894958
886.753845 -1071.413818 -477.197876
810.435974 -1096.098755 -589.697021
996.477356 -958.886658 -847.456726
855.782593 -1077.040771 -522.557556
895.636841 -253.814453 -652.934814
793.158997 -240.337509 -779.961914
860.909424 -1062.410034 -637.831177
879.563660 -239.840347 -657.630127
1177.600342 -929.781250 -519.920715
936.175537 -986.973633 -762.945801
850.881470 -1024.621826 -726.944275
981.728699 -380.813202 -590.739197
731.684814 -623.493286 -531.056946
833.843262 -557.405396 -590.301636
726.223999 -616.059937 -635.032593
969.191589 -234.321198 -566.316772
855.755737 -1093.390991 -492.899597
879.374084 -1089.771240 -418.503998
956.170532 -1050.056152 -373.608368
784.272095 -626.595764 -412.675568
861.170715 -314.576752 -721.711914
1044.675781 -998.362854 -555.758362
812.879089 -602.450623 -453.014374
829.152161 -189.067398 -728.405273
753.591919 -1102.662598 -620.785583
1045.504639 -1014.682861 -550.168884
1214.809082 -914.633667 -644.475342
875.874451 -1081.230103 -377.943176
1095.468018 -992.388367 -475.801788
948.763000 -546.424377 -405.492035
950.883057 -351.707489 -607.404297
892.138245 -1040.985229 -500.836182
1242.555298 -865.985657 -714.819336
822.989563 -270.692627 -752.303284
1244.007080 -841.240723 -741.855286
877.956238 -134.653870 -702.075317
807.865295 -611.353271 -380.876892
760.647156 -301.762512 -807.580261
812.732056 -552.434998 -735.630432
817.338074 -584.538147 -466.239136
832.863098 -379.138214 -770.652283
1078.695190 -982.095154 -610.890381
707.224792 -1084.130981 -713.867004
1114.006470 -966.663940 -419.498291
724.484436 -1096.891235 -622.875366
879.301025 -139.531921 -684.205200
861.400513 -275.599640 -701.196289
1019.859314 -1028.333252 -511.711029
905.046387 -374.112030 -701.365784
1017.390991 -1035.045410 -505.285736
1036.790283 -955.133118 -606.449402
805.223816 -568.631287 -520.504028
970.992615 -1041.948853 -508.953705
935.292053 -254.726257 -613.770874
927.586487 -307.247528 -636.713196
665.384766 -618.673645 -661.026184
1086.544189 -1012.487854 -380.204987
883.966003 -392.364380 -699.568970
664.979431 -670.872681 -462.107483
638.177002 -643.616333 -599.861023
716.572205 -600.108765 -551.621765
961.964661 -211.755402 -565.240356
892.638611 -1076.544434 -458.712463
814.716370 -356.980164 -781.441956
1144.113037 -983.339844 -388.727478
872.288147 -588.447571 -461.616302
1200.466187 -910.220886 -673.145264
766.714539 -326.576996 -807.739441
822.354736 -558.151123 -752.266907
773.746216 -659.359070 -351.228607
622.503479 -680.525513 -503.293488
775.496582 -622.399536 -380.924500
1322.317261 -843.645630 -741.362915
976.491699 -970.413330 -762.174438
864.363708 -567.973755 -407.406616
798.092468 -218.255386 -753.137146
689.806152 -623.245361 -578.666992
850.064392 -1039.115479 -757.974487
970.735779 -353.554840 -590.555420
873.244568 -306.568176 -695.600220
1032.857544 -897.756104 -637.505737
1089.783813 -967.515808 -607.824829
688.367798 -621.021973 -557.412292
749.277039 -622.776245 -560.260437
1033.265625 -1019.658142 -483.330719
1083.386719 -912.419800 -615.244324
762.562988 -1065.025757 -710.390442
971.894592 -962.067444 -665.402710
886.103333 -989.152466 -586.889954
940.638123 -313.266479 -631.831848
941.798767 -214.698166 -580.432739
1134.830933 -969.133118 -482.004211
832.542175 -1053.881714 -654.860962
967.673889 -528.459534 -429.506317
687.353577 -643.914673 -518.998108
827.018982 -376.958801 -775.044495
897.162842 -365.106232 -708.449768
737.200439 -1087.872681 -731.257751
757.254517 -552.148315 -765.881226
772.536255 -356.662842 -812.435425
1008.304993 -1020.725525 -436.949341
805.815735 -269.571808 -766.771545
863.729248 -1063.906128 -460.387451
853.820984 -571.144714 -482.293854
911.694092 -561.842896 -408.873505
668.249695 -662.278748 -447.323883
1211.406372 -943.973633 -410.569489
882.418091 -1030.020386 -755.164978
620.914795 -671.037903 -504.245361
879.359070 -135.733307 -647.233704
897.251343 -1013.957886 -863.803894
981.881775 -985.774109 -563.111145
808.059692 -589.138794 -467.130615
719.710938 -632.774963 -436.804016
838.179016 -1055.599976 -439.259003
684.138733 -624.938782 -658.166504
789.817261 -619.360962 -378.786407
880.520752 -572.699768 -426.778564
1231.830444 -913.638306 -523.393433
885.886597 -1027.940918 -722.820740
857.692566 -1096.682129 -425.656952
865.199829 -1032.922729 -656.827637
959.906616 -170.460831 -587.116577
814.955750 -237.825058 -742.603455
925.579102 -1054.718750 -423.676422
594.038269 -667.319214 -586.634888
810.616699 -1079.789795 -533.698303
1335.662354 -866.814087 -778.890442
697.058167 -615.868469 -502.827393
810.177795 -629.679626 -357.615814
687.862366 -623.345459 -557.152588
870.659851 -1050.320557 -747.672424
821.966431 -331.795532 -771.202820
781.397644 -573.706726 -609.833496
843.842896 -219.402512 -693.621277
798.011353 -1084.071167 -610.284180
1051.860840 -1019.691956 -503.552155
1043.739502 -1001.028564 -615.481689
913.922791 -1037.638062 -668.919250
955.022949 -971.349609 -701.392212
1369.972290 -815.388733 -834.078369
901.210083 -1080.675781 -391.812744
891.891907 -568.767761 -396.888275
951.473633 -553.799438 -404.072479
869.762878 -581.021790 -387.549408
804.306763 -1026.255859 -821.464050
981.587830 -521.111084 -508.495911
759.991638 -593.052246 -498.948029
919.407715 -524.784729 -553.587646
1105.149780 -1008.421326 -443.646210
1152.208984 -923.444397 -735.041138
1068.870972 -1004.571533 -508.870209
779.094421 -578.651184 -696.811707
694.557556 -613.965332 -506.549347
790.514893 -1097.459106 -627.202454
861.529602 -1046.911133 -756.373352
797.503906 -591.967285 -485.284302
1098.206543 -939.917542 -519.937622
715.360413 -684.525635 -395.734680
700.830750 -642.647583 -420.174713
778.771118 -661.568848 -355.074432
704.794983 -676.484741 -393.796051
793.387634 -276.337921 -786.290833
805.845032 -1081.473022 -608.827393
855.108521 -1074.814941 -529.926880
986.789307 -393.008392 -596.621460
877.488464 -268.515350 -692.274353
877.723999 -284.494781 -684.737488
839.052307 -243.400284 -715.640747
765.858093 -1102.740112 -599.114807
1016.475769 -1018.383850 -539.004883
806.025940 -584.416016 -432.103912
798.562805 -606.179016 -503.450562
962.712097 -969.429932 -936.514832
923.345215 -1028.213135 -672.504150
976.990967 -511.400330 -634.684570
929.897095 -1088.592651 -384.252594
881.555237 -1053.755981 -490.601074
764.486755 -574.263550 -751.655273
805.188232 -653.326355 -325.692810
1145.354858 -973.397339 -422.254700
690.050964 -633.347778 -486.960663
941.828918 -985.553040 -877.471375
796.656677 -570.439758 -680.025269
733.878052 -1079.323608 -701.452393
947.436890 -1063.303955 -395.655945
922.931580 -225.219223 -631.943909
824.934326 -591.682251 -497.831512
783.659973 -236.409866 -767.971313
915.375549 -545.926941 -617.585266
890.968628 -1035.116699 -715.286926
923.975464 -405.810669 -360.681000
895.602966 -214.766983 -631.600098
860.489990 -312.601044 -736.722229
817.173096 -205.612091 -732.994324
832.736389 -294.647949 -736.023560
906.387512 -356.974152 -694.834229
1114.901001 -984.718689 -495.821533
876.721680 -949.805359 -721.394470
1006.770264 -1033.609253 -504.380768
791.706360 -1045.863647 -808.550720
891.744995 -347.364990 -706.234192
1241.540039 -871.235779 -682.543152
877.099365 -978.941833 -722.045532
771.577698 -271.786926 -809.791565
804.968140 -345.920593 -785.321838
938.822815 -544.368042 -523.687195
886.185669 -1019.304565 -685.783020
822.151428 -199.120560 -713.466187
1078.875122 -956.355713 -612.488586
1156.020386 -963.242920 -408.012543
1192.146240 -829.510864 -764.374573
949.178650 -1006.004150 -729.344116
842.349365 -603.057739 -345.138977
845.704529 -260.096527 -727.066101
802.263123 -588.908447 -568.759705
1051.078735 -1019.911804 -411.486908
890.721985 -551.930359 -390.415588
918.021057 -340.038696 -659.191406
848.173340 -612.880981 -382.672760
1307.553589 -834.355774 -814.629150
789.173218 -191.328888 -769.827942
767.151794 -267.559601 -791.429932
1181.640625 -913.973206 -553.391052
892.219482 -1042.493286 -688.389465
914.109070 -1081.575073 -412.758240
1042.359253 -1016.599304 -508.597382
778.566833 -620.725769 -428.669983
1006.031616 -972.992065 -647.696533
828.325684 -248.505127 -724.089478
860.305054 -585.840881 -442.473267
1158.293457 -964.928040 -438.001404
655.200073 -658.864380 -470.169189
842.219727 -540.225037 -659.489441
784.797302 -582.277100 -719.673035
882.156494 -537.184937 -671.074219
825.531921 -1089.328979 -468.038513
883.201172 -381.359070 -740.553711
870.768311 -1010.068237 -479.388794
687.017090 -623.575806 -546.364746
871.498657 -411.833618 -744.674622
988.502014 -1051.057251 -461.626953
1167.160767 -954.630493 -683.922119
1195.014282 -925.484497 -535.854797
916.165283 -1015.067322 -749.004150
960.599976 -1017.233643 -583.579956
796.757019 -615.808716 -376.547150
763.544678 -1089.614014 -670.935730
753.817627 -613.308228 -655.958801
927.083557 -918.818970 -558.109497
806.849365 -287.165405 -769.759277
900.596313 -1044.166138 -656.203857
896.853699 -985.264099 -535.578552
915.627319 -564.066406 -419.676788
825.943359 -1114.459961 -460.629089
838.753357 -1066.350220 -636.290955
1004.636841 -900.096375 -645.352905
1120.993408 -981.780579 -502.090302
873.330994 -589.434509 -381.318359
999.366333 -1016.823181 -510.556824
689.446167 -587.049194 -685.458252
993.347900 -895.523926 -704.942017
950.261841 -1063.393555 -448.923370
1143.771973 -951.963501 -457.978485
1229.797119 -936.877441 -485.242767
964.930481 -491.297729 -447.946869
923.255005 -557.478333 -569.320313
919.789673 -219.768295 -600.857178
936.463562 -207.209290 -595.402405
797.782654 -393.901703 -807.766785
1160.595459 -907.802856 -731.389893
796.055176 -538.465515 -759.403503
887.205627 -407.607208 -736.338989
717.896729 -636.132324 -442.280273
1307.822388 -833.317627 -860.201477
862.867493 -339.895569 -739.623596
902.649048 -562.334412 -449.467590
1009.379517 -1042.223877 -459.119995
893.357483 -267.361511 -665.040894
748.766541 -677.456604 -368.705200
983.426208 -1038.703613 -480.648743
949.432800 -368.493256 -650.262817
893.374512 -245.750717 -650.695068
816.127747 -569.719177 -488.969330
957.365967 -513.873108 -652.301208
825.258911 -602.260132 -446.609680
891.251526 -557.658386 -453.218933
911.640686 -554.793396 -445.399139
830.103577 -549.835022 -738.763245
786.212463 -609.376465 -515.177368
711.425598 -622.256897 -493.185120
828.191833 -279.891968 -752.424072
802.357361 -137.912567 -757.269348
866.287170 -158.686752 -658.638306
826.664001 -133.403748 -710.372437
1113.383545 -972.144409 -463.744934
936.826660 -1000.093445 -724.762573
840.268433 -342.987183 -734.902588
783.679688 -344.016357 -810.208984
950.241699 -217.553909 -587.833740
625.230896 -655.410034 -570.683655
704.030396 -594.688599 -625.904175
810.521301 -559.858276 -795.041382
704.874329 -624.266357 -497.280457
981.928467 -538.928101 -455.080353
809.107544 -579.579407 -526.518921
1131.646118 -978.324341 -480.893921
696.280945 -592.985901 -638.666443
1189.858032 -950.580811 -407.279388
822.202881 -590.981628 -610.203369
999.683655 -1035.957397 -458.784760
844.086243 -1088.887817 -598.729675
947.227722 -1036.588867 -571.994995
793.883423 -1058.473755 -739.011169
666.551880 -667.411255 -440.652222
1113.212158 -973.716675 -511.585266
870.836548 -325.517792 -727.622192
760.857727 -551.587585 -755.806885
972.272766 -327.241577 -431.545044
874.077637 -569.014221 -395.033661
736.980103 -1077.043701 -788.085754
864.139282 -559.311707 -472.153259
688.723633 -579.131714 -719.093567
627.494568 -667.834717 -597.249512
656.961243 -656.255127 -518.652771
725.876404 -648.714600 -384.674133
953.013184 -399.919708 -650.045654
1224.457275 -920.918518 -475.219940
861.015442 -1002.221558 -815.060425
740.162659 -655.810486 -376.499023
844.324402 -563.003174 -707.284790
834.880493 -1061.931396 -480.127838
625.000610 -685.024841 -492.588043
1004.544617 -337.383820 -548.243774
1403.764038 -820.023621 -808.144531
877.042969 -1023.677368 -592.980042
915.508057 -414.314667 -681.885010
1017.052124 -1025.469604 -378.482178
854.112427 -946.776062 -503.337128
878.055115 -247.516724 -676.950195
880.967163 -554.455139 -424.563965
838.823975 -554.981323 -696.815857
680.403015 -622.503540 -602.193970
660.747620 -636.454163 -542.673645
684.274353 -659.097351 -449.235382
887.307922 -569.051086 -483.331879
859.356384 -229.634979 -686.726563
1003.353333 -1030.496704 -562.122131
603.019043 -649.927063 -628.209961
972.033264 -522.845154 -551.562439
933.519165 -1056.937866 -515.929626
835.301636 -582.126953 -490.738037
860.658569 -424.666168 -764.077332
812.882324 -579.977661 -440.854614
1107.560791 -1005.062744 -417.662384
858.306335 -146.396286 -665.735779
733.767639 -1071.349243 -799.883728
931.071228 -993.824768 -841.831543
883.564575 -1028.248047 -573.694214
599.509033 -683.334045 -523.972290
759.903809 -1074.164185 -776.448669
829.771912 -1089.880615 -426.734589
601.047363 -644.062866 -608.433472
941.136292 -532.338745 -506.184265
988.257690 -973.198425 -655.100464
733.769287 -679.507996 -376.115784
625.130859 -668.832642 -590.962463
1029.316406 -1021.601135 -526.992249
1233.395752 -930.275391 -444.992157
825.786865 -605.521240 -386.608032
818.879639 -390.778168 -777.517395
1129.172363 -920.677551 -512.502502
1196.768799 -972.007507 -421.592255
812.382080 -1088.111328 -583.710876
968.637329 -1046.510132 -476.719025
839.896912 -634.808655 -339.433594
929.469116 -540.754883 -495.845520
1075.006714 -998.809509 -530.792114
958.106873 -508.507202 -655.162048
842.917847 -1044.011963 -747.764587
916.275879 -300.131927 -647.036377
1223.141357 -941.783997 -490.759735
712.239380 -594.508423 -604.288757
669.894165 -637.001160 -548.549744
820.058716 -276.257111 -759.521545
805.159668 -275.625000 -757.160767
851.115479 -299.433777 -727.223816
770.493591 -642.319824 -401.880768
851.587463 -563.527710 -674.626587
845.712646 -368.620117 -756.056152
1356.340454 -830.244446 -835.912659
787.766235 -604.640747 -419.040436
1384.248779 -840.686218 -813.670044
980.632751 -1049.569092 -512.902832
909.876770 -1058.033325 -439.924194
1062.594849 -987.793823 -567.239563
733.494019 -614.792725 -442.967712
953.341125 -211.413147 -584.579346
802.428711 -1018.095886 -790.870056
921.851746 -247.113968 -618.871826
977.875244 -304.078003 -571.126221
862.195679 -578.477844 -445.490143
962.831909 -1067.440063 -452.064667
765.403809 -600.049988 -490.150940
773.961731 -1108.728027 -522.176514
840.640015 -560.423767 -651.763306
1268.633301 -854.917053 -910.737488
979.987305 -386.158966 -599.924927
1070.670166 -933.113647 -536.449463
901.297791 -112.248085 -634.078857
856.132202 -1001.720215 -480.328888
875.039612 -576.572754 -418.105347
951.131165 -988.263367 -737.290833
1102.947266 -936.387756 -535.084290
921.834900 -1009.035339 -734.546265
768.644226 -588.756165 -618.636536
833.284546 -1031.347778 -872.133911
694.059692 -612.274292 -531.409485
775.140686 -305.694244 -808.726135
775.177917 -601.117126 -461.902039
929.402100 -531.043457 -453.962463
791.495300 -232.074265 -771.181152
1031.286621 -1017.494263 -492.128021
927.199158 -1064.220703 -468.764282
1047.447021 -1011.022156 -559.447632
849.427979 -1031.391235 -491.244263
787.868408 -1115.174194 -427.101990
651.478210 -679.713135 -468.955933
797.982544 -632.666626 -344.716797
931.787476 -1068.260010 -397.820923
1014.078369 -368.387024 -578.071838
902.650940 -567.886536 -473.532745
858.567749 -1038.458130 -527.427002
838.575745 -186.387939 -735.322327
875.226807 -444.571014 -297.715271
717.817871 -622.262024 -674.983215
785.014343 -280.434021 -783.147888
1009.421082 -391.232269 -551.265808
636.387329 -658.469666 -615.839539
929.873352 -530.662598 -635.396973
901.559387 -215.317963 -622.350647
966.266907 -374.500214 -610.065125
926.659973 -965.943970 -731.033081
749.924255 -651.921509 -375.026886
950.834106 -197.315186 -570.170959
836.731079 -138.627426 -714.715698
834.735840 -576.595703 -539.436279
809.784851 -1088.399780 -577.649414
962.025269 -1058.321533 -390.198242
664.666565 -639.781189 -520.535889
906.258057 -211.111526 -618.953247
810.162415 -386.411957 -783.371094
621.490051 -640.909668 -645.446716
881.939575 -1067.296631 -450.281586
912.902039 -330.201172 -667.947876
709.214844 -655.767822 -417.099579
872.172485 -222.108032 -678.129028
752.936157 -273.460632 -819.790894
922.169434 -314.510437 -651.281921
906.310059 -1040.073730 -638.460083
871.017700 -244.584320 -685.226990
948.485657 -349.964478 -626.329956
792.792297 -613.541382 -436.268677
892.354126 -163.979599 -629.629517
845.267029 -245.676208 -710.179810
715.785583 -606.242371 -622.565002
767.153137 -1094.518188 -643.425415
816.191162 -426.710510 -796.800232
705.993469 -628.330811 -561.293945
1121.691406 -986.283936 -436.550262
1049.588379 -887.702576 -771.249817
769.307800 -1103.371826 -582.527771
1025.328857 -1003.983887 -588.746155
780.826660 -1106.757690 -414.470886
1041.844604 -987.772400 -541.191589
861.530212 -367.869263 -751.400452
732.316223 -654.369995 -388.787750
920.226990 -217.641739 -633.007568
877.477661 -365.471313 -717.365784
911.214722 -528.627869 -673.229553
842.136169 -298.109955 -742.919800
862.260925 -233.080566 -686.964050
983.782654 -1006.771179 -585.120178
1136.375366 -921.945618 -434.317902
930.836853 -280.092987 -608.939636
1170.536865 -921.749512 -580.135071
800.979370 -251.419479 -765.910522
982.630005 -346.694000 -590.942078
1292.765137 -853.197449 -747.598938
1042.692139 -1013.828003 -532.762878
851.203491 -417.444702 -740.238098
763.780701 -1110.143066 -455.989349
1361.614258 -826.168274 -746.529724
1002.165466 -949.829224 -938.008667
1061.296509 -1028.885254 -395.612366
1000.788086 -341.983093 -565.600708
794.302612 -1118.687256 -435.199432
1207.117188 -912.121826 -645.590332
934.175232 -196.470230 -585.706848
718.299988 -615.637207 -639.522278
833.792297 -1103.908936 -506.594360
1149.664063 -973.868774 -380.426666
932.589844 -266.774597 -613.918762
833.296143 -328.142700 -769.007202
851.250488 -1083.920776 -418.440887
906.703979 -125.224777 -632.655823
947.173523 -1032.243774 -518.098206
594.161621 -659.134644 -597.341919
945.616760 -289.516418 -610.367615
939.236328 -300.716949 -636.744324
763.772949 -622.479919 -454.038788
677.212280 -668.327637 -481.742828
722.505737 -615.507324 -624.325073
1071.314453 -978.039001 -597.525146
836.889648 -1098.458252 -480.613525
827.954346 -608.934265 -431.674774
981.537598 -527.228699 -466.317047
830.308655 -1014.189575 -890.088745
1020.577026 -970.680420 -942.264832
1040.356445 -1008.628357 -559.842651
890.313232 -1034.216553 -707.307800
895.685852 -388.246918 -718.609985
847.663757 -603.774414 -355.033203
855.884216 -538.903015 -730.579041
935.124207 -1017.900452 -665.968750
1006.509460 -284.599030 -548.074585
797.647034 -1120.602539 -529.672852
724.229919 -586.773376 -769.962708
882.780701 -263.141571 -680.958557
802.033630 -608.413818 -508.789246
872.473206 -1060.924561 -488.702332
1241.968994 -879.259155 -698.421936
1177.985840 -912.351929 -525.682434
1011.182739 -1029.019165 -475.436584
994.003296 -954.717407 -857.717041
593.407043 -702.786072 -551.468445
652.319458 -632.125000 -614.631470
736.565308 -647.170105 -431.077789
801.061340 -561.969543 -712.249023
792.480896 -348.941833 -785.173401
852.038086 -237.920959 -700.503845
837.274170 -121.043159 -711.397522
884.641724 -544.199097 -709.725342
766.434875 -224.351212 -789.997986
1196.406860 -928.803589 -645.090454
880.549805 -1071.829956 -606.575867
822.219360 -652.392944 -335.776581
770.822388 -290.433990 -812.919006
1117.693848 -947.062134 -444.982483
1031.546265 -1011.822693 -534.390625
941.497009 -373.842682 -638.137085
664.049438 -676.657776 -443.272919
863.604614 -560.419434 -678.700378
861.872864 -1066.322144 -546.036560
763.017883 -1103.318970 -580.890137
891.286804 -553.546265 -491.724976
829.031860 -211.019714 -709.331299
807.783386 -135.400208 -720.526123
817.926636 -125.559074 -723.270508
927.471130 -376.449799 -664.639832
781.565918 -1091.399536 -530.092163
849.483032 -195.388733 -687.964478
905.862122 -524.621216 -698.666931
789.904602 -656.596741 -366.310547
805.006531 -611.352539 -422.612549
861.884033 -289.442993 -706.946106
993.274719 -1041.669800 -429.605560
710.727966 -666.354004 -403.848572
897.243469 -559.195862 -450.727020
796.608765 -287.117523 -780.004761
805.851440 -293.550354 -780.169495
631.776367 -635.934387 -602.322083
1152.960938 -975.761658 -423.700409
1041.839722 -1002.472961 -566.588196
687.100281 -582.274292 -722.995850
835.372192 -189.833237 -699.049866
867.038086 -587.742310 -347.068756
552.536743 -547.909302 -726.100037
733.766846 -628.990356 -408.383575
803.892700 -324.690308 -767.603333
1135.240967 -1004.915833 -390.712311
785.463013 -183.917892 -780.040771
939.328613 -1049.364014 -422.993225
836.173096 -568.402344 -526.167847
989.786987 -315.233063 -567.274719
978.836975 -338.081726 -585.704468
1147.325195 -937.669250 -721.703796
1120.841064 -1004.993408 -415.651550
989.923218 -1048.403809 -369.803558
789.608093 -1114.478271 -441.456024
1157.394897 -963.459473 -651.705688
758.418518 -1038.243652 -720.339355
911.741333 -1072.072510 -420.473816
718.757813 -653.592041 -443.774628
753.109253 -611.037781 -680.622009
1076.873535 -983.109558 -561.666077
755.983337 -1090.734375 -690.963318
909.519775 -1045.790039 -536.837891
1084.169678 -928.132202 -616.268005
815.974548 -1073.551147 -563.046631
866.701294 -1033.606201 -657.210022
792.824219 -1059.904663 -694.692627
721.089050 -633.900574 -531.345886
842.701721 -374.670685 -758.444397
938.053711 -1031.452881 -545.800842
886.863892 -152.006805 -632.945129
1111.773193 -995.604736 -458.905151
811.138245 -1054.470581 -717.319946
1249.535156 -866.216919 -884.139893
825.212769 -370.833557 -773.757385
1305.972534 -864.458557 -850.373413
1080.950439 -994.619751 -488.702362
699.275085 -663.167725 -431.060913
824.743530 -1099.319336 -424.657379
761.125549 -618.060425 -440.452667
960.096558 -536.680420 -614.813171
957.780090 -248.558029 -591.725281
1118.340698 -962.521362 -434.465027
880.980164 -1014.494324 -718.391541
848.675659 -157.863907 -716.737488
1099.600586 -1001.138855 -483.721466
881.881348 -274.139526 -686.618713
1099.811401 -905.978455 -630.783081
1288.397583 -853.584473 -755.615906
927.589050 -1063.372070 -444.821472
825.933533 -1116.122925 -451.649323
783.358887 -217.242126 -779.371643
929.558167 -1002.125916 -731.274780
1003.092346 -337.382233 -557.802795
1173.646973 -954.187378 -446.739929
894.724609 -388.601166 -308.664948
757.759521 -569.906555 -769.022766
769.037964 -616.243652 -549.938416
912.123230 -1069.900757 -372.744385
674.232544 -644.627136 -611.845947
814.492615 -597.343018 -525.471497
975.641479 -519.821228 -642.025146
1278.147705 -879.493774 -711.543213
882.533691 -271.815552 -680.032227
688.127686 -624.746826 -659.717834
849.365906 -1062.635132 -649.559021
595.865845 -708.345276 -541.531860
791.870300 -169.682007 -750.360168
1140.139648 -942.958130 -456.299408
1191.517456 -923.607910 -714.552795
1082.500366 -992.973633 -503.505768
769.346191 -628.262024 -391.942230
939.299561 -310.414368 -625.226074
933.215088 -156.998215 -587.848999
1128.525879 -952.495117 -489.826263
832.587341 -401.948120 -773.838318
801.468567 -146.777176 -744.709412
1159.712524 -956.561401 -695.773254
954.776978 -268.061646 -594.780884
832.864868 -244.369247 -754.657776
790.807617 -181.412598 -761.375183
1351.303589 -820.624573 -798.930664
972.087280 -229.461807 -566.133728
1124.491577 -1003.435059 -377.782867
1120.796509 -920.806580 -487.684265
868.728455 -169.713989 -696.352417
646.344482 -644.237793 -541.741333
874.582642 -358.218750 -341.533020
698.940247 -679.714294 -413.362274
1219.303589 -885.807861 -641.152283
882.836853 -548.002686 -631.920471
891.957153 -169.835297 -635.991821
874.332336 -141.705750 -651.371155
751.647400 -1106.184814 -576.067749
729.557190 -670.058838 -386.834320
1012.804749 -341.026825 -542.316040
847.739319 -254.039017 -738.208679
818.502686 -393.251587 -789.488586
911.993042 -369.829803 -702.286377
863.047180 -410.195587 -751.753662
921.224487 -190.775757 -609.651062
871.165894 -1086.538940 -423.292877
716.672180 -672.289734 -420.863251
889.380371 -1039.989258 -537.079407
1057.132568 -1028.751221 -416.654663
955.585266 -216.867599 -568.856812
749.328308 -1078.983398 -658.947876
892.067505 -1070.777954 -479.217407
636.737000 -642.836426 -571.275513
607.901001 -657.661987 -580.053772
904.152649 -337.852295 -689.338318
1129.765503 -929.185425 -465.233704
948.048218 -340.782013 -626.011230
1341.117188 -823.942566 -804.827820
827.707031 -581.966125 -479.623718
1003.974670 -977.886047 -619.875610
650.030518 -655.215027 -514.679016
915.444275 -249.345505 -651.110901
874.453918 -353.528748 -700.700195
1005.109192 -1021.900146 -466.445801
1168.251831 -921.215271 -717.947205
945.879639 -1029.496704 -531.692200
913.527954 -365.153412 -689.608521
986.858154 -369.314911 -597.488831
1081.443481 -939.238220 -554.036072
866.337219 -230.572540 -677.981323
884.576965 -375.898529 -330.257965
617.936279 -697.983704 -540.514465
791.158813 -607.292969 -432.588684
808.664978 -192.573380 -748.040344
1162.634888 -954.447937 -489.097992
895.875488 -1046.087769 -600.901123
876.509583 -571.079407 -600.683289
876.820190 -549.366394 -638.732056
828.064270 -350.029907 -766.651123
809.193848 -611.942749 -411.353241
665.705078 -697.231201 -467.612885
838.903625 -1113.311890 -397.927734
720.986938 -1074.237305 -800.843628
844.781189 -1065.762817 -638.212097
1306.802124 -876.209961 -722.490173
1192.027710 -941.739136 -693.035095
751.602356 -1114.200195 -526.569031
744.305176 -1104.437622 -618.490540
1110.822388 -967.312256 -450.080353
791.906067 -987.166931 -820.730103
942.696655 -958.907410 -732.854248
892.112488 -522.510193 -407.268219
860.578247 -573.919495 -483.031189
700.559509 -600.656006 -593.138428
1021.184448 -1033.020874 -413.408051
862.573303 -1062.384766 -702.835815
1142.053467 -989.894165 -385.815430
950.897217 -282.795898 -598.609070
827.245056 -977.980835 -733.245911
924.161377 -1024.569702 -696.476685
1153.155884 -967.646057 -453.340790
882.250488 -220.885605 -655.407471
772.123840 -1105.426758 -545.761047
850.663635 -1079.524170 -424.202576
845.508545 -1073.061646 -461.052185
1163.517456 -912.895752 -701.709351
703.793579 -620.584167 -642.082275
868.657104 -332.430634 -714.736389
