ply
format ascii 1.0
element vertex 1378
property float x
property float y
property float z
end_header
-964.113037 -333.775269 1155.431152
-815.853333 -37.518803 668.726135
-1224.345337 -238.679321 828.740662
-863.206543 77.801315 720.089966
-1092.368408 -118.106323 1255.916504
-1160.869263 -281.097137 884.961121
-693.178955 -104.808929 794.884949
-1106.860840 -346.990448 855.750000
-641.107300 292.471222 930.134216
-778.004211 -66.106415 708.613770
-575.385620 245.394089 975.251953
-1310.285400 -153.668137 760.876038
-899.102783 76.458763 642.246338
-956.979614 -288.559357 1083.763916
-1180.135986 -284.605560 812.090332
-588.425476 321.991669 920.622009
-1094.083862 -168.416946 1067.108276
-773.029297 360.088562 805.721252
-1197.724976 -234.831116 891.494751
-708.614990 -130.096985 782.534180
-1300.579712 -180.294571 781.034302
-1191.804443 -75.620300 910.825195
-1261.029663 -135.704773 900.366699
-1074.303345 -401.441620 861.363586
-1097.389648 -318.008575 967.488770
-835.126770 310.935791 823.029663
-1097.721558 -203.637894 1083.244873
-1256.076904 -177.911911 816.584900
-969.589539 -272.814056 1117.091064
-1251.812622 -36.095711 896.501831
-701.852783 -138.690201 792.644897
-1161.944946 -322.734344 790.156250
-802.229492 4.106571 800.563354
-654.501892 398.330322 831.959473
-835.098450 -50.430992 640.801575
-659.554810 380.928070 835.764526
-856.205139 347.258209 777.779602
-674.413940 209.056961 984.075623
-1285.218262 -111.321571 859.499634
-1135.469238 -386.268097 796.310425
-824.165222 -37.392353 659.510803
-777.455017 -100.322472 722.905823
-1261.809082 -173.800079 858.027954
-749.127197 273.166504 900.555359
-1355.865967 -1.565797 860.453857
-623.084839 341.802185 891.086853
-688.550659 380.555756 829.098267
-1312.318604 178.637527 1184.557129
-581.650635 294.440674 952.050903
-1106.898438 -333.320709 961.445801
-1165.711060 -359.422882 780.080811
-1074.142456 -246.800949 1045.374146
-1043.555786 -220.943527 1229.713745
-1049.546509 -344.803284 1008.916077
-736.682556 -110.795097 728.777466
-804.838806 -34.776012 696.372742
-853.533325 45.390125 703.350708
-693.589172 -123.513489 814.226929
-788.497253 25.760843 811.039734
-845.564453 -13.102249 679.665405
-722.091858 334.499084 846.986633
-669.055054 354.191223 857.416504
-1134.278931 -356.074921 837.835327
-633.809265 342.864563 884.856750
-822.916504 -19.381176 660.943848
-1005.917297 -318.287415 1069.010742
-1361.507080 -51.008736 799.801758
-1123.791626 -309.970367 952.664490
-760.311707 -58.092892 741.614807
-608.332092 464.528381 813.779724
-906.214355 141.908493 756.704651
-1165.558228 -73.459076 957.979614
-908.447998 76.358002 669.048767
-1197.086060 -311.221619 775.273560
-1008.324463 -358.772705 1036.936646
-705.459473 277.726257 919.994385
-864.804810 -20.726011 634.033264
-973.618958 -361.997284 1140.604614
-726.168396 321.517365 873.021362
-702.247620 -92.358612 807.162659
-769.658875 -75.454231 715.287964
-1036.074341 -385.251129 979.193176
-761.202942 -38.785770 825.226135
-743.965393 -48.413235 796.568665
-761.703735 363.945221 810.082764
-822.630249 -69.634964 655.698669
-1172.471558 -329.251862 771.011230
-1225.294678 -219.628876 814.902161
-891.817566 81.092178 725.609924
-633.211975 362.550232 866.454834
-1282.247437 -32.606991 880.538208
-691.474731 284.409851 906.997498
-876.580750 38.189156 648.310547
-591.796448 451.337433 808.534363
-549.819519 410.090240 860.125977
-1147.853882 -281.571075 937.323547
-1078.336182 -246.860550 1036.479370
-1264.813477 -196.049225 821.473999
-617.509705 271.571442 960.328247
-619.456482 220.643082 1006.881653
-1301.119385 -153.508820 807.316406
-540.891174 360.902466 904.984375
-1116.959351 -365.056030 859.080872
-612.517334 223.753693 984.744690
-730.262695 -157.444611 767.132935
-787.647522 382.111389 788.930359
-614.369141 274.091034 942.500305
-1151.614136 -353.363159 794.898621
-896.403870 193.575180 880.474426
-778.561218 -55.868114 758.077820
-650.109497 449.097626 790.456848
-1056.786865 -339.678284 1011.748047
-1153.988647 -180.765488 1024.431763
-578.280518 279.465057 955.045288
-1040.463867 -194.332596 1234.183350
-857.955383 84.155518 758.149902
-549.839111 389.954132 899.223877
-761.856445 -108.388626 686.413025
-1068.792847 -349.486145 1010.559998
-1231.996216 -59.899242 898.167786
-710.421448 225.489456 944.042236
-1090.877441 -276.112427 851.921143
-1218.313965 -168.100815 892.017273
-1259.213013 -216.087646 805.981079
-755.211243 275.773590 918.673218
-529.867371 360.622559 900.719482
-591.011658 444.428986 805.254089
-779.493835 396.492523 772.378906
-653.876831 295.795624 906.430359
-653.570984 462.372131 778.731750
-744.738159 257.062744 941.428589
-843.626465 58.662327 732.422607
-899.114197 60.934113 619.827148
-998.957092 -360.962219 1082.789673
-998.176697 -357.565674 1111.425293
-836.849487 -14.426468 661.543335
-841.538208 201.156799 933.668457
-683.091003 221.849426 978.637085
-1070.307983 -215.954880 1104.690918
-1075.603882 -91.093132 1121.838623
-1235.542847 -40.598812 915.577393
-1108.406738 -364.773071 879.864502
-603.199951 452.434662 795.717102
-905.241272 161.613144 731.776184
-1322.458984 -73.623726 818.975830
-682.458862 374.816010 844.311523
-977.312622 -272.009735 1055.911377
-890.227783 23.576742 619.426392
-1178.182861 -233.617493 886.620789
-862.292480 72.901306 699.261475
-1203.112793 -123.793358 979.189270
-1095.906860 -395.704407 827.045166
-926.235229 67.532913 628.744812
-1271.038574 -223.051163 773.024414
-1076.795410 -365.819427 958.683411
-668.773438 465.645172 764.136169
-804.944214 -39.802460 683.158813
-1239.032837 -72.768326 912.746887
-1304.076294 -28.521004 784.307068
-756.134277 297.282135 879.465027
-1184.639038 -69.435799 909.285400
-659.288452 463.918396 767.215637
-892.093506 -1.664487 604.451599
-734.497681 -34.942852 820.159119
-709.750793 -131.676041 762.614380
-885.365112 165.350876 841.341125
-629.564270 413.536469 813.444641
-1233.329590 -273.398529 755.561218
-767.087585 -29.885216 773.313721
-744.151978 332.478638 850.044067
-748.910156 -93.032845 714.619629
-677.176880 -74.321686 894.830078
-534.966248 374.102936 909.820984
-590.572266 373.519226 901.276001
-1052.175171 -283.007904 1061.483887
-695.774353 -61.175285 860.798157
-656.929688 474.551453 778.091431
-870.721436 -90.645622 629.808350
-893.134277 164.374283 818.665466
-760.311829 -59.866081 770.278076
-1188.372925 -65.164757 910.388123
-1198.570435 -111.232101 961.751770
-903.643372 178.086807 603.357666
-622.923706 354.803406 867.025452
-1021.741882 -244.856323 1072.771484
-1232.571655 107.001289 1042.266113
-927.425293 59.829399 619.315186
-1110.101563 -253.214432 1020.143860
-540.896484 355.553497 931.312622
-671.976685 264.019867 926.528870
-1255.545654 -10.221912 1079.663696
-726.059998 30.861425 976.035950
-1117.148438 -260.952545 1001.369690
-793.634338 32.048431 834.752991
-725.948059 -105.304520 809.752808
-873.477112 188.601227 836.618408
-715.020813 378.786804 802.710083
-571.474182 403.960052 855.425537
-1229.582275 -279.619904 784.484436
-884.442261 5.798554 625.598450
-1098.708984 -293.397003 1017.953186
-1248.642090 -132.994354 933.860107
-749.979309 -93.135925 740.227112
-680.840576 234.890732 969.898438
-1286.217651 -146.031738 786.336426
-1274.790039 71.700745 1083.092651
-1104.484619 -110.029358 1126.978149
-781.353882 142.230042 939.318848
-1242.069580 -173.043915 882.580933
-676.810364 -57.520176 940.552734
-509.389709 301.557434 966.401245
-1058.474854 -388.997131 946.024475
-535.987244 406.439240 909.799255
-587.043945 399.783478 846.649170
-834.708069 56.606689 754.270874
-1169.868896 -111.703224 956.544861
-1061.731079 -320.631348 984.567993
-914.046570 139.241440 641.707947
-884.903687 -28.289734 601.374817
-1354.593872 -104.434753 773.628662
-669.930603 327.491882 888.642700
-1244.422729 -218.973724 831.774109
-1195.991699 -68.440117 956.468201
-632.619690 232.391861 977.204651
-628.582581 360.193726 876.049744
-525.115662 374.584717 918.344604
-1266.693237 -191.409348 762.844360
-1263.184692 -42.490559 872.347900
-1244.452148 -177.887772 904.785217
-887.610291 19.842400 626.948059
-720.480286 413.810455 780.427795
-767.124329 40.626144 867.457275
-747.324341 446.793274 760.120300
-662.897461 464.757202 764.372803
-583.968811 352.825958 890.208923
-738.879639 -2.456723 860.907654
-718.974976 -49.702774 839.811584
-1030.270996 -347.906281 1040.345459
-906.346375 133.174835 687.599365
-1128.627197 -241.044800 993.046448
-820.143494 24.068272 734.957642
-707.698303 415.100861 767.490479
-1200.112427 110.671814 1115.359009
-1073.029663 -200.659500 865.196777
-684.576233 -103.425636 851.830444
-878.217041 232.627335 935.636047
-894.766113 124.250092 747.140198
-646.204773 485.747742 765.963013
-756.359558 236.788071 909.616028
-1316.076294 -167.146759 760.441528
-1133.415771 -389.551453 791.533264
-843.288879 119.141434 813.586670
-1390.010742 -37.781258 789.718933
-818.138611 104.728683 846.749329
-1250.480591 -147.791611 857.140320
-892.582886 96.301369 728.595093
-1306.058960 156.074387 1131.407227
-1324.935181 -134.856949 778.737854
-1189.319946 -265.056671 872.004761
-1262.115112 -248.798630 765.070923
-1272.768677 -133.329758 833.939697
-754.569031 379.240295 785.673828
-941.899719 113.081337 631.613403
-910.718140 110.456604 689.186279
-613.452026 312.869690 915.868164
-840.091675 332.125671 787.224121
-1241.287964 -113.789719 957.905334
-577.485046 307.326416 935.438721
-1170.851074 -367.846069 754.255188
-744.911926 300.912964 893.834167
-1283.826416 -204.193085 753.116516
-1139.419678 -254.435028 964.103882
-1218.416504 -266.543518 803.166077
-1332.120972 -83.736435 805.492126
-821.030151 129.067169 922.574402
-873.053528 -9.321986 619.717529
-1259.402710 138.645966 1110.943359
-784.017822 8.748802 755.329529
-1142.226074 -205.492981 1013.629578
-851.909668 125.327164 853.473816
-783.216187 89.054535 955.846863
-785.469116 0.351619 800.368896
-653.972229 248.723312 970.257385
-1093.981934 -222.004440 1082.061768
-696.232727 410.982086 783.809448
-562.873230 439.539337 839.994507
-774.343262 -132.579559 692.990906
-566.500671 315.113647 928.921509
-1203.717285 -46.646152 918.710083
-815.105713 -9.288160 676.731445
-507.847198 -6.630844 901.393250
-1097.420776 -211.994446 1076.357788
-1291.990967 45.964794 1041.112061
-1280.232056 -156.135056 827.154053
-774.186218 74.745667 947.277893
-819.736023 86.466011 796.365967
-967.604309 -306.977722 1085.936768
-1377.880737 -33.688782 794.861450
-617.984253 456.499084 798.462769
-1115.576294 -252.486557 1041.914429
-486.492645 378.738251 916.639587
-723.641235 433.466614 768.149780
-592.655273 417.154449 852.757202
-1022.969238 -383.059845 975.642151
-1173.241577 -144.885788 986.862854
-1282.964966 -14.190820 958.258484
-1043.610107 -145.911514 891.198914
-890.961426 124.634048 729.824280
-1308.960083 -150.004272 767.149170
-1045.075073 -218.788849 1099.350220
-1257.379150 -179.510391 840.388489
-674.683960 285.633545 909.275879
-1223.070801 -135.702377 963.227417
-809.541748 92.802704 888.619812
-1132.232544 -300.025543 946.888672
-887.644226 150.351303 808.227661
-1229.976196 -162.351456 916.776978
-653.959534 457.986389 781.089844
-670.516724 450.762360 764.952881
-970.056519 -319.580688 1086.683960
-1291.032959 31.512293 1018.884583
-523.197754 390.079620 890.501465
-1118.192749 -274.188629 864.308960
-635.305847 353.328674 863.671448
-1338.526978 202.347122 1205.642212
-930.444885 113.271896 655.774719
-723.855469 272.620392 928.438904
-1056.938354 -345.520813 998.708740
-1285.905640 -35.599052 810.500916
-1275.183716 -74.775345 888.881470
-1031.678467 -314.829132 1055.323120
-1245.563965 -28.618879 880.268188
-1304.427002 110.887466 1056.444214
-1271.122559 -185.119583 762.692139
-798.389160 -93.876366 677.661133
-991.942932 -346.957031 1077.318237
-1126.768433 -181.278885 984.154907
-756.417725 364.248962 803.812927
-850.902893 66.009308 745.386658
-941.538940 105.378296 636.668030
-1131.676025 -186.081451 1046.219849
-915.420044 198.237976 634.728027
-688.216736 479.379120 746.694763
-1037.521484 -197.675613 1051.124512
-1291.989990 157.849854 1161.519775
-1106.680664 -279.373199 907.760986
-817.201660 -83.165939 680.558350
-1320.224609 -69.626183 843.645447
-1020.230408 -378.173706 993.260437
-1366.281982 -36.707348 817.643616
-844.649780 99.260811 786.608521
-766.444763 364.437561 812.617004
-992.008118 -358.493561 1076.355225
-777.264954 58.533672 884.616394
-675.344849 297.202881 914.758179
-1266.748047 148.906281 1139.421387
-904.694031 106.433952 672.001160
-788.920837 -77.516800 691.425842
-581.710632 386.598694 863.292419
-781.961182 282.551422 880.749084
-1155.877441 -312.970856 797.386902
-779.138428 -108.529167 718.763550
-716.128967 -6.659341 912.519470
-1350.052612 -52.537785 813.680725
-789.913452 375.411499 785.334534
-857.931824 147.395813 897.337646
-1086.402466 -125.318169 1237.260010
-1023.772156 -232.343338 1143.689819
-698.001404 359.952423 841.905273
-1224.260620 -29.336327 952.934204
-1139.129272 -227.613602 967.205139
-736.416321 -2.519983 873.503784
-1220.402832 -58.242943 894.792175
-628.334045 339.295959 893.502380
-776.079773 296.895203 856.738770
-762.024719 -4.169030 781.083374
-1080.597046 -324.352295 979.374573
-1271.754761 -211.452652 786.482300
-1286.552246 -94.371246 856.000183
-1307.568115 -124.175453 778.974976
-843.727356 82.647865 762.306580
-898.270874 187.303040 796.580688
-681.981750 445.700653 762.144714
-678.507690 474.663666 761.933594
-1268.059814 -36.609352 1021.842590
-1230.452881 -31.099581 951.515930
-1375.045776 15.360794 834.320862
-1159.658203 -110.564331 953.333313
-800.712036 83.259659 823.502991
-1079.893799 -242.740097 1069.717651
-778.872620 334.031525 821.316711
-1275.096924 -208.971542 760.644531
-681.409973 394.167053 811.140625
-556.862610 402.452271 876.599121
-626.072266 203.661011 1016.527466
-590.813599 410.212250 842.797668
-820.561218 69.480209 816.382141
-1352.905884 -96.140808 788.161804
-1056.019653 -346.204834 995.261597
-1253.098755 178.866913 1249.897583
-898.655945 84.803177 717.337280
-1288.427246 -159.182434 840.007141
-1259.810303 -126.287338 865.929443
-1311.283813 -23.707956 859.897400
-1357.478394 -39.385330 793.098022
-707.656067 -14.068892 905.408813
-1341.816040 -15.637980 877.206970
-1301.653564 14.417994 925.733459
-1100.770996 -221.049484 1035.248901
-741.448669 256.936859 934.408508
-1231.859985 -170.994156 905.671204
-1250.128784 46.218079 1109.568726
-987.342041 -391.680573 1028.784058
-1137.647583 -311.269653 825.794128
-762.282776 -5.174357 803.730042
-1054.245117 -386.005829 921.087097
-858.405090 -47.892296 643.386658
-815.634949 24.095089 754.503967
-1010.316345 -282.251984 1104.524292
-1151.729736 -377.198883 778.414124
-903.320190 228.495346 921.606750
-826.494019 84.141487 831.006592
-865.353210 53.816055 701.430237
-718.085449 -94.550461 793.991577
-1256.446411 -176.802505 847.368469
-763.039917 389.199219 788.965454
-1213.993530 -188.750473 916.061951
-1197.276123 -108.592651 965.922546
-650.041443 394.928497 841.132690
-643.432739 359.516022 869.233032
-902.893738 116.602936 645.966919
-712.960876 413.928528 787.428711
-784.184998 119.723572 911.742981
-832.386230 182.878052 935.667847
-1061.859131 -282.853027 1063.490479
-801.878601 274.434509 926.188904
-788.499512 120.995636 946.656677
-586.925232 414.537201 852.356567
-1033.403442 -266.715851 1117.939819
-1070.306763 -254.591537 1083.918579
-1230.560913 -249.683151 823.133240
-845.108887 325.575500 827.709045
-617.773926 348.840851 895.385681
-824.903259 -73.479408 650.257751
-858.776550 30.383829 706.491638
-1227.669800 -49.646828 861.979797
-662.304016 396.334137 811.022522
-745.996643 -55.121834 832.755798
-1266.930298 -190.100967 844.553467
-1092.326416 -299.494507 1021.110474
-833.397278 74.144562 765.903076
-1252.579468 96.453865 1048.426392
-706.127319 353.828796 855.076050
-811.363708 -10.752931 710.253479
-1087.609863 -262.514465 1071.573853
-903.726257 69.441513 664.335571
-762.175232 2.165084 811.229065
-784.534058 363.263428 801.550171
-872.838989 -61.376724 623.730286
-1258.623047 -259.410675 750.946289
-1166.527710 -139.242874 975.678223
-677.561523 462.166840 767.359558
-677.722290 -62.481239 896.043091
-1369.429810 -8.764364 857.854980
-802.630188 -55.052555 679.190063
-1165.216553 -97.832695 957.534729
-1216.680176 -69.839462 1010.057861
-1089.547485 -259.906769 1060.267578
-1251.530518 -237.567154 737.990723
-895.286804 -40.535439 625.048218
-1157.893188 -375.741821 763.757874
-861.335022 70.744972 720.602661
-1108.835815 -264.234650 1012.538757
-1297.327393 -41.439835 846.705627
-669.000793 390.742828 813.098022
-762.821411 295.755249 861.500488
-840.715332 360.580536 778.242493
-512.003540 422.317871 892.050537
-1221.167847 -71.534416 924.018005
-674.020630 205.275131 989.583130
-1150.630493 -17.933832 1016.395142
-1248.005737 -150.979004 888.896118
-564.618408 345.994476 905.084412
-573.524292 465.974304 809.358582
-709.091675 -54.325264 854.874695
-1075.237427 -249.791992 1070.398071
-1279.135132 154.447464 1168.384644
-777.346069 72.669830 900.712280
-751.270325 -142.926575 713.387756
-847.449341 140.268112 843.217651
-622.143066 328.888977 909.786499
-804.686279 -67.214531 664.614868
-751.224243 -139.486511 736.474976
-846.052246 73.404533 739.825195
-919.656189 197.661743 787.617004
-775.553528 37.746891 837.426208
-616.164246 452.209686 809.441772
-575.860229 335.672943 912.945618
-862.342163 348.963898 812.752380
-820.374756 15.271153 698.169983
-651.604187 250.066833 965.953674
-1292.579224 -76.580040 894.621643
-1245.935303 -147.009338 899.906982
-1124.311279 -290.960480 972.934875
-1246.290283 -214.195633 771.140808
-809.400757 382.489502 782.445313
-669.947876 339.997650 883.774902
-909.367493 43.003464 615.383972
-1240.219849 78.985138 1043.735474
-1308.785278 -89.253517 852.540894
-624.422852 425.061493 838.305969
-1340.540649 -57.020653 816.583191
-1233.241333 -163.546448 937.413757
-1119.984741 -386.393036 830.503967
-811.721802 36.442944 795.721985
-683.408020 331.488281 875.872498
-619.900513 447.210968 791.398071
-1308.930054 43.826397 1040.624146
-839.302551 147.123627 847.828796
-797.954041 1.602227 724.991699
-574.836548 434.555847 842.622864
-1202.237793 -223.038376 894.622253
-503.646606 400.583038 898.037842
-729.679993 351.977173 845.471375
-856.735657 156.822281 847.448975
-844.118530 78.903618 788.281616
-798.034058 -72.174156 690.643616
-878.839539 86.162071 683.289001
-869.591187 153.691360 840.691711
-1072.823853 -386.709747 921.343872
-1221.003174 -145.823837 968.773315
-667.048645 327.084106 899.788330
-1272.319336 -218.793030 781.021545
-1130.463135 -219.913818 1013.691528
-654.491333 284.285217 932.456665
-754.022583 -77.216026 736.073486
-726.853760 275.049835 911.931030
-826.947021 61.049465 746.617676
-594.200378 387.048004 859.228333
-899.827087 218.075394 804.402405
-1286.592285 -41.879959 836.136719
-1009.466309 -281.081299 1102.956055
-776.829163 -9.229662 821.503845
-709.910217 349.513611 865.000671
-695.638184 -91.781502 841.616150
-594.624207 352.381165 901.998413
-1309.876709 -36.036762 783.531677
-1236.871338 66.064667 1106.931152
-1367.482910 -70.053535 774.951599
-1177.566284 -278.233795 843.697937
-791.032410 19.821308 756.966125
-1121.490601 -383.721191 828.127747
-1185.583984 -346.664490 748.134949
-769.634583 61.624737 854.645630
-1109.655151 -189.305054 963.573792
-732.081848 397.663513 794.174500
-765.709900 47.721706 891.385071
-562.007690 352.675751 917.261597
-1170.288330 -324.209869 797.061829
-1101.944702 -248.801971 1041.060913
-1252.483032 -243.520203 800.905396
-984.939209 -356.136108 1066.952759
-730.759521 307.963928 889.999634
-1314.462524 -83.510414 821.525085
-816.788696 -34.639542 694.376587
-773.745361 413.727600 743.691711
-530.274658 392.213898 880.215698
-713.525024 388.289734 794.321960
-992.732605 -336.658905 1041.574219
-747.513672 400.179626 764.915222
-804.834229 -93.464561 674.015686
-600.303162 397.175842 874.992737
-860.917908 174.500015 881.002441
-727.030640 249.258759 919.338989
-862.793335 166.362198 834.754211
-539.728516 333.218475 927.613098
-1262.015747 -227.058990 766.867065
-1246.285400 -157.434723 911.376770
-1273.763062 -8.280293 1045.348389
-1232.132935 -242.844681 777.453857
-877.025208 50.797146 696.939087
-1192.623657 -237.035904 887.838623
-809.930969 93.159164 897.786011
-689.038147 458.806427 763.058044
-1141.057251 -211.167297 907.588196
-873.972351 60.050209 731.770874
-669.662415 467.547974 754.056030
-1192.974365 -271.247314 832.712219
-1260.471313 -241.266541 751.212341
-869.181702 -68.514488 607.421631
-742.803101 -101.785118 744.731079
-813.148560 40.699810 762.043579
-816.270874 379.299652 783.866150
-825.100586 111.843384 865.283020
-791.724243 394.839844 769.362366
-1319.129761 170.188690 1147.798706
-605.302307 249.197342 970.403931
-732.520996 269.273926 928.251465
-867.576538 1.626783 628.204102
-672.910278 -87.820236 851.608948
-921.023926 222.346603 802.108643
-791.581848 343.881317 825.111328
-808.033203 65.654533 811.743103
-829.275818 159.088593 873.507996
-814.073303 -6.942600 703.036499
-954.886536 -292.873932 1100.230469
-768.802795 47.748192 920.052002
-709.098633 -167.709442 805.334290
-790.036621 82.853828 874.691101
-1012.076477 -216.091965 1103.175659
-1130.182007 -179.014862 1065.536377
-541.078857 357.690277 899.281494
-845.030212 -26.530073 641.914734
-1386.225464 -16.778206 825.254395
-790.006653 -2.339206 768.237061
-1348.254272 -77.989624 802.825989
-1079.858765 -69.116653 971.805725
-1296.327637 -161.595917 819.517456
-830.013000 343.739594 816.358154
-894.697266 -11.057014 613.605591
-1266.099121 109.788246 1091.486084
-1202.160522 -288.581635 793.739502
-808.086975 -104.717514 672.405396
-692.708008 260.428680 945.973877
-1217.986694 -222.075256 888.278931
-1112.055176 -266.228455 850.285034
-1075.002319 -396.231995 901.104614
-1145.829468 -247.802719 830.876282
-1166.499268 -347.364777 782.583557
-839.141541 -7.702044 658.601624
-1294.848022 -76.664520 875.561890
-1152.431885 -87.694481 998.735718
-822.541321 -70.989220 650.304626
-601.675171 390.374390 870.265808
-1231.220581 -28.193323 824.577637
-1180.711426 -371.181183 761.420959
-499.329529 82.898270 927.088318
-836.557861 86.460739 776.000061
-767.250305 276.937500 901.742493
-1329.443848 -99.449448 788.567200
-1239.025757 -58.327198 1052.647705
-1039.826782 -368.842682 1048.395996
-995.595886 -362.642487 1115.671875
-900.678711 -6.813452 609.377380
-1281.906128 -114.438057 864.077820
-980.888428 -388.439575 1049.228394
-1288.947144 32.092251 1018.629089
-1160.082153 -231.029144 917.798706
-743.799377 3.618510 859.491455
-873.745972 14.567567 653.937439
-822.938293 78.120087 804.593201
-1093.168335 -229.006470 1066.427368
-785.272339 350.380554 812.579224
-1129.165161 -278.570068 908.757813
-1296.639893 141.131027 1157.393066
-879.397095 68.953934 717.480774
-1387.546753 -34.263252 798.043884
-1180.510620 -348.133179 751.799194
-1187.596191 -55.283176 923.562622
-1360.984497 -56.885193 798.690735
-1155.225464 -224.720688 935.724182
-1337.778809 204.636719 1166.281982
-1242.497192 -95.528816 956.362366
-867.020569 176.839417 585.000488
-687.333008 443.002228 769.075867
-721.853455 -145.159256 769.874817
-560.907104 341.852356 900.167847
-1013.784424 -341.957581 1064.987183
-833.209595 18.599813 675.805542
-818.132874 335.870422 807.133423
-641.151489 266.248962 959.831543
-720.557983 349.812561 850.568970
-698.035034 9.624775 919.133667
-1108.619995 -370.200806 833.391907
-1176.355103 -40.235981 1008.743286
-681.476196 308.114899 884.170959
-705.339600 298.533875 900.535767
-752.622925 -63.535309 786.850586
-1068.485840 -88.409203 1109.769531
-942.777527 142.354874 689.891479
-847.363037 9.925986 694.429810
-663.589905 278.433136 945.411865
-785.450134 401.763794 755.968018
-625.563354 364.193970 893.800903
-704.410583 480.447876 749.592834
-1350.478638 15.544384 885.349854
-1121.762573 -332.981659 931.432251
-760.764038 44.613216 932.317200
-1033.485107 -225.774933 1063.468994
-665.213745 235.749741 962.908081
-756.922607 241.580078 913.743408
-684.264160 303.312897 888.384705
-1118.015381 -263.173676 854.732605
-1045.338135 -386.086243 963.081116
-1176.055542 -82.207741 976.413513
-797.590088 30.598249 793.535706
-1150.802979 -375.580170 766.363525
-1235.655518 32.860428 1054.504150
-1127.473755 -224.628174 1052.990723
-912.608398 -16.431078 604.497437
-1035.305908 -347.786041 1039.227905
-769.252075 -46.849258 738.074707
-1211.123291 -189.570328 914.413696
-1330.097656 -127.499062 796.477539
-1158.636353 -352.793335 784.974731
-597.836121 291.440216 956.694763
-1031.767578 -340.319153 1016.298706
-1192.023315 -94.969391 986.552551
-1088.139526 -382.740692 894.476318
-719.961914 225.122330 944.099487
-1296.096924 -179.109512 755.769226
-540.829956 -50.801945 873.329834
-1027.078613 -375.718353 972.811890
-1096.549194 -271.913177 1015.731506
-1265.531616 -116.264053 907.532532
-1161.149414 -378.258667 763.835449
-1269.046509 -182.190811 777.408936
-619.812256 367.713104 871.900696
-711.783020 444.238098 746.405579
-539.493896 -45.176830 909.555237
-703.918457 -54.058140 899.425842
-1391.261963 -46.253925 784.944702
-916.200989 7.528111 584.048889
-711.676208 -66.694221 819.456421
-978.243835 -272.317688 1118.686157
-1055.151978 -241.297516 1087.248047
-988.643921 -352.850464 1120.725220
-1175.982300 -358.950592 785.340454
-764.407349 405.127472 764.542908
-1122.000488 -311.753265 843.108459
-1178.216064 -252.030228 877.968140
-1069.281128 -377.237732 900.069153
-992.528625 -369.524506 1067.208496
-606.876953 205.736664 1000.825623
-934.295410 239.279846 824.026794
-778.935364 331.557617 837.470520
-703.866150 9.007379 955.886658
-1273.163330 185.758743 1235.536377
-734.221802 15.670973 928.951233
-822.462769 68.662857 781.574646
-1211.285156 -35.596668 995.996948
-595.691833 322.651093 922.112244
-700.197327 380.337524 816.742676
-648.129883 489.661163 762.801147
-1104.736084 -280.653564 1030.036255
-709.301208 -87.943573 839.894043
-751.629700 -167.040878 723.953308
-801.472778 43.665760 803.742126
-736.086548 241.881592 965.941711
-850.339722 51.001179 712.588501
-1211.955200 -129.280243 946.147522
-1157.748291 -298.492950 882.004639
-746.367371 314.727264 873.481812
-1331.132446 -48.986629 798.561279
-1232.393433 -247.321640 792.328796
-774.106201 -90.363235 701.463257
-841.897888 -20.944237 637.259583
-677.512817 323.573425 889.937134
-802.560303 74.866959 835.543701
-832.529968 19.169144 720.128662
-1064.543579 -324.518066 1016.471497
-798.664612 -121.258980 688.875244
-970.328064 -315.973602 1089.577637
-835.893616 187.924713 942.668213
-1067.670166 -124.772835 1258.841553
-805.393738 -76.599632 656.278137
-1307.901855 -0.397111 932.566345
-1117.668457 -90.161102 1173.947021
-1285.406982 -53.876202 816.161804
-1371.715210 -20.421286 812.464539
-1267.698486 -188.232742 823.700439
-851.091980 -50.696636 650.249023
-1201.091431 -285.959686 806.236145
-648.386963 246.627335 956.852844
-650.986694 407.582825 818.211914
-782.330750 256.491852 900.380676
-1351.047363 174.660706 1149.410645
-877.003235 194.953812 834.847839
-761.368347 345.306519 820.689331
-667.699341 -31.642935 924.581177
-1126.003662 -314.738190 917.392639
-1122.188477 -191.344772 1064.039429
-898.257751 -1.890263 598.995056
-750.441528 42.318645 975.730347
-1006.409302 -270.407990 1109.372559
-1017.655518 -265.349976 1118.641479
-803.006165 346.068970 819.745605
-1318.198120 -71.096817 803.695374
-873.596924 156.348175 851.763977
-629.028076 491.903870 804.393555
-859.519043 76.748787 755.430237
-1137.495117 -300.729401 828.403442
-607.392151 492.643127 831.526550
-1032.107910 -322.615051 1062.520752
-672.122803 398.052216 819.397949
-775.913696 428.094452 732.462402
-772.148560 341.728851 836.169373
-1251.712646 -148.212463 895.207458
-1018.178040 -242.151764 1103.101074
-731.995605 352.251465 823.195862
-1184.229370 -244.145920 858.355652
-1111.867554 -374.706207 893.735962
-1260.935181 -0.713869 994.336609
-936.808655 122.008598 663.932190
-1052.260376 -377.203278 967.017212
-629.488770 312.622009 923.182190
-793.992065 53.724220 799.999023
-672.523193 387.798492 836.456604
-733.867432 325.425201 858.581726
-738.417603 358.564606 824.157837
-1107.483765 -376.837952 827.038635
-823.396973 134.850555 890.584900
-1088.634888 -317.439301 1007.624207
-853.011353 -65.980110 628.632141
-794.084167 -139.714386 693.212952
-813.373291 86.795914 855.624329
-1259.869385 -153.666779 892.549683
-1009.740967 -380.778290 1002.638977
-871.716919 204.811874 881.630859
-1229.610352 -254.790359 796.042725
-1087.407593 -233.092926 1037.905762
-1155.873047 -348.163361 780.033264
-842.217346 24.501389 720.050842
-877.831909 127.730598 807.081543
-653.763733 385.289551 836.981934
-1211.761353 -310.263214 766.182312
-1073.488525 -257.565155 1089.918945
-668.927002 -113.811852 834.056763
-786.185913 21.537931 789.305359
-1280.263306 14.426156 948.751709
-825.164246 381.390625 791.132996
-1205.807251 -248.648346 852.042114
-1253.030762 -30.751373 896.276123
-1131.356934 -309.885223 792.552063
-893.916504 -65.065361 606.473999
-653.971497 236.256363 971.087219
-605.825928 364.106628 887.818848
-750.803711 32.520565 896.482300
-748.808289 -2.696307 879.761047
-693.674683 232.557465 952.578552
-1012.807800 -373.945862 1051.518677
-1093.988159 -334.787231 968.745728
-668.027954 307.134552 909.273560
-1058.299194 -376.681641 978.521606
-560.890869 335.793335 917.450928
-567.721069 372.702789 880.548279
-932.584412 186.768845 771.422546
-843.662170 50.362686 721.475830
-1231.977539 -169.366028 918.566162
-1085.084106 -302.050079 1004.649719
-598.538391 253.346985 968.670715
-761.549377 298.162201 867.586548
-692.621399 -77.435867 812.143677
-818.900635 381.281708 776.864868
-1226.107544 96.317398 1039.296387
-1328.400146 -90.917854 771.485718
-1171.998291 -268.185516 877.010193
-1294.764160 -145.745529 810.824524
-652.532166 269.678558 933.664001
-1325.765747 -59.093178 779.783264
-780.458008 58.291595 871.697449
-890.311218 106.913124 766.235840
-766.703186 45.289940 883.986572
-1262.970825 -223.043625 766.451965
-713.726135 -94.079475 803.522156
-1161.525391 -289.808258 841.075378
-527.271423 407.377106 876.843689
-685.663025 470.678284 747.145935
-821.720093 62.513885 800.026245
-1104.201172 -306.511078 960.400024
-1216.518799 -237.712234 846.877930
-1197.710327 -316.420624 788.406860
-1220.660278 -156.783600 928.881714
-1056.216431 -115.763466 1260.532959
-1297.386230 -153.036285 827.624268
-1301.789185 25.112682 1024.918091
-790.826355 -129.887650 711.111328
-1134.883423 -272.368469 925.250122
-1128.720947 -275.299347 888.529968
-1265.027466 -102.104965 881.372070
-1286.392334 20.517639 1077.762451
-574.462524 352.729279 890.903687
-697.647034 -158.133057 777.672424
-823.625488 -94.906769 647.528809
-804.437073 51.012306 766.915405
-1220.939697 -251.537430 833.409546
-721.773560 -157.787918 773.340820
-654.761414 249.447632 950.150146
-841.285034 -72.079933 637.973328
-1107.797119 -343.365540 894.561279
-1262.709961 -11.054748 908.730652
-922.130798 217.904083 785.761475
-1123.145874 -380.706635 849.721313
-751.495239 41.291508 867.556824
-1383.165894 -37.097183 778.860046
-719.702087 348.780792 840.850830
-1297.882690 -147.446533 821.094971
-629.121338 463.016876 785.875244
-739.004456 116.980583 984.851196
-803.818176 -32.791050 722.687439
-1209.153320 -97.663612 983.783936
-910.202637 158.800980 750.449341
-1224.824829 -281.171021 807.976257
-680.823059 -135.036789 820.046570
-1062.435669 -147.703140 1264.827026
-614.831970 418.279297 818.744080
-903.836365 110.482216 686.848083
-1106.774414 -273.454437 995.117615
-1048.672485 -284.625702 1052.677490
-1210.918335 -107.747040 968.787415
-1279.936768 62.713284 1073.857300
-820.883057 324.967743 840.894043
-716.505737 -62.677917 832.814514
-1012.503906 -314.409882 1072.490967
-1208.766846 -287.332214 814.494446
-1313.584961 -26.768053 845.111816
-1230.930420 -247.874374 827.491028
-835.658447 166.197815 881.174561
-1098.685059 -113.781044 1059.273682
-1230.669189 -282.726166 748.102234
-1112.635986 -238.698502 1037.652954
-677.395081 199.817017 987.155579
-627.987915 288.621643 954.395203
-712.251587 11.878654 936.552856
-1175.090332 -48.006187 978.902222
-683.207764 449.169006 767.135315
-749.881470 -111.933739 754.680908
-889.494690 96.776123 693.141968
-760.141052 -71.337051 738.490723
-768.975647 412.774902 761.258545
-674.809631 262.660522 947.825317
-1240.264038 -164.772537 889.128479
-853.683167 51.634869 704.359314
-696.140747 319.539337 877.761353
-718.649963 242.605576 946.468750
-1293.134644 -169.122833 779.744751
-610.905273 397.128204 869.757751
-1307.919312 -84.988136 856.757813
-801.329529 87.529114 836.600586
-912.525330 185.098587 810.220886
-1267.828247 35.647377 1086.508911
-759.445068 372.376556 810.127563
-1173.527466 -265.744385 849.927246
-1211.529419 -189.405655 881.048035
-1226.931030 -207.446091 893.787476
-734.519714 -102.645164 738.749512
-1345.370239 -109.679901 789.042175
-822.442200 153.022430 927.866760
-1207.246338 -300.857513 797.294739
-773.045471 139.322067 950.573669
-543.916748 331.315491 940.013794
-868.924438 49.313290 675.231934
-558.916870 405.979340 856.490906
-1203.764404 -288.044769 765.833313
-1085.967529 -313.571442 1018.467163
-560.658569 345.228851 911.474243
-1212.660645 -167.511780 954.277649
-1364.525879 -45.791924 806.905823
-1152.559937 -289.895477 837.462708
-989.920959 -269.320068 1114.998779
-733.880371 225.209534 942.845703
-678.916443 338.814362 867.635559
-954.866821 -299.600159 1115.942749
-1139.073486 -318.718414 821.513733
-760.788025 272.710846 896.043457
-786.773193 -101.842155 679.901550
-1269.328003 -10.612085 896.156860
-1179.881592 -225.121719 887.879883
-621.638245 367.019104 867.262207
-1126.101440 -381.900452 808.298584
-738.898071 346.456543 824.603210
-879.774963 2.064621 627.362244
-1310.666260 -127.434746 830.479431
-627.625366 307.229828 909.086853
-763.366821 52.926022 968.127930
-879.198364 4.705183 652.387451
-634.114868 404.583466 815.966675
-909.749878 105.426758 640.962524
-1096.727539 -374.942993 877.664551
-797.319153 329.482239 842.366455
-784.691467 -53.857464 755.182434
-772.615356 101.192062 908.293579
-987.485535 -316.904663 1080.503174
-897.290588 -13.485104 604.642639
-825.290283 122.675255 881.868835
-1098.221924 -96.354057 1198.345703
-1368.407959 -59.805962 792.858032
-723.671814 9.782022 901.462708
-687.388489 275.467102 932.060364
-1147.726563 -357.386719 772.600220
-805.861389 -15.465488 714.158508
-688.529724 389.865601 812.964600
-756.285767 297.792877 900.561035
-807.707153 32.998825 783.823669
-751.405334 -78.038826 738.699097
-1312.890503 -85.110794 806.056519
-1036.602051 -119.910606 851.421631
-805.757751 113.416328 886.384949
-573.617981 376.794922 895.158386
-1257.766235 -91.405014 951.633484
-502.052155 423.149902 879.715942
-653.427368 357.648895 875.242920
-743.258240 -103.169044 753.878967
-906.332581 3.978758 605.970276
-826.506714 -13.433224 695.262634
-1313.456665 -135.100815 786.040894
-789.916321 -81.540543 683.167969
-793.686157 321.653198 841.315857
-823.202148 324.793793 810.053589
-1266.730591 -195.535126 799.867310
-1220.580688 -191.527374 856.913208
-694.640869 448.761993 751.410034
-613.165222 454.729492 789.875488
-534.506104 326.845367 922.150452
-1258.849243 -154.417511 897.118713
-569.043030 470.821960 804.907715
-616.169067 362.380371 884.592896
-686.783691 453.360107 765.661743
-1073.238037 -257.501343 1058.103027
-1068.608276 -418.700439 849.580750
-824.867310 47.378654 817.366516
-1275.123169 -3.303255 973.240784
-714.206177 -132.954300 808.813049
-1124.852295 -390.697510 827.331604
-673.515625 488.371552 756.248291
-658.170166 283.387146 930.847900
-1238.055542 -250.925629 777.795959
-1313.514526 23.871195 1041.629028
-1089.088745 -145.809814 1185.415039
-1364.178101 -49.280602 807.838440
-1086.787109 -230.107956 1045.916870
-784.623779 82.861771 903.389709
-739.333862 412.737091 768.636047
-1308.118652 9.617023 929.684998
-1096.336304 -396.312683 883.108398
-1101.763184 -387.070068 863.354431
-1136.793335 -271.604095 976.930603
-958.061707 -257.122070 1036.930054
-690.021606 386.917267 824.677185
-750.385742 49.609745 920.504639
-1229.860840 -249.700897 815.260071
-592.599854 327.428986 911.938660
-710.740479 281.829285 898.764587
-752.846191 390.336151 799.410950
-651.913879 371.848419 848.701477
-703.868896 364.978241 827.156311
-872.976685 97.851425 760.861084
-1114.776855 -342.527100 875.844238
-1294.906982 -88.285645 899.622803
-767.740784 22.426289 877.220947
-1289.977539 171.946838 1263.259033
-1240.088013 -221.484558 816.009521
-1295.547852 -122.502022 859.986450
-851.392944 148.793304 887.141113
-645.022766 243.811050 961.635254
-833.102966 44.437252 737.474731
-1229.128784 -252.619873 770.072815
-894.425781 35.702206 634.822388
-696.289185 -109.195137 808.852112
-793.214783 131.315659 906.034241
-1030.253418 -296.572296 1095.405762
-594.899292 373.393799 882.699585
-841.099548 29.252708 713.012146
-739.503113 324.810577 843.671021
-1255.475464 -251.874100 768.394775
-688.939758 -13.788259 946.713379
-1300.408691 -131.999252 843.454285
-992.992859 -340.994537 1122.987793
-1274.841064 -112.157753 897.101440
-627.657715 261.290466 950.425903
-737.788208 352.552338 818.446472
-1057.269653 -267.867645 1051.328369
-1117.455688 -348.946777 841.295959
-1026.435547 -320.464966 1068.407837
-685.000061 418.191742 788.043823
-893.033936 -36.333912 598.295227
-843.775696 96.906677 814.962585
-736.759033 405.366455 775.556946
-707.313599 -105.694420 803.123840
-1102.903320 -320.415405 949.157715
-681.468689 -147.752548 816.220154
-655.753174 376.410950 842.247864
-887.969971 -45.560719 605.662781
-766.805237 385.423401 793.316284
-1265.217041 -61.556065 936.991150
-1141.104614 -108.759354 1023.652161
-869.067078 -1.980537 623.395203
-898.601135 120.304436 670.958679
-1118.897705 -143.108276 1051.338745
-723.856995 -61.324066 844.477661
-666.183777 248.742554 946.883667
-845.801025 157.764359 888.407776
-684.874573 409.576782 817.247925
-738.430481 298.468048 870.524353
-1208.712524 -68.576317 975.539307
-782.454285 -83.990120 723.879150
-714.641602 -92.457504 832.621521
-731.439270 338.178070 847.451233
-869.275940 34.515442 642.913879
-925.135437 82.636185 642.420044
-1192.273193 -41.024181 1005.973145
-1365.393188 -49.227646 786.972412
-1160.244141 -68.072906 952.995178
-672.044250 -3.449098 945.214783
-569.219727 354.859344 900.421082
-881.245422 60.416748 661.639038
-1236.168091 -269.568054 754.089294
-681.681091 -35.730152 906.025696
-758.975098 115.889168 952.622986
-1231.784912 -54.729275 1073.725586
-747.888062 -52.184101 784.400269
-806.767273 319.171783 816.676270
-1146.274170 -349.463104 776.008362
-598.380371 441.264099 806.993469
-1018.966125 -215.846222 1231.227417
-708.311096 -70.069740 792.626282
-835.386353 111.865982 869.060425
-748.377625 -84.134995 792.187012
-793.977417 -87.445160 688.002991
-614.169861 380.722687 866.432068
-1059.289063 -153.779022 1004.494019
-703.266113 -83.445122 825.745361
-1295.799683 -185.695297 754.435242
-783.884521 410.950317 759.658508
-1144.838135 -289.084259 828.931091
-713.181152 -143.960266 775.757996
-1053.787476 -210.111923 838.044067
-617.265320 384.261688 843.187744
-774.740173 326.995850 843.743896
-1135.633911 -384.529572 786.972412
-1068.893921 -326.001129 1006.379883
-710.873352 -111.613182 769.051086
-700.420288 -33.159943 899.962463
-1062.045410 -174.931503 1214.652100
-1182.016235 -81.634857 948.084351
-678.454346 378.277435 839.749512
-546.742737 303.026886 948.619995
-1348.371216 -61.379311 803.776184
-1164.260010 -303.201904 864.100647
-845.991821 -68.720062 633.846313
-797.837402 21.173670 768.556030
-1152.918945 -361.862213 761.891479
-830.444153 -29.165808 677.244629
-600.050537 361.952606 880.144287
-625.209167 396.818665 841.174011
-889.668701 206.884277 868.901733
-1313.977173 -90.242157 787.141174
-545.539246 321.288055 958.532776
-580.154175 416.006989 846.954224
-1079.553833 -407.199951 867.565186
-633.582153 352.975159 884.780396
-838.980042 -26.456459 637.873962
-809.741577 119.987526 902.092896
-695.298828 441.795135 767.282654
-976.655701 -348.210663 1092.795898
-861.358337 74.394974 752.408936
-1256.232788 74.878540 1101.862915
-1050.049683 -367.962860 1019.821167
-855.216003 115.898582 823.519714
-645.127686 352.763428 880.806213
-701.785217 325.246094 877.294312
-654.941223 388.126312 836.939880
-1317.876831 169.699509 1129.424316
-735.407349 -12.558630 814.195190
-1132.899292 -228.244003 840.561340
-1092.167725 -391.194672 863.075562
-829.877258 206.120789 531.489746
-1112.158569 -107.167793 959.862793
-1276.642212 -20.050346 847.042542
-586.337891 408.455994 843.099854
-1352.455811 -15.586062 825.505676
-1194.386353 -314.039673 750.213379
-1197.532715 -305.789063 779.552795
-774.701050 21.538555 826.789490
-1091.699951 -223.209991 852.974121
-704.867432 328.904236 855.375427
-566.824585 347.776917 899.704773
-611.206848 421.203522 822.867432
-1194.632324 -339.343292 766.496155
-827.137024 272.849121 931.716553
-848.461548 156.255890 906.145508
-801.440369 153.309387 954.634460
-811.843994 -25.907480 697.119934
-1013.125000 -323.021576 1057.531494
-1351.711548 23.802187 827.832886
-1118.018311 -356.781464 824.758423
-669.686401 193.148407 1005.256226
-800.724731 380.224304 769.765747
-810.753540 391.733734 754.551697
-616.869385 452.414978 806.241211
-674.331299 318.109711 904.328003
-840.188965 331.625732 810.046936
-1106.460449 -319.859222 947.337708
-770.337463 316.098297 863.634094
-686.492188 351.697479 866.203735
-829.108154 -26.947260 653.880432
-1042.823364 -385.963379 974.474792
-992.192810 -351.849304 1122.769287
-839.755554 -52.222481 637.992615
-825.296753 363.331787 779.889954
-1004.768921 -338.065765 1060.007080
-1053.968506 -319.297180 1060.128052
-796.854492 -5.442609 737.642151
-1245.597046 -235.272018 752.729553
-880.246094 -54.853779 626.815186
-695.494324 332.309631 859.326050
-928.508484 52.158550 612.322632
-673.751221 387.148285 820.862488
-1247.811279 -42.516613 889.468384
-1151.965088 -261.764221 886.694763
-1111.914795 -213.069427 882.549622
-1124.610962 -349.747620 848.753052
-641.291870 264.276672 945.177063
-976.387939 -356.832489 1086.048706
-818.388123 164.957489 960.727234
-689.505249 227.239899 958.935242
-1236.080078 -197.072693 874.533447
-1218.883179 -49.052776 874.107483
-1036.052612 -303.245026 1070.452026
-1275.513062 17.745502 1078.643799
-628.095764 429.523376 820.675964
-883.693115 153.684662 808.762268
-1320.256836 -26.218941 919.036255
-1158.455811 -364.950531 781.620483
-1313.381470 -75.111923 811.588562
-645.748535 275.644653 947.468994
-793.260620 -40.746056 747.551636
-558.760071 423.156372 848.728638
-775.248779 -25.003193 751.196106
-1253.537720 -193.082016 832.791321
-1071.004395 -108.054359 1266.514282
-718.731323 31.890310 946.794983
-1157.091919 -353.049805 792.443481
-867.895081 136.850311 762.745300
-818.265686 38.526085 750.420593
-1297.900146 -99.885544 866.508484
-841.184326 -5.655254 705.929565
-505.721100 376.412354 938.402344
-1197.412964 57.647984 1110.644409
-511.870270 390.002350 904.648376
-1280.224976 -18.308001 910.061646
-1145.464844 -381.996826 782.193359
-1336.294189 -72.495857 807.964966
-658.821411 -127.602272 851.939819
-1090.467773 -284.931671 1040.981934
-824.299194 205.434387 567.355469
-845.526917 -30.282633 665.501160
-785.736145 -23.493698 741.008972
-868.103210 338.066528 794.617371
-752.010803 -115.620819 720.243896
-1344.617798 -118.526260 781.997070
-1016.854309 -383.705383 1022.010010
-1240.626221 -19.138073 931.403748
-1069.787598 -347.190918 967.605835
-1018.486389 -367.617584 1004.026855
-768.176697 65.761330 909.987854
-908.910400 -20.893749 594.667175
-678.251953 -28.405788 895.058960
-1313.568970 -116.645195 833.603943
-1196.266602 -138.446289 960.983765
-1336.052124 -77.528320 788.410095
-1169.853394 -300.868500 812.020935
-824.600891 -47.797775 683.913940
-1188.664307 -347.532654 762.984619
-785.689636 287.950043 881.185791
-846.432251 192.316101 530.324402
-899.578369 80.323532 633.616760
-875.615051 132.897217 808.892456
-861.767090 69.047249 717.645508
-957.451172 -130.582108 1099.567139
-1105.624023 -132.039413 1053.687866
-766.678833 8.972757 868.582092
-589.161682 270.389587 955.258606
-561.018433 310.265076 934.060791
-755.170166 73.655952 902.587524
-1001.006958 -304.729370 1048.580688
-1228.674438 -99.930717 932.797974
-1123.740845 -254.799057 877.976135
-895.356873 196.236603 841.463745
-764.722046 6.278198 811.116455
-740.963013 295.601685 898.524414
-843.091431 76.862816 761.190674
-1240.666138 -243.031113 788.809082
-1358.416504 -44.943439 793.081482
-1221.295288 -148.987213 908.893066
-762.548828 -64.405411 742.322144
-780.337280 12.764570 828.245789
-601.060730 338.964722 890.861877
-989.104553 -378.225769 1063.984375
-881.160645 93.560127 712.042786
-1287.638794 2.657650 993.596436
-1280.476074 -183.556656 746.838501
-802.751343 168.616699 939.798767
-1128.885742 -337.069702 823.175293
-739.702026 -11.103814 838.836975
-1205.988037 -200.085419 875.429199
-1226.827515 -175.744873 865.153259
-1256.946533 -181.456573 867.868652
-692.314392 328.538483 875.838623
-641.760254 348.364441 886.325012
-708.369751 383.014832 810.756165
-698.513489 434.549133 763.512207
-875.624207 28.578999 683.927246
-740.755127 -67.112045 758.170227
-831.731506 385.354614 793.092651
-837.722351 356.935608 779.397400
-1144.311523 -275.171082 888.241882
-1306.011108 -4.255724 1020.544983
-533.373352 313.492706 961.462891
-1142.645020 -297.837341 923.574646
-1042.524292 -393.839355 932.185059
-660.133423 463.935730 775.592651
-687.357300 465.643433 757.194580
-1070.429688 -139.378342 1223.493774
-592.698792 357.844849 889.988831
-1254.032104 123.664459 1057.859619
-982.661804 -279.513458 1054.431763
-857.212830 -61.016678 624.702942
-597.285339 297.722809 943.226868
-654.903198 454.290802 775.953125
-775.031799 307.429108 862.103027
-1366.277100 -78.110886 781.402832
-812.449036 302.550720 854.689514
-921.332153 96.852150 652.666443
-974.232544 -301.589417 1164.483887
-1141.686646 -333.880981 781.299194
-653.382080 411.460999 804.455627
-883.877869 77.672577 675.261597
-605.120300 395.527649 845.749878
-766.644653 362.462830 795.852356
-1283.360474 14.881568 1008.753845
-801.416565 369.743347 791.146790
-805.198669 -14.314568 757.592041
-770.781189 404.668701 760.970398
-856.482788 65.091316 722.932190
-767.469177 -65.136749 768.321899
-1324.816040 189.729218 1216.436401
-705.246765 -124.590424 771.047668
-727.277405 -74.732170 786.668945
-912.865601 74.943428 643.875305
-888.618164 68.449722 697.119812
-748.015747 -33.174126 782.363892
-1244.511475 -10.033880 1059.226440
-812.117798 140.004623 931.510864
-731.235168 238.631439 929.834961
-879.146851 90.372276 685.047180
-1096.392212 -364.077728 865.945923
-819.650940 309.182251 855.158691
-770.618713 47.919804 863.175964
-1126.503174 -221.721191 1031.157227
-1079.023315 -365.121216 970.475403
-920.865479 163.739243 731.070496
-1228.693237 -39.450035 955.802368
-1102.480347 -61.556580 975.830750
-774.621277 29.626408 796.730713
-790.257324 -71.776711 676.182495
-784.585327 140.797150 999.612122
-1278.992432 -72.057999 925.286926
-1277.518188 -221.791580 777.250732
-1237.091064 -251.289001 780.009094
-1086.909302 -252.925644 1036.503418
-1307.641235 -140.198135 791.523743
-1338.059204 -86.807968 785.376953
-851.764343 346.648438 788.486511
-909.654297 77.561249 640.404785
-1132.794189 -324.715485 911.377686
-771.711670 21.557646 824.594238
-1142.981689 -376.002106 800.926636
-799.727600 389.030273 790.472778
-1196.983887 -268.641449 812.685120
-1327.826660 -64.488136 851.221008
-968.367126 -348.586121 1131.431152
-1076.794556 -338.346741 1025.204224
-702.956116 218.283264 960.487976
-1219.310425 -210.544830 912.159302
-1225.530762 -260.455292 786.923767
-1222.031860 -57.244747 973.419495
-840.650208 -11.386147 642.843079
