ply
format ascii 1.0
element vertex 1395
property float x
property float y
property float z
end_header
230.796387 309.466858 -1422.422485
202.020187 468.130585 -976.112549
-127.413742 825.683350 -753.763245
164.578018 213.232391 -1410.007690
153.218781 876.214172 -1479.868652
-1.814369 609.354797 -990.239075
22.973064 868.353333 -668.401489
233.828079 356.514709 -1430.862183
6.416014 319.210510 -1424.561157
-58.956497 517.059814 -1392.368286
168.873596 815.389404 -860.545227
38.761898 775.227600 -922.040466
218.042526 560.554077 -991.539917
114.184761 420.448425 -1402.944946
84.088142 284.321106 -1421.072876
-27.402664 348.727844 -1017.702881
-79.940605 839.942322 -744.899536
-44.130856 788.047546 -920.951599
243.607086 504.775879 -967.403198
156.964142 826.030884 -795.965088
106.842667 493.136749 -986.815308
58.166679 501.271332 -966.325439
257.912903 532.236450 -1452.612427
217.331146 497.464172 -973.196045
5.359728 327.111145 -979.196350
83.844505 720.539001 -1482.870483
38.165173 521.157898 -989.616699
258.142303 341.906494 -1441.489258
44.110378 726.497314 -1023.871277
169.047073 780.089478 -1463.211060
244.345856 498.164734 -1453.848022
114.441093 852.918823 -711.903625
131.076431 653.377502 -1463.495239
-29.330751 856.159668 -698.318176
-8.834606 872.942322 -699.748169
318.304382 537.999451 -1409.697632
-56.182747 377.261810 -976.671387
332.487335 475.381836 -1440.553833
-9.434867 649.732483 -1016.893616
108.078300 470.245117 -1450.632202
58.784363 488.247925 -967.030701
-38.443462 795.133240 -874.579712
-18.197620 787.752258 -915.224426
-166.475479 434.069031 -1424.225464
-36.103649 413.509003 -976.563782
172.971710 274.802643 -1419.202515
366.902771 492.286377 -1447.340820
-5.775187 252.458176 -1426.378540
77.794601 799.275146 -859.027893
6.802629 877.798523 -672.268738
134.037201 549.707886 -971.024475
-103.056503 665.361572 -1005.719727
292.528534 576.419373 -973.119934
79.029564 269.242401 -1419.606812
47.758499 856.502869 -694.611206
291.001801 610.693665 -771.524902
28.282724 390.039093 -967.644531
333.007446 431.420227 -1432.330811
83.989197 378.785248 -1435.337036
46.421825 448.112518 -985.883606
16.774534 650.542480 -998.876099
-3.378118 832.010132 -803.332764
152.412613 406.524353 -968.276123
-31.760391 784.492004 -909.301086
-144.617203 798.182861 -851.410034
-73.658333 406.341431 -1469.983154
76.625725 890.691467 -649.753723
47.056122 693.914368 -1011.475830
65.533081 357.877167 -1435.398926
123.396515 226.696823 -1414.735596
180.900375 245.169418 -1422.027222
57.606144 359.846893 -1440.892456
-1.215720 783.733398 -899.593933
12.075590 442.033600 -963.814148
72.132553 823.197327 -815.554260
47.586193 467.046021 -978.573669
78.084564 802.966980 -879.290039
109.748245 718.188843 -1468.394531
125.228714 324.467529 -1356.467651
273.684082 486.438538 -1432.115845
-84.564453 846.953491 -707.506287
170.356415 796.978333 -857.380920
65.069733 250.408539 -1425.006470
-87.305717 819.797729 -783.319336
106.165726 499.625793 -977.287292
-115.492706 796.536987 -895.295471
231.944473 665.908997 -1460.314819
131.189835 344.747620 -1423.135864
135.352814 698.694458 -1416.631348
171.852280 800.695190 -860.469360
-31.719004 509.191315 -1456.805420
-115.552109 325.079376 -1443.314087
138.209930 367.550354 -1426.692139
82.996613 288.816528 -1392.560669
56.652782 386.735168 -1412.209595
31.768072 842.694580 -736.535034
64.236137 846.930298 -730.613403
26.919682 319.204498 -1459.494629
101.027260 365.374023 -1382.377930
174.852890 556.092896 -980.147522
207.305374 730.547058 -1447.797729
-100.944023 805.178711 -819.612366
175.300629 790.924561 -880.605896
-28.042421 828.274475 -812.582703
85.482407 656.929382 -1003.921021
115.395744 814.738586 -852.346924
20.075226 348.899323 -1441.862427
167.701736 491.818604 -1462.601318
-38.459858 857.623413 -734.522888
295.090668 420.542236 -1436.306641
164.174744 830.327087 -836.277344
-137.069595 473.537109 -997.967529
111.526634 256.176178 -1406.571655
41.329441 670.366150 -1026.281372
-78.632858 343.832855 -1019.587036
64.833229 721.164734 -1022.539978
223.227432 867.821350 -1502.557983
-88.775177 473.282196 -1454.861328
346.230408 487.002502 -1427.442627
44.303322 229.886505 -1426.339478
-21.028919 539.139343 -1464.493286
82.217506 762.100281 -1043.292847
-134.530975 568.046204 -1001.613586
159.692032 206.548157 -1412.824097
66.483734 495.205750 -991.088684
73.558205 649.996887 -1027.657959
190.188461 451.846252 -969.818848
-46.317310 795.486572 -921.315979
-49.633801 869.595093 -680.273010
136.465866 568.336060 -1430.482056
122.213608 884.073242 -680.401794
181.560822 820.534668 -802.242004
19.277554 295.847260 -1445.758911
11.003289 814.096924 -827.236755
139.341034 338.301819 -1418.812256
-6.288734 800.223511 -925.696350
152.198013 429.744659 -960.377258
55.393368 485.583252 -1436.729004
103.475288 860.391846 -699.085022
44.875271 780.324280 -905.967102
139.293030 546.418091 -976.897339
59.362171 801.796143 -898.321594
72.856796 233.297668 -1409.201416
-72.668541 465.904938 -982.057312
-83.607094 452.104401 -1445.775879
-122.370537 523.973145 -1450.785767
-129.260269 782.328613 -890.290527
41.617981 288.479309 -1429.642456
92.072769 539.735352 -1416.565796
-96.163742 410.334839 -1451.446655
-169.065491 814.977173 -795.204590
125.177399 464.482178 -968.898926
-222.977402 437.432434 -1467.028198
139.171494 374.579376 -989.528931
131.018814 296.482178 -1418.055908
-95.383492 487.692505 -1397.085449
-11.708708 507.712616 -984.466675
236.947098 509.416107 -973.914124
36.827053 815.799622 -836.819153
-100.914223 490.454865 -1442.731079
3.771214 525.516907 -1441.145142
110.647934 433.053955 -958.749268
213.735565 526.824036 -986.094116
72.816177 841.091614 -747.464661
-19.983429 272.983429 -1433.870605
210.897385 449.108063 -991.539795
6.130195 815.473389 -838.928223
-109.233536 380.454041 -993.423889
-51.326630 813.854431 -850.628967
72.475754 605.736572 -1006.649292
53.921154 811.545837 -860.071228
201.848145 404.403961 -1425.777100
174.532471 219.604462 -1421.734741
39.023090 493.198120 -1338.975098
-93.754715 470.813477 -1009.936096
87.602631 405.465851 -968.814880
321.666107 390.724335 -1441.119385
102.339813 844.379150 -739.017700
44.064209 501.048401 -980.176453
-98.422295 354.565582 -1461.421143
-6.244354 434.465698 -1461.451050
-126.816391 591.660095 -1013.968262
143.659317 376.770599 -981.108276
135.646454 869.001648 -687.924500
-145.147980 460.567413 -1424.885498
189.453094 907.094421 -1491.845825
-164.368240 435.760345 -1453.364380
172.824875 468.368073 -1458.354980
262.652924 492.408844 -1447.665771
-15.834890 823.424561 -802.740051
81.348846 606.766357 -1006.228516
147.947144 833.518494 -800.815796
79.959869 807.790039 -867.545898
-12.583032 418.744202 -975.267700
-75.146469 836.860229 -781.353027
-61.630589 483.060974 -990.560913
220.035889 552.618225 -1454.338867
-47.548637 675.327454 -1420.642944
120.524345 372.578247 -983.008972
-43.298622 815.852661 -847.040588
99.909294 506.754059 -1438.333252
143.947510 703.325378 -1022.295532
143.805862 838.260315 -762.433716
126.909790 886.121399 -677.432373
-128.803818 531.787292 -1450.645264
42.721172 818.341858 -829.401611
179.136826 425.011292 -1454.212158
-63.102875 299.332764 -1436.297729
-78.395561 463.813690 -986.744263
63.729427 525.016602 -996.191467
170.463272 791.692017 -1457.838501
66.645454 562.510925 -987.577698
-50.991142 816.257080 -832.136292
32.157314 718.148315 -1045.321167
12.746738 870.427002 -698.974915
228.264847 492.876495 -1458.925171
65.478111 838.718811 -765.700867
235.513351 331.996460 -1426.542480
120.261871 642.186646 -1411.299072
312.948303 443.928711 -1439.084106
399.078766 571.019470 -1431.644409
49.873161 813.996826 -845.444214
104.509506 579.956238 -1433.202881
148.712555 306.047821 -1424.410156
62.510582 894.848450 -666.003174
165.153458 525.361023 -1440.962524
58.620564 917.802979 -1492.999878
128.631729 252.019379 -1410.656372
13.111986 412.160156 -973.605652
118.483643 354.963928 -1404.752197
173.412506 526.202332 -990.429321
214.399567 764.427307 -1489.124268
223.319458 546.825439 -971.716492
-122.022812 688.375977 -1038.161255
-158.586075 418.066467 -1429.918823
-151.510330 675.034363 -1031.096191
43.585205 881.372375 -664.677734
39.695400 868.179871 -670.711548
349.945465 454.466919 -1422.375732
28.568941 595.696716 -997.180481
143.650238 848.049194 -749.520630
312.191040 597.209473 -1459.696045
5.802429 373.062622 -1470.894165
157.619614 421.053741 -1459.514893
154.606094 265.969574 -1414.884033
183.319641 564.434753 -1451.114746
74.274864 410.651428 -979.441833
-126.723595 826.463867 -788.372253
349.743896 563.648865 -1452.898193
166.956192 415.382813 -964.573120
232.443390 292.556274 -1423.433960
164.706070 552.071045 -1458.324951
114.840561 476.427734 -988.507507
-104.214340 419.314545 -1455.657349
215.821533 568.397522 -1441.657837
119.165222 805.441345 -832.261414
150.326691 430.233734 -982.723877
163.671402 366.748627 -989.353027
306.145660 548.923767 -1416.560547
-134.923553 648.767944 -1002.842102
31.113680 480.965088 -991.739563
96.344734 857.818665 -685.804626
167.093094 398.326050 -1443.291382
-73.487366 469.060211 -1444.021240
131.298447 620.311035 -1416.187500
-38.237865 347.825226 -1446.420776
216.921890 420.519836 -1456.614868
17.047651 306.759979 -1457.994385
13.628935 528.604187 -1448.626953
95.515114 691.378418 -998.251221
-5.045965 493.382721 -969.197937
-66.916641 815.503784 -807.091797
94.124275 823.547607 -803.272705
178.089294 435.133514 -978.457825
20.989265 784.243408 -922.661804
123.780579 798.791687 -900.228760
-51.069859 441.160156 -965.370667
-57.720497 447.170258 -1460.465454
66.341141 818.965759 -856.379700
117.286484 308.165863 -1364.787598
115.841408 801.934265 -885.413391
-168.227646 842.305420 -722.591064
-95.075630 785.985779 -941.139038
47.377476 803.211792 -881.257629
70.812546 225.123260 -1439.128052
221.052048 475.998962 -979.117493
114.908058 578.979309 -1424.291138
-132.916550 401.833557 -981.152771
185.385391 816.732178 -879.844666
137.511795 813.752930 -841.922424
0.200687 814.318481 -858.989685
142.054031 864.116577 -714.026794
198.582199 774.607666 -913.665894
-39.186352 855.740967 -707.316528
273.676514 514.501404 -1444.938843
47.131760 371.192749 -1418.817871
95.627289 463.802429 -973.338379
358.147552 583.883179 -1406.856567
183.199539 831.532166 -768.908875
10.981385 843.938477 -763.350586
-159.694122 510.041718 -1461.845459
-142.699112 834.549072 -770.037354
35.217514 531.507507 -984.623901
72.478996 413.286224 -980.200562
222.957718 642.284119 -1004.292969
62.150188 412.863525 -969.357239
68.618843 494.168030 -980.826416
22.429667 805.313782 -871.985657
206.914337 479.769562 -1463.002441
173.460083 561.731384 -1414.207275
218.263687 445.384186 -1447.843872
-48.669006 326.883545 -1428.906128
-91.553635 432.687286 -1453.148071
114.451912 447.654846 -1410.608887
-37.790707 440.352875 -1470.954956
77.839790 274.096313 -1408.106689
-0.287880 226.615921 -1413.179688
-9.798075 848.588135 -751.641724
128.470627 268.736115 -1382.016968
89.522255 716.289307 -1011.932556
131.561630 419.592865 -1457.617798
212.222794 472.190186 -975.880554
53.245007 566.922607 -1004.476929
188.505798 796.130798 -873.045959
118.193573 377.451965 -976.574585
245.271164 576.839600 -1406.823242
97.734222 243.511261 -1439.409180
99.947273 497.936462 -967.119507
26.462927 419.975555 -976.003662
379.897156 525.816528 -1451.083862
121.880516 256.162903 -1413.824829
100.423943 387.760345 -979.829773
232.675873 557.206299 -1400.353271
141.033157 569.729065 -991.631714
76.377502 798.490112 -855.051331
-77.741013 817.605408 -829.736572
-11.241707 618.050476 -1022.988525
369.915497 466.061523 -1447.278320
254.496918 559.668823 -1451.326538
-107.130463 372.554932 -996.096924
253.810776 550.960754 -1413.289063
-75.089294 852.209351 -733.205200
105.090889 199.392502 -1402.614380
3.264037 274.600861 -1416.171631
-37.274361 293.722168 -1437.368286
-95.007088 472.181030 -991.748718
69.970535 466.716949 -975.297180
-144.893616 448.093170 -1411.252441
-68.178421 465.877167 -1000.209656
-43.159264 811.979797 -841.968140
95.964622 612.612976 -994.326416
-129.604782 494.347778 -1452.585205
-61.564728 305.304474 -1424.420410
73.951576 389.276764 -976.535400
-12.856048 838.933533 -777.022705
42.731236 817.498047 -799.362549
-170.948822 397.192963 -1461.672729
309.469635 609.133179 -1465.588135
-30.385773 381.888306 -1463.450684
30.580299 608.257629 -1012.902222
98.991516 484.062897 -972.625488
48.183395 309.042267 -1430.979736
-62.779224 434.579437 -1459.798462
-28.464640 625.041138 -1025.006714
-21.098154 837.489807 -792.974731
-75.799820 552.121033 -986.748779
196.552353 450.402344 -970.183838
142.277283 269.615356 -1421.690674
145.802734 399.782318 -970.755859
50.684608 530.520142 -998.358704
182.080109 412.186310 -1433.615845
148.929779 858.733276 -723.628845
2.430485 453.765137 -1473.749268
287.577148 378.375488 -1440.371704
-123.919556 779.469910 -923.821655
269.299835 572.679688 -1408.847656
-21.311417 423.565857 -995.173706
224.570953 548.801331 -1457.833862
-36.399910 627.162415 -1013.001892
100.065475 411.035492 -967.086243
30.244148 355.542542 -991.950562
98.106331 842.670105 -1423.649902
-14.237506 724.201721 -1010.224915
115.125237 531.204285 -986.765869
243.343201 536.102539 -1432.635498
16.545689 836.849976 -753.999878
250.848129 344.562927 -1435.857422
102.240105 829.641479 -797.226379
-5.533375 531.502441 -1437.864014
210.421188 472.211945 -981.617920
-42.124531 718.122192 -1033.269775
123.855164 473.376312 -963.622925
253.887558 391.990875 -1443.329346
67.323059 798.561157 -856.287170
-0.177327 483.974274 -1457.349976
-81.702293 830.477478 -791.038391
95.518944 612.703918 -987.735718
-46.954483 678.234192 -1035.133057
-23.464437 406.744812 -994.431519
146.457779 853.065063 -713.914307
200.389694 804.316162 -1485.187134
134.093719 203.644623 -1409.922363
8.232601 822.060486 -811.490234
12.988895 252.967850 -1429.770020
-34.868011 809.289185 -861.669373
27.492662 872.303528 -667.759583
109.352020 816.814636 -824.096863
408.435028 535.843506 -1441.473267
35.400307 475.354187 -964.211792
-4.719542 854.152893 -733.648499
-100.052315 802.399048 -837.532227
141.294968 621.128662 -1005.565430
-8.983292 526.658203 -991.393127
57.345188 296.885895 -1427.643799
124.531914 643.880676 -1001.948547
39.571045 340.562256 -997.967468
-97.380615 514.052124 -999.687805
104.463715 839.324341 -788.757751
188.190872 399.554413 -975.014404
91.196396 251.045609 -1418.660889
193.778900 403.236755 -1458.231445
2.944599 869.985229 -674.038025
216.745789 693.911804 -1485.658691
101.630554 825.646118 -772.953979
25.043280 830.093445 -986.785645
152.584213 836.187500 -734.902588
152.429779 327.220123 -1430.931885
114.413071 484.677704 -964.789124
25.915533 815.901855 -909.950012
-187.822220 389.348511 -1463.467407
84.568687 804.382080 -839.714539
139.432022 811.709778 -850.514893
-15.918412 390.864136 -971.010132
12.421200 505.834137 -1006.890381
-39.583809 406.117157 -1453.155273
32.560123 821.793457 -840.329346
82.913803 670.448730 -1003.923035
64.135017 822.745605 -818.581421
-90.029984 484.808594 -1418.144897
256.039154 311.317841 -1434.212524
-42.348598 800.365417 -876.315552
185.586227 815.860352 -818.570679
15.850772 320.368439 -1439.227661
-80.928085 845.772095 -705.177979
184.913773 469.110748 -1460.932739
220.698944 398.975708 -985.634155
-73.298714 430.109070 -1472.892944
125.756584 518.956360 -969.967346
165.056732 270.965027 -1420.566162
218.254272 543.444763 -988.076843
-146.806381 433.458221 -1363.101318
120.908875 469.255920 -960.099670
-88.601128 907.573059 -674.981628
233.898285 844.659424 -1498.859619
94.355438 432.878143 -1425.166138
142.687073 838.148254 -760.416870
-60.358433 489.447510 -1445.416260
135.325897 549.131836 -979.086060
371.175934 520.344727 -1445.614014
-37.275356 557.538940 -996.418762
-98.485512 404.324463 -988.882019
-21.243843 795.586853 -941.025391
126.210785 809.241577 -853.758362
-108.034286 389.040253 -970.402954
88.241234 367.847870 -1368.260132
-22.239492 810.709961 -896.883240
63.263779 818.496460 -806.167542
163.468719 756.163879 -1482.571045
-1.260902 678.804138 -1029.582886
96.273506 412.726990 -1292.441528
101.118874 807.036743 -905.234924
-44.243233 390.800110 -1451.243042
-71.779968 632.127625 -1470.974609
-21.712669 609.073914 -1006.208984
31.497927 834.299072 -798.043030
-181.112473 432.205933 -1432.131226
-25.170000 349.035065 -1446.074097
100.890015 810.849304 -1421.450928
229.207901 603.817627 -974.496216
22.537132 818.687622 -833.370972
130.098297 230.028519 -1418.052124
91.746384 281.485077 -1427.386475
213.468399 423.861725 -970.736450
117.388947 606.774109 -1420.608765
109.455727 805.176636 -876.589111
-35.424198 501.384094 -984.778137
-146.994522 477.160583 -994.904724
266.248444 559.197754 -1405.290649
375.187836 596.362915 -1444.360962
119.155640 399.356445 -989.093262
3.710505 844.078247 -728.581116
85.010094 262.839783 -1399.934570
-109.470970 852.370544 -705.551880
127.456459 643.606445 -1488.683960
269.372070 705.546448 -804.080505
-73.237633 656.147766 -1033.500732
197.658310 760.773987 -1480.365601
230.750565 524.052795 -1450.725220
-154.986313 603.406433 -1015.364258
184.813782 578.960083 -988.251099
-44.252342 341.628235 -1443.680420
-81.026985 467.722748 -1000.759583
185.798019 473.964142 -982.196289
82.324173 890.242188 -672.477478
-121.451248 848.360840 -742.838013
55.147392 428.490631 -989.123596
42.255733 403.764282 -965.722229
-71.450233 649.575134 -1020.805786
180.036835 659.215271 -999.496765
214.880692 536.684143 -974.464783
107.297356 879.380249 -1449.548584
144.619858 624.949524 -992.117188
35.487782 437.617798 -991.627441
111.551620 445.755920 -971.125244
-104.178703 703.299927 -1055.901001
55.777370 810.505676 -867.685669
-100.709488 834.134338 -817.283936
210.267624 596.663452 -1438.682495
107.440201 290.070648 -1412.144531
277.384216 350.023682 -1434.140381
-60.862064 725.221802 -1033.984009
56.735889 421.476624 -969.670349
38.059723 648.780640 -1006.270752
35.230762 599.302063 -988.831299
291.523071 395.198059 -1440.967407
-8.156271 540.816284 -1442.644897
222.466812 476.033508 -969.215698
213.457642 543.203064 -1464.838745
182.063614 608.228821 -1411.293945
-54.266743 536.235901 -1433.327271
-153.210098 821.063538 -774.941223
-19.099165 259.816803 -1419.598877
311.904724 449.654663 -1437.620728
-158.165161 780.284485 -907.095154
-85.248947 452.401978 -988.034302
-46.834755 510.300659 -986.761536
150.356369 356.609039 -1395.688721
157.421005 801.055237 -903.380249
97.682487 790.321472 -943.302856
120.618233 481.280914 -993.239380
210.176788 794.521667 -1476.338135
25.972221 402.037598 -970.608887
21.163588 858.997986 -704.352844
126.939850 840.311340 -764.815430
57.698830 479.733490 -1400.127686
390.268951 589.157166 -1452.447998
104.932281 842.691772 -735.236450
141.180649 465.185883 -969.133301
-134.437805 351.552094 -1452.914429
32.408855 853.775757 -702.377747
-188.272491 408.635742 -1424.008179
-12.597100 489.893402 -1006.550049
-141.273834 813.871643 -780.809875
49.997990 890.540344 -664.398193
-20.139374 807.439758 -874.548828
-97.130035 602.801208 -1382.001343
124.778206 572.598450 -994.499878
-41.869564 450.006897 -1444.623779
147.891052 397.718842 -970.579102
85.503296 415.374542 -1432.922729
-151.950272 616.623535 -1495.760620
-99.056450 804.016296 -819.363159
-151.121735 383.504089 -1449.385254
-133.737518 335.391785 -1435.893066
-140.095520 495.357147 -984.685608
98.197113 693.322327 -1016.958618
59.685268 686.813904 -1027.631958
14.570250 558.748474 -990.941711
89.005005 455.486084 -991.960144
34.186623 493.606262 -1455.272705
130.082092 703.907043 -1011.125916
-28.779434 697.935425 -1023.005554
116.759102 468.929016 -1439.473145
13.297608 470.678833 -1000.626648
321.672760 424.002686 -1443.273560
-49.042439 630.367554 -1028.208374
-74.951065 312.914429 -1441.033447
244.552933 297.424988 -1430.560913
184.962372 806.564270 -1469.102539
331.953369 566.237671 -1404.389526
-0.713018 407.418671 -1450.650635
158.814926 830.468201 -784.527344
157.224701 363.096100 -989.333618
213.555222 290.360413 -1422.230713
235.458954 473.403259 -973.789612
246.223465 371.707458 -1416.225220
-142.914566 399.697540 -993.797852
47.440781 727.833008 -1033.900513
69.001785 595.406433 -991.193298
192.358948 767.082764 -1471.926636
48.133968 447.166382 -974.397034
-95.645920 523.475098 -997.582703
49.093678 838.546692 -766.254333
12.277886 585.197815 -1011.835510
142.177689 363.643555 -1449.059326
14.693162 419.837036 -976.988464
184.616531 697.472046 -1489.007935
-160.982056 836.791870 -741.252808
-40.998585 483.014832 -1459.439453
-7.575505 343.879730 -1441.649780
-31.862513 739.178467 -1012.470337
-34.751907 567.181519 -1447.515381
214.249725 876.440063 -1509.058594
138.631683 348.380371 -1428.729980
-42.899220 800.715515 -892.327087
-137.637680 441.195343 -1445.140625
51.637383 814.434326 -837.006958
222.399551 455.122131 -1446.643188
-94.724518 814.582214 -802.888428
32.477043 375.664276 -1412.263062
121.181244 862.840210 -719.805542
129.011780 461.793640 -985.616760
58.907097 809.291626 -888.407532
1.175781 849.028442 -739.230408
239.573181 454.635803 -998.903992
-103.217888 553.579834 -1452.727783
-11.202968 515.554993 -1446.459595
53.233295 723.749207 -1033.487061
25.307343 580.108887 -1002.127136
-3.707689 404.427856 -1466.534058
-56.306637 349.186768 -1448.604736
142.475861 453.823883 -981.026550
132.157471 681.647034 -1486.283569
71.836510 818.441895 -837.345581
122.766907 379.295135 -1406.324707
125.389557 389.131012 -990.587769
-58.905449 813.289978 -861.220093
210.784134 635.205566 -1432.697876
-158.634995 533.114258 -1472.341675
96.320992 419.312988 -959.468079
-174.184616 525.457825 -1454.506470
291.234528 630.750244 -1454.718872
-44.616695 448.802063 -968.937744
103.370834 456.748260 -973.586426
115.980141 701.230042 -1475.733398
185.826553 570.950195 -1401.457275
210.401443 703.218994 -1013.345276
391.230225 531.030823 -1452.369995
337.777527 555.022888 -1388.037354
87.404305 403.953918 -1272.354248
203.717331 808.077454 -860.130798
337.216187 482.995758 -1449.496338
-101.121780 397.989563 -1009.594666
353.722229 563.666504 -1452.920410
158.803619 677.210571 -1014.740417
-71.864624 660.582520 -1026.280396
128.881699 342.938477 -988.991577
163.260391 503.667145 -979.439697
34.779015 802.660034 -899.296753
169.030151 468.047272 -975.005127
265.910370 407.598846 -1443.758057
117.833374 592.052856 -1393.841919
139.207199 382.900940 -978.842468
106.177895 612.915222 -1007.744507
142.455826 803.564636 -834.445618
-95.735046 356.064728 -1446.481323
-74.809929 435.562317 -1474.123047
265.824951 633.126587 -1454.931152
-12.664196 831.407837 -811.716858
129.935440 382.717072 -995.604980
67.100235 299.136993 -1408.567261
152.358688 812.605469 -894.862976
24.233038 831.326111 -772.359924
206.212234 815.595703 -789.332581
17.090712 648.427307 -1024.328979
4.843584 247.181015 -1430.659058
72.214661 479.229309 -976.491394
-112.533348 509.624268 -988.238098
251.003906 303.594055 -1405.985474
97.593269 851.616577 -723.289185
180.295319 650.786743 -1004.814392
-152.542328 422.429230 -1428.750488
64.747871 832.584167 -789.884949
111.516914 483.042694 -1453.738281
-29.653490 463.786072 -1462.057983
-29.028448 639.769775 -1383.176147
104.052055 810.663391 -893.087158
-35.257244 843.696533 -733.058350
-80.220551 638.741516 -1015.774719
147.199860 418.338898 -987.561523
-10.056297 328.317078 -1457.635254
347.842163 479.765961 -1441.381592
274.018066 533.550537 -1449.853027
233.011917 572.628418 -1417.225098
-84.728188 782.809509 -917.718933
132.764420 844.194397 -747.738037
-3.015179 611.379333 -1003.423706
24.593641 734.829651 -1024.130371
17.645393 361.373016 -976.543335
-29.651913 511.804810 -1002.061829
-103.565948 443.320526 -1009.321899
241.416504 496.773804 -980.161926
273.572815 431.232635 -1451.228394
114.624130 845.802490 -747.814331
259.190582 559.049255 -952.195435
100.138123 826.851013 -799.270508
145.255920 798.854980 -870.938232
129.064392 849.196655 -747.314270
-154.021988 792.331665 -890.752258
88.151001 534.987610 -1441.349121
19.116459 380.586884 -975.583862
-180.658691 803.285217 -815.845642
221.987579 322.713501 -1430.798340
19.947475 821.402283 -832.143982
69.311523 276.581665 -1426.110840
285.432617 701.306946 -773.263672
116.970078 768.425232 -1043.350464
-137.185532 407.623596 -1454.937012
-39.107533 797.662659 -908.629517
0.074094 382.605591 -1447.293579
91.377174 377.296204 -1355.179443
213.608551 604.923401 -998.750549
-105.702454 775.288208 -919.875549
240.864349 540.149597 -1408.530151
136.244507 296.218201 -1414.699829
232.736206 372.669647 -1420.573120
160.987671 861.184692 -715.463013
109.675903 385.736176 -991.045532
122.824776 810.131104 -895.922974
-5.360798 525.214966 -1410.674561
-127.786751 440.431793 -1448.852051
43.969051 509.748993 -1369.293579
-58.278522 863.052612 -703.930969
-25.182148 840.539551 -758.013855
-20.482349 415.347595 -961.953613
67.354729 229.774063 -1418.927856
197.585327 692.518738 -1465.575806
6.497433 868.150085 -705.469849
-135.972778 395.442078 -1435.164185
57.782463 456.470673 -1223.798950
142.639542 788.355469 -909.559021
65.512672 284.502777 -1412.000488
10.968567 816.253235 -869.668884
53.877567 612.410034 -1333.653442
267.569672 548.743713 -1441.357422
34.410526 546.442200 -1455.275757
100.001572 357.579468 -983.246765
260.529175 492.395569 -978.306091
-50.091122 420.247192 -977.361206
126.345680 828.062012 -782.204773
272.181488 543.797119 -1433.508545
230.995453 805.837769 -1482.363892
114.048470 793.281982 -902.203003
284.289703 447.345947 -1428.482178
-154.411133 454.648804 -1451.556274
-46.389084 406.622742 -1442.455078
-71.516502 480.113007 -1459.377075
69.614418 429.335571 -1433.390015
230.129333 360.758453 -1432.941772
239.964844 363.446167 -1431.753784
-79.454674 781.902954 -919.277283
142.687317 411.328491 -971.975769
159.276733 864.984985 -708.402710
186.211548 279.616974 -1410.502808
272.934570 320.567535 -1436.658447
122.340347 839.977600 -755.506653
257.941895 366.957001 -1436.051880
-103.406319 825.178101 -806.616577
197.928848 399.081207 -982.548157
183.617508 545.446411 -1383.862671
-5.287894 801.819885 -890.260010
219.911682 323.565247 -1443.102051
-75.517754 414.022186 -985.201782
335.288086 501.153442 -1415.904419
376.137848 520.763428 -1443.368286
-3.861468 482.619751 -984.863037
45.418495 446.757080 -994.620605
-151.853867 367.309814 -1458.552490
156.873169 729.022888 -1442.696045
164.313995 814.580078 -827.539978
33.892994 452.696533 -987.520386
143.858978 243.178391 -1416.798584
-78.280312 598.219238 -1025.699463
62.207840 467.129761 -1395.951050
222.723053 377.695923 -1435.439209
14.741492 426.459473 -1453.731201
-45.618217 534.796265 -1011.463318
-52.284538 812.940308 -822.584351
311.158875 567.339417 -1416.576416
-5.446905 345.219391 -1431.417114
113.521492 257.650543 -1427.623779
388.386627 510.317963 -1442.525879
151.102081 845.100037 -727.248901
14.896202 418.666901 -1438.012695
195.069031 408.013184 -1443.905396
223.073975 431.587921 -985.039917
168.558899 381.958740 -1436.740601
-58.726143 417.280945 -1454.009644
115.258949 250.006943 -1437.787354
-71.636307 397.263031 -1000.323303
25.055847 540.175598 -1413.821655
-66.624008 319.863708 -1428.641846
14.388783 359.731232 -1441.814209
238.509003 502.002106 -983.349731
-117.122696 434.063538 -1457.862549
126.608940 558.533203 -1470.985840
-120.195503 410.337067 -976.224426
210.196716 357.395569 -1446.497192
178.942734 514.038940 -1440.764282
59.676189 856.319275 -716.131714
289.367188 375.677185 -1416.682495
107.253700 593.968872 -983.918823
-3.411611 864.381958 -694.105469
-48.428558 880.777527 -708.378479
-4.035604 338.977051 -1009.410156
6.554339 790.457397 -883.845581
-47.764301 452.479828 -976.847534
-106.987450 486.290680 -1458.367432
61.967518 495.606628 -1282.478760
174.741165 481.537109 -1468.693726
316.775421 539.731750 -1410.129639
145.001389 235.758682 -1414.350098
58.116859 793.057373 -878.108154
281.055176 547.268921 -964.899597
134.114151 561.670227 -1371.717285
59.210854 808.935608 -873.303955
259.083893 592.099976 -968.877686
-149.317947 656.029480 -1027.717773
314.144775 526.533508 -1429.655884
214.196777 295.878326 -1425.656494
337.652771 413.666870 -1429.036987
206.103363 537.171631 -986.802185
-124.323555 403.012970 -1453.782104
-125.786728 565.261597 -1468.197021
195.291977 769.310242 -1485.382080
-139.971710 835.915283 -734.831604
165.872925 644.236755 -993.649475
-25.772999 406.916656 -997.792114
-131.107819 438.392120 -1453.725952
270.141479 561.238403 -867.759155
138.864120 811.784973 -874.689636
141.033432 796.942871 -856.417419
53.648834 809.539673 -821.968262
198.122864 535.050049 -964.650452
136.019180 308.260040 -1425.049072
131.222382 714.376831 -1471.370361
197.092194 706.050781 -1492.043945
-64.899773 852.403809 -708.465027
198.685272 718.831787 -1018.595276
60.856586 511.627777 -980.520081
374.149811 492.252838 -1440.295776
-123.865555 813.759155 -791.981323
82.288132 431.262604 -972.200256
271.670898 676.758484 -826.263733
137.165726 808.219055 -854.473999
320.091339 518.675476 -1410.898071
-81.510948 580.235107 -1009.458862
376.608429 557.265564 -1454.928223
99.941063 347.997894 -1423.267090
-125.408104 500.862701 -1432.352173
173.984863 552.671021 -1468.432983
355.374207 524.054871 -1441.048096
69.374016 506.931244 -991.384888
132.026169 821.714111 -821.230042
136.418015 836.953491 -753.549316
10.538215 705.623413 -1020.540405
206.062088 283.011139 -1420.239624
57.630192 634.434753 -1011.688843
292.502625 343.331116 -1437.866211
-115.526619 501.339050 -995.869751
184.607239 379.952667 -997.250366
94.470741 565.040588 -1010.056519
127.345284 804.595398 -859.644897
-114.019096 641.098511 -1045.464233
-81.250618 415.374237 -1471.821289
-127.771492 479.490082 -996.645020
101.726181 282.181824 -1399.887207
-97.389008 599.174500 -1037.267578
-135.556931 573.408447 -1012.815857
-40.961060 707.546814 -1009.842407
-92.772369 808.563965 -819.138794
68.916901 856.299927 -703.413818
152.988754 499.787994 -1471.154785
-60.475685 486.156311 -1386.582031
102.524979 602.098145 -1004.058411
-50.480762 529.066223 -1384.395996
120.852356 466.034332 -962.043152
87.847618 657.139038 -1020.006653
-43.269978 415.008026 -995.640381
213.887039 513.198425 -976.797791
-61.011410 814.911743 -853.642151
-82.395729 444.998505 -983.143677
-6.931080 398.462769 -975.205261
289.058044 661.250549 -788.584778
74.049492 890.837524 -677.447876
-122.302170 814.783752 -780.046204
204.007492 276.042145 -1409.170654
90.594521 886.844360 -675.434570
133.894363 474.118408 -1466.046143
117.598389 877.738525 -670.707886
-73.058594 561.147156 -1018.123962
173.797729 705.713074 -1453.641113
-82.315254 620.880493 -1029.784302
90.338661 820.455505 -820.556946
-49.649136 797.891663 -904.218567
27.916061 449.986511 -974.069153
54.669643 430.766846 -965.095520
344.687653 475.796387 -1445.649048
131.732239 612.909607 -992.917603
196.977036 569.592896 -982.376099
-43.250114 850.728943 -742.396057
-33.591171 801.880615 -874.770508
245.346069 656.222107 -977.762207
-62.976349 798.134460 -897.727844
-65.625595 342.835724 -1003.005920
343.020905 580.507019 -1415.325562
151.087189 522.637756 -1468.641357
380.775909 521.202637 -1428.681396
172.572495 850.655518 -772.860779
-161.444733 540.125732 -998.390015
314.237793 524.910339 -1427.339844
111.871788 618.231995 -983.614624
-100.623772 459.539917 -1462.300049
141.859192 856.208252 -698.434082
176.472412 710.284363 -1018.664368
163.799591 824.138733 -836.335388
129.113754 813.304077 -844.150452
8.583421 836.385132 -741.782166
56.912392 426.298859 -1464.616333
333.815277 597.536194 -1446.110718
-34.862930 712.111328 -1037.944702
227.909363 612.947693 -986.315125
-54.685608 464.428040 -982.559021
21.009146 517.627380 -1453.577026
-19.388155 402.827393 -1455.586670
79.110283 841.001587 -750.788330
-51.441612 587.598816 -1448.196167
108.880478 824.477051 -809.042664
-67.353279 869.073242 -702.994202
199.029633 482.532379 -1450.110840
100.378960 888.610657 -678.262573
103.390984 816.654785 -845.454163
122.723999 438.697266 -969.949463
85.615570 675.805969 -1015.866272
177.979828 456.825836 -968.545105
205.588333 445.150452 -1461.954712
125.414497 516.377441 -989.115112
167.410370 509.383331 -971.565002
56.796944 700.445618 -1001.594604
-48.283440 735.849365 -1029.510498
-60.173107 563.872131 -1002.080994
25.656918 623.285461 -1011.001709
-71.487946 871.147034 -700.465210
334.700439 633.220581 -1457.229736
-100.404350 428.586334 -1472.022949
279.759064 462.158722 -1451.273804
93.615334 841.067200 -734.625732
-119.339279 388.713257 -984.389160
-72.790367 492.272156 -1415.773071
154.871445 831.305298 -772.129028
74.079033 267.261566 -1435.079834
177.184692 566.626282 -985.052307
26.777405 845.065186 -1046.696289
186.223816 521.727783 -994.724121
158.110611 835.651672 -809.691467
94.581871 431.193542 -980.782837
173.952438 394.725891 -979.128845
166.057739 419.232178 -973.281616
144.764313 538.127625 -1442.138062
-146.361282 368.793640 -1453.633057
-11.998336 285.530609 -1435.242065
204.911911 412.883026 -972.740479
82.585602 538.975830 -981.047241
-118.919006 694.168213 -1498.106201
151.455734 564.920471 -1440.643311
-96.978500 633.034241 -1019.979187
-83.005859 645.714294 -1045.894897
9.250270 871.821777 -678.035339
82.427299 747.711670 -1024.234253
60.884228 435.230560 -991.852051
25.699558 557.825195 -1341.849854
175.140259 603.900818 -989.333679
-63.249397 470.408752 -1463.734741
-16.434164 310.401398 -1423.132324
339.199585 594.870789 -1420.320313
124.187828 538.365234 -988.296326
43.682652 534.452209 -1436.089355
124.761902 599.565735 -998.529541
200.087128 909.246948 -1491.760864
-131.935272 851.082458 -701.494446
-40.772713 872.076904 -674.278198
-51.139168 851.204346 -705.101440
73.909645 267.554688 -1409.734375
144.912720 498.113068 -974.009216
259.870605 598.851990 -942.104004
92.085960 812.455994 -869.336731
47.525917 617.195618 -1014.929688
-2.824172 399.558868 -974.749573
258.799377 342.907257 -1426.859497
1.344266 871.777039 -1060.942993
102.462219 363.721832 -1394.240356
-121.754135 439.370544 -1458.108276
-95.528343 790.981262 -893.872314
76.667206 275.852905 -1448.278931
111.679962 512.831116 -967.558411
155.811569 545.039001 -972.885437
47.304424 452.340424 -1442.280640
-10.064542 638.696655 -996.122314
22.767359 259.042999 -1431.293091
182.584824 544.408203 -1472.606201
150.524536 840.651001 -760.425598
-123.971130 440.609009 -1439.333618
27.792479 816.333191 -822.586548
356.555603 506.821198 -1438.463623
-4.593871 384.584106 -980.889893
235.312698 461.846344 -983.415588
193.458588 374.636353 -1439.277954
194.240341 301.800873 -1430.540771
128.699020 532.607910 -1275.358276
121.644257 460.366425 -1452.750488
-165.946472 682.820740 -1499.962280
233.443192 922.227539 -1493.195557
158.007782 419.753662 -1433.264648
132.700653 340.505524 -1434.794922
-41.565651 451.277740 -965.640442
119.791519 302.801941 -1405.505371
188.177628 441.594788 -1447.934326
-72.081604 529.009155 -1009.408936
275.548279 564.286072 -1434.380249
-8.923710 864.498840 -687.054993
189.683716 383.613190 -1020.320007
25.931232 820.497192 -826.835632
66.118858 384.201599 -973.737366
24.473192 861.486938 -716.967834
153.798645 822.823425 -804.657471
135.235992 252.666718 -1398.160034
226.854950 340.050110 -1416.266846
-86.587997 717.330444 -1037.696045
319.321991 499.736755 -1438.988281
277.002960 514.388733 -1431.262695
213.975357 757.674988 -1492.479492
78.921112 833.673645 -758.332886
-102.811188 708.487366 -1033.220825
183.035294 439.173615 -1437.691040
222.233139 509.211639 -968.335266
114.754097 843.728088 -752.840454
-112.683769 610.911438 -997.334106
114.016434 417.690155 -1444.863525
90.886375 565.762634 -994.478088
11.530045 810.989929 -863.504822
67.262840 450.984375 -1322.988037
-145.552917 408.082825 -1444.758545
-44.688244 433.147644 -967.573914
-59.036282 842.300537 -797.655457
-94.961815 665.924866 -1030.547485
-4.916687 580.814758 -997.358276
63.851498 815.850098 -836.161743
-32.739933 416.768616 -962.723206
-93.235443 846.184998 -743.212830
-25.380192 361.308502 -986.126221
2.863320 732.667358 -1023.616821
171.014877 420.019073 -964.493652
230.912079 469.541473 -1458.948608
-100.505211 826.259949 -748.933960
-32.749321 582.677185 -1015.103577
172.512497 697.861023 -1470.458740
-79.978073 843.267639 -757.463135
117.483284 198.243500 -1410.702759
246.426865 573.882813 -1442.276245
20.213062 876.288269 -1066.904053
112.512619 843.365540 -741.429016
-44.087833 378.398499 -999.672363
14.652713 839.161133 -771.114441
-95.393394 818.104126 -805.072937
-20.031111 322.208313 -1462.031006
182.977081 699.467957 -1008.212891
52.032276 452.730774 -986.069458
-204.464569 428.956055 -1459.306274
293.567902 558.875732 -794.537842
256.320923 550.456909 -920.428162
-45.974277 370.821350 -1450.529053
116.830704 435.211487 -984.476318
52.901306 833.709045 -789.177063
-89.350197 788.973572 -905.788391
312.080750 635.212952 -1454.467163
-71.905281 909.834656 -670.496887
-129.034241 500.981720 -1011.896912
-96.393394 468.138611 -1454.631470
200.111008 561.281372 -990.328796
22.593676 886.797729 -680.310425
127.887085 744.605652 -1469.250854
145.166428 843.622070 -734.016174
21.134048 809.827087 -959.876587
0.124942 823.878418 -832.292358
118.545746 327.429108 -1368.971069
303.672211 398.733826 -1444.168579
183.613342 487.025726 -975.700806
-38.232712 624.110291 -995.752686
165.569962 549.884216 -968.972534
54.568935 823.492676 -807.603638
164.671677 798.733459 -865.016296
-138.221924 565.094238 -1003.609192
95.828537 842.171143 -731.901428
-28.538578 833.201233 -774.955750
-257.746429 496.943420 -1421.450928
142.849884 563.625793 -985.501709
45.824680 422.257690 -1447.368286
61.228153 374.473358 -977.381165
-184.201065 797.165344 -854.461792
127.508408 668.066101 -1016.046387
213.130356 541.583374 -983.004517
-217.604431 415.061096 -1468.623535
-24.889429 883.335205 -654.752808
138.300232 363.736145 -1440.031372
130.345703 710.847107 -1025.328125
164.647903 544.404785 -1458.020996
-83.305138 837.157410 -741.560242
70.523155 217.797470 -1407.619507
253.752670 308.797699 -1429.015747
-181.748001 807.549011 -829.060913
286.280334 525.150940 -1428.001343
9.571674 849.935486 -710.430237
263.078400 347.678223 -1441.814331
354.102356 617.942261 -1454.870850
-154.701233 567.164001 -1002.622192
232.914948 817.692810 -1449.180298
199.990829 871.375671 -1495.092651
102.888138 606.658447 -981.764954
89.040138 853.725464 -1427.228516
92.579315 759.709106 -1039.997314
51.142525 477.747864 -965.872559
175.695938 587.466125 -996.439453
198.298004 437.520508 -972.676819
-133.225327 814.129517 -822.566589
135.540878 466.088684 -971.022278
-2.377964 797.709167 -868.822205
-75.247467 475.152954 -1454.777344
208.569855 517.216919 -1458.072510
-17.500380 389.544281 -989.333130
210.774826 565.284485 -1404.404785
147.662888 671.796509 -1477.585938
-22.771502 453.792480 -1472.013306
-6.529459 292.350952 -1419.697266
85.002823 542.683899 -975.025146
291.226654 513.878052 -1449.985229
13.242187 885.329163 -675.152344
-26.452929 407.569366 -1455.870850
128.205399 800.337708 -857.139038
35.317173 887.639282 -665.593750
51.717735 468.950806 -1422.541382
211.843536 406.562897 -984.029419
282.480743 419.596161 -1437.948975
98.281540 371.912170 -1318.032104
49.980534 565.059875 -987.972412
50.909924 298.425568 -1419.535156
165.968735 520.413391 -988.003052
134.017548 551.801636 -1382.963989
303.941681 553.441284 -1425.362427
-29.403990 866.408813 -707.622986
284.038757 352.256958 -1424.240234
110.371071 337.443146 -1399.458130
342.571503 530.278320 -1389.586304
19.871660 257.541229 -1430.036865
-83.215271 516.798218 -1400.176392
-70.550079 415.700043 -981.287903
159.556274 775.942993 -1470.716187
258.175507 366.158661 -1430.527832
25.197515 817.752563 -845.982239
127.809319 619.077271 -989.262329
-181.101456 396.165680 -1450.676392
85.995445 639.059265 -1010.699524
108.515236 571.616211 -982.851868
185.682159 319.396149 -1423.717041
-143.190308 809.483765 -809.704224
-111.134575 475.188141 -991.674683
-23.794558 303.403931 -1439.486450
239.750839 564.722290 -916.326294
11.916141 591.585510 -1381.734375
-60.426373 513.534119 -1433.770996
-58.624657 294.483276 -1437.841797
305.046448 483.482880 -1440.814819
-8.968460 257.669708 -1417.499146
198.484314 493.561768 -990.237610
-144.824783 615.631714 -1500.803955
200.317719 478.444672 -981.130310
84.752060 209.092224 -1405.679688
106.083664 850.768372 -713.733093
29.886278 834.402466 -761.657104
-12.426327 858.788757 -689.228088
81.995880 368.643188 -980.341309
318.834381 535.428345 -1426.833740
161.169724 412.070190 -967.683472
145.622513 203.042862 -1412.424072
-82.057831 884.294739 -657.751282
86.969452 845.116394 -745.818604
86.664757 557.861877 -1420.529785
101.577003 807.216980 -828.669006
-92.898743 390.177399 -1452.674438
57.051579 865.764404 -674.123474
-79.073494 697.937439 -1523.119507
103.140465 633.056885 -1021.704224
-208.850174 503.471069 -1466.844482
117.386230 485.973358 -972.009949
-73.200089 799.620789 -877.503296
-141.584045 628.083130 -1020.170654
96.349037 849.394043 -729.537292
24.909929 386.580688 -1452.100098
-121.315826 421.544312 -988.489441
70.523407 399.883606 -1401.714722
35.708103 389.779633 -1434.707275
219.715530 511.726593 -974.114075
261.272858 373.170349 -1430.507568
24.179976 348.926178 -982.477173
99.592125 852.961609 -710.628784
-52.899086 818.365723 -824.183777
160.974655 561.821716 -997.633484
29.026529 819.836975 -848.889832
348.571838 516.018005 -1403.935181
-75.221855 845.357727 -716.189453
43.438229 833.978271 -771.990662
-36.018379 374.373749 -973.031921
397.927612 536.854614 -1453.580566
55.158916 436.635651 -1449.359863
-3.852718 311.304901 -1459.682983
-202.894440 588.276855 -1480.802734
69.912514 520.830383 -971.890320
-96.791748 820.621948 -812.894958
104.153267 603.192078 -993.956604
284.811890 604.590088 -1415.919189
41.141670 246.848450 -1422.326538
-135.241150 784.809448 -913.615601
-123.185760 412.825867 -982.793701
-38.832531 835.422852 -742.155090
-127.000648 467.610016 -995.734924
-142.278961 407.391754 -982.911316
146.811676 577.606445 -1449.898315
-167.240646 374.400879 -1452.679565
59.476120 378.235352 -973.618530
304.718292 475.146881 -1453.423706
175.146042 518.079224 -1444.741211
-54.575188 642.208801 -1042.555054
-102.239235 479.709808 -1422.561157
112.047806 577.746033 -988.005066
-76.857162 380.231964 -1436.388550
-214.931976 547.713989 -799.578735
10.523565 793.448303 -898.914673
-201.984589 405.916321 -1429.122437
-11.495915 864.851379 -678.995605
63.538109 824.862671 -796.344910
222.270035 718.455078 -1467.153809
154.256042 294.776062 -1416.921509
203.849380 277.199432 -1419.614014
232.310364 308.962708 -1411.475342
-131.968048 490.165894 -980.316956
-31.917553 410.268250 -1439.213745
180.138657 807.497620 -844.181580
208.987274 565.308228 -1386.403931
-84.901901 882.823364 -720.579102
-124.467255 573.438110 -1010.131104
169.106323 931.549377 -1512.155273
-49.031876 808.229309 -848.335571
-131.842209 780.867188 -906.053406
-112.345482 449.948761 -1460.059082
44.986309 447.801727 -991.886658
8.621667 287.714752 -1435.714722
-149.315826 498.279205 -1444.957275
140.388489 844.819641 -744.594177
-153.132767 470.096802 -984.603394
-123.162163 825.773376 -758.231201
-54.062145 807.946350 -831.762756
194.775757 408.649017 -981.847778
-0.251071 474.676270 -1461.513184
-119.228310 560.030884 -1014.276123
-42.565426 785.827698 -903.407776
272.162781 596.906921 -912.670959
241.647614 527.730774 -1452.813965
171.473328 731.357483 -1486.084839
119.814285 609.582825 -981.140381
-25.304296 823.055969 -803.295166
193.816818 948.913818 -1496.428589
6.539401 815.659058 -802.568481
-143.760086 433.218719 -1458.810425
-66.098938 483.345062 -1465.184937
188.886398 373.026031 -996.789307
133.287201 700.394287 -1481.370483
-2.858808 488.378601 -1447.930664
-109.316803 819.023132 -816.522461
-27.497173 681.809937 -1021.149414
251.599319 527.255310 -1342.460571
-116.508560 796.388428 -857.370361
78.513924 366.624634 -1423.453003
-121.462105 407.648865 -1452.973267
8.216708 636.427124 -1014.033081
96.631859 191.509445 -1398.152832
-158.660309 425.199860 -1441.623535
102.348816 346.992249 -1419.619629
-4.848207 848.871399 -736.111816
-3.917455 817.976685 -865.486572
183.308945 792.403931 -1471.625977
77.823418 504.821991 -991.674500
93.059372 869.171692 -692.445801
365.858154 572.421936 -1442.712158
-48.053005 293.379761 -1426.278564
50.805973 273.672516 -1425.338379
194.331223 481.451874 -1443.383179
195.963394 474.487366 -967.005249
152.926788 826.533813 -794.104065
130.499283 857.853333 -723.371582
197.976761 555.042419 -966.532776
0.574444 846.346985 -757.546997
218.829803 579.318054 -1448.799438
337.588318 472.918365 -1439.259644
-9.369056 690.998840 -1005.610168
146.760208 937.994629 -1497.863892
66.771408 806.438416 -948.102295
-163.650604 601.803406 -1017.837219
98.154243 854.621765 -695.503601
-37.223305 329.779358 -1459.207764
144.691940 372.387634 -1405.839111
-59.203777 337.469391 -1461.593628
-60.311821 462.919708 -1475.619995
95.820496 473.889801 -984.945374
107.084328 196.644913 -1408.959595
-28.300606 686.153564 -1034.608765
194.648621 533.834412 -989.332275
-1.964580 453.502686 -979.942566
160.046539 462.792023 -1455.435913
-88.280701 520.175903 -1396.321411
-35.502155 860.232483 -690.908569
259.854553 457.641693 -1430.629761
148.683899 264.986389 -1421.931274
93.814400 358.733185 -1405.916138
344.694458 498.925476 -1443.056885
156.387436 791.692566 -888.814941
21.314941 447.879120 -996.809509
26.153372 450.507782 -979.104614
118.597557 299.552155 -1413.569214
83.991661 560.863281 -1005.616638
-30.540749 289.493591 -1440.007690
-75.650269 812.560242 -808.807800
135.436096 836.975403 -764.008606
-158.904266 872.402710 -718.959290
294.479431 447.670685 -1448.178223
113.100334 566.496338 -987.919373
221.481567 436.883087 -986.217834
154.523178 595.913086 -1011.058533
1.933150 365.208557 -1003.827637
99.285263 799.850281 -890.460083
253.245132 546.003662 -951.749268
-61.080151 816.817688 -814.763916
23.030649 852.968140 -721.076111
58.025948 819.974976 -785.593262
-110.468506 561.299683 -1011.261108
194.843948 395.691528 -989.089294
162.872177 895.879272 -1521.197021
182.345245 644.541748 -982.630188
316.758240 466.707703 -1442.132324
211.446930 785.188110 -1447.753540
-37.014526 791.627441 -882.989441
135.751801 807.723389 -888.877014
-9.700745 562.673462 -1458.900879
128.858429 491.984894 -989.392334
-93.790123 780.598389 -923.024353
111.536705 880.975586 -682.768616
321.927765 465.410187 -1428.075439
159.774628 421.435913 -1452.908691
178.208038 845.052307 -746.618103
-87.124474 339.002960 -1463.167969
129.575302 524.241638 -970.620178
-127.750252 468.290009 -971.728455
112.547058 520.868042 -1436.155884
172.445328 599.145081 -980.923218
-79.812241 645.021240 -1034.820679
-107.638954 456.155579 -991.851990
29.926374 841.960449 -767.067505
133.245514 526.314575 -1429.734985
90.625336 881.789856 -674.271729
-220.674652 511.859711 -1464.930176
162.776932 461.110931 -969.573975
-109.402313 442.076019 -1360.265869
101.239006 834.665344 -784.619568
91.315025 886.472107 -664.451965
-61.311996 647.757690 -1022.251160
-147.862610 410.476990 -1459.952881
41.685181 425.100006 -978.478943
-91.537415 375.293457 -1016.605042
-122.530914 628.278564 -1043.799805
-29.864664 666.971313 -1019.432312
238.377701 619.005066 -976.913513
122.874588 517.305542 -1444.276367
138.933884 808.101868 -895.531616
66.089508 814.115784 -843.539246
-139.487244 456.724396 -992.755188
48.598339 661.283875 -1008.340576
18.983057 544.231384 -1419.264160
-40.075043 857.756165 -693.292847
-67.303009 551.860596 -1000.884399
4.025716 785.576843 -884.567200
-113.216026 420.877319 -1443.927856
62.491047 218.214493 -1404.636475
233.667023 317.259216 -1428.774414
135.205963 583.621033 -987.496521
316.917175 459.682373 -1427.868042
24.606115 424.392426 -973.042175
-36.349751 444.652496 -1462.022217
