ply
format ascii 1.0
element vertex 1398
property float x
property float y
property float z
end_header
826.280273 -987.491638 889.456421
795.719910 -1086.158325 751.764709
759.895935 -917.387756 992.648926
725.828430 -556.151794 682.445557
962.434875 -562.101257 225.321960
980.584351 -400.500580 438.235413
671.939270 -959.943237 850.245056
769.845886 -980.831421 928.001038
621.516174 -626.877991 606.850159
1020.778748 -353.601166 338.819000
700.251282 -865.373779 1048.352417
685.279358 -756.390503 465.825439
527.467712 -1039.783691 854.615906
941.565796 -670.220520 550.524536
602.104370 -923.576477 978.780762
955.212097 -582.147888 299.982269
907.937866 -688.665405 510.994446
756.290405 -687.467346 520.113953
634.938477 -913.067322 1009.864136
520.344604 -761.785156 491.601685
972.694458 -526.877563 361.895844
964.902954 -496.758423 491.655945
615.315247 -954.344360 921.882446
968.985840 -512.159729 458.511566
589.082458 -613.785828 626.997131
657.176575 -743.055908 483.993896
720.086426 -950.140564 953.351257
689.726257 -974.817688 913.160217
625.936279 -981.072632 877.944397
812.570251 -904.998047 965.435303
747.259338 -1079.279175 801.616577
598.809814 -619.203613 639.904663
955.046082 -582.236023 280.695770
582.577148 -672.766968 549.107239
757.071777 -883.434082 1028.806274
821.874512 -940.037292 941.254272
784.079407 -1098.885254 704.943787
533.144653 -796.152771 463.730255
706.970581 -688.248474 505.260895
590.596375 -770.057251 460.228790
851.187378 -825.937195 1085.498657
732.677612 -867.623657 1050.621338
962.244751 -927.177734 925.081787
851.244202 -829.227173 967.193787
974.350525 -498.077667 194.498764
685.471497 -872.308411 1036.259399
971.995605 -481.180908 497.736603
813.994324 -821.721252 1057.595581
541.017761 -1016.968384 861.467896
950.044495 -1180.891846 690.833984
1012.417725 -359.187561 336.890015
799.712402 -985.383606 872.442810
671.157166 -659.346008 583.734192
870.588440 -934.396301 793.141602
748.906250 -666.386414 538.637390
698.457153 -983.261719 928.017151
800.019531 -1096.591309 706.115662
874.646057 -872.484009 953.992249
981.081604 -478.682953 187.015182
656.639709 -1123.819092 767.449829
783.713867 -877.776917 1026.747192
598.287476 -681.987915 530.508911
960.417542 -507.563416 241.350647
687.261414 -923.616211 991.997681
963.803162 -587.839905 436.630493
926.899414 -664.585693 521.454102
861.779724 -922.711304 842.645020
816.970398 -936.714417 845.931641
795.608337 -866.956482 1007.784668
566.373840 -661.147156 582.922363
951.114441 -613.129822 440.717712
993.470886 -589.652771 509.411316
978.902588 -415.627502 275.950317
820.276306 -1061.453369 776.406006
691.432800 -728.430054 455.466492
748.844666 -1138.838501 716.055054
927.251038 -675.213684 236.926270
543.298279 -741.554077 527.359680
832.677490 -872.454834 1007.302429
654.800110 -571.494812 654.710510
560.858032 -983.300598 899.809448
612.910461 -970.245728 932.768555
992.618591 -404.556122 232.339874
785.766174 -766.449951 411.173157
886.984436 -754.182068 453.835480
856.245789 -741.684570 481.530701
826.036438 -850.734619 1022.864868
866.144348 -920.983704 898.913696
548.365173 -769.305603 492.183929
925.683350 -666.145752 538.789246
966.571350 -591.343140 433.935822
883.434937 -874.506348 917.337463
980.709717 -432.844666 351.557190
680.117371 -720.684631 483.111328
612.607849 -794.903992 419.815186
933.646179 -636.094788 550.816956
650.645874 -1070.348877 807.964722
678.112610 -651.984009 567.852051
720.605835 -387.930786 610.484131
679.392212 -645.378540 577.902710
977.794189 -492.837280 302.011047
585.933960 -611.968811 643.740479
741.031128 -737.593994 469.930389
742.548218 -701.620605 505.929169
880.212036 -800.663940 1083.963867
574.639832 -1071.880737 817.615845
761.773865 -1158.602173 646.510925
844.285767 -653.521545 562.894775
966.655334 -545.802490 364.286804
602.792847 -1030.871094 851.863403
737.664795 -635.881775 590.078735
978.927979 -1171.262939 679.228699
695.875549 -716.719910 492.157196
986.494019 -387.393311 399.117828
789.057373 -1001.222046 851.601074
897.647522 -955.239197 856.906982
698.773987 -613.615051 589.918884
637.786560 -904.411560 999.930847
806.896667 -581.862854 644.122192
766.598328 -883.436768 1020.937744
824.662842 -1089.826904 726.740295
962.371277 -545.652893 388.605957
976.947693 -449.410675 443.304993
663.404053 -694.556519 522.103638
912.144104 -859.536316 966.769592
690.100220 -866.427002 776.326477
776.021301 -1086.886353 776.885620
933.339905 -676.701233 297.081573
547.133789 -768.060791 492.977692
965.198975 -566.076233 472.086823
1254.079468 -923.688171 885.869080
528.631470 -971.656250 942.963257
982.657898 -411.385925 314.883728
976.898987 -501.257294 284.581085
731.359924 -1045.992676 824.776245
759.853149 -1066.641113 805.074951
957.962402 -526.502136 260.319336
978.989136 -432.422516 464.733521
994.699280 -375.622375 367.667908
605.281250 -1075.318115 789.863281
921.488586 -689.984619 246.127365
733.074585 -1006.785400 859.389160
971.068970 -552.018127 362.341675
1051.580078 -960.408020 860.543884
949.568420 -617.569092 382.095795
909.633850 -708.746826 490.845032
757.683350 -511.389679 687.757202
952.224854 -583.557190 246.086777
709.281677 -1147.853149 649.712646
976.093384 -479.163147 389.966705
882.020386 -837.813049 1030.594360
896.577393 -598.120117 602.312866
749.657104 -1158.051147 665.736084
986.640015 -519.928467 239.137604
625.669556 -992.919312 824.686096
745.692078 -639.382629 567.448608
809.681519 -692.181396 505.892456
955.551086 -546.954773 240.053177
664.628479 -572.753540 652.885376
548.743652 -795.419983 467.424896
724.681396 -692.922119 511.028503
709.318237 -1064.424927 641.976990
965.786987 -492.386444 194.355591
966.542053 -512.950806 286.123108
859.779419 -881.447571 925.656616
970.818970 -532.212280 281.621674
661.454590 -694.309082 512.164795
541.186462 -1065.020874 825.176025
551.995422 -709.893921 550.584839
695.866638 -771.460449 453.051971
971.851868 -475.699432 470.012146
962.385864 -596.478577 410.945526
816.850281 -826.574036 991.485962
630.226074 -602.684509 625.522949
977.971313 -475.350159 336.680237
639.276184 -650.331055 548.124878
822.800049 -1118.500732 693.743103
948.543274 -598.456848 397.387695
860.429077 -1206.694946 635.886230
686.691162 -677.990906 538.089050
833.800476 -520.436340 635.663452
978.112671 -449.195496 426.295807
981.666382 -413.902313 333.006775
562.486694 -783.088806 454.156250
898.355896 -849.870667 1035.239014
558.235657 -1008.575256 875.971558
948.681396 -666.849976 519.584717
725.120728 -773.901001 445.494476
980.802612 -481.572449 313.597382
969.619202 -508.582886 357.300568
598.580383 -593.015442 658.809204
632.332275 -742.571716 485.069305
598.411316 -1117.915161 763.959167
741.697815 -924.979492 769.701721
551.104919 -1042.893433 865.339844
571.892090 -653.075989 594.397461
663.957092 -996.743713 827.522949
977.104492 -437.587402 402.642242
800.807556 -1007.873108 838.587585
795.582214 -1135.655518 687.330505
876.237854 -639.084351 582.284058
853.620789 -900.354309 867.316406
729.277344 -851.165405 1030.234863
924.959473 -873.257690 959.027771
645.431396 -589.088257 628.652588
767.141418 -537.985535 707.960693
746.297119 -732.179749 505.394501
943.463928 -627.810852 256.052582
601.546692 -760.844604 479.310822
1103.334351 -930.433228 857.945557
984.252686 -422.845490 451.428375
957.877136 -578.316956 387.880371
609.299194 -601.106140 635.305786
952.567810 -591.368042 319.855621
666.997314 -682.351563 554.639343
978.731201 -423.890320 338.511414
982.926697 -510.166840 345.911316
694.253235 -1127.852173 740.928223
616.588135 -680.183289 567.882385
697.287720 -602.465149 617.901245
956.135925 -519.861877 474.398651
573.747986 -741.927734 475.465820
724.341187 -563.616577 680.751221
713.253174 -1127.387329 712.209839
979.733887 -477.551086 248.961258
984.923584 -387.464447 314.264343
824.268982 -634.786743 552.963562
613.068604 -793.368530 411.159363
826.168884 -801.572449 433.325562
684.207825 -596.560791 640.672791
834.155029 -828.715332 960.824158
832.990234 -930.238647 944.659729
740.563232 -946.163391 957.325867
982.711975 -390.297668 457.108002
755.235596 -857.197388 1036.430664
934.977844 -680.237732 302.872650
619.275391 -627.386902 615.353455
612.458374 -974.413452 936.048096
707.490723 -1089.693848 807.707397
714.746033 -906.963379 990.786804
824.056885 -907.067993 980.849060
564.235962 -634.921387 665.251343
667.522522 -1060.186768 819.194580
774.632629 -668.194031 532.460876
820.147583 -930.914124 921.779419
551.076294 -717.698425 539.165039
971.375183 -967.350830 855.549622
657.945435 -917.383972 963.778748
737.719849 -587.725159 655.218140
743.383301 -627.755798 563.748352
874.411926 -635.857605 563.481445
740.867615 -1046.419067 817.272766
664.248535 -1090.762451 823.364136
854.612000 -873.594238 960.345642
980.919312 -441.634979 261.787292
744.847717 -538.505188 704.443298
604.721863 -700.364075 534.825928
934.924377 -694.562195 303.764709
788.357361 -1170.401978 661.771362
963.306824 -530.865051 325.238159
861.916565 -760.750977 432.999359
947.576538 -597.500183 228.485306
955.367676 -545.390808 241.332901
538.261047 -1041.089111 852.067261
730.719666 -956.548889 956.259155
899.354126 -737.803650 431.557068
736.899353 -1156.901001 671.589722
1154.396851 -934.292297 910.904846
558.070496 -779.475769 482.026917
602.806091 -611.669983 628.124756
537.478699 -979.008484 926.953674
997.601318 -966.440063 877.894592
972.317383 -527.362244 345.429291
989.295288 -361.078094 322.340454
940.561951 -712.490906 321.684967
675.034424 -1174.445190 666.339966
641.078064 -1019.589905 849.764526
781.475708 -830.788696 1080.588379
568.382813 -965.671814 953.558838
917.281311 -868.262146 954.673828
815.080566 -980.772156 861.555054
989.850159 -383.985382 318.892975
966.044922 -530.587036 423.443695
931.038086 -688.477539 274.249146
966.512268 -450.239044 387.235687
645.555847 -585.383240 689.749390
593.873596 -772.434021 445.987061
620.280457 -629.958374 626.117188
830.115356 -570.245667 642.822571
843.692261 -1032.971924 742.171570
677.168213 -1102.746704 752.032654
972.020874 -528.533081 464.772095
570.816650 -614.419556 667.119263
1218.257568 -958.754761 879.951294
1043.117798 -958.523193 883.719910
569.338867 -768.069275 445.632416
646.697021 -698.407471 530.150330
747.317810 -625.014893 595.161133
767.692688 -1013.239380 802.833313
641.450928 -1161.425537 731.787292
540.634766 -960.199829 939.394958
734.161560 -1098.034546 793.016052
714.353333 -690.964722 522.931702
551.394836 -977.717773 917.468689
959.738037 -543.089111 191.033585
869.006714 -962.406555 888.215210
955.539307 -526.486389 494.794678
978.304749 -463.082825 511.773895
780.985046 -1075.794922 815.711487
655.216003 -1058.537476 842.433289
1123.749146 -916.085083 913.913635
974.009705 -553.329285 452.971497
886.509033 -749.380920 467.650909
759.462585 -984.880737 923.267456
961.003845 -574.053223 197.129715
751.844177 -896.270020 1016.378113
563.467407 -694.491272 581.650513
984.821960 -455.623383 214.296219
722.305115 -1098.628296 769.554871
856.931580 -788.228027 1086.716064
610.317078 -629.026917 595.615173
776.619446 -1010.461060 844.733154
625.148804 -820.110901 394.268341
932.782349 -692.607605 329.587128
957.423462 -500.114899 480.071991
612.324036 -977.822693 843.242676
838.081787 -1008.250183 738.599060
962.687195 -529.504028 223.970993
1000.667114 -416.429657 218.547607
936.247009 -826.045715 1024.400024
992.398987 -401.402313 300.100220
786.404297 -875.235107 1027.484131
784.080200 -857.523743 1049.841064
993.502869 -368.765381 381.803009
950.365601 -718.032959 343.972473
973.014038 -475.521576 220.864868
979.714417 -478.039886 323.285187
1112.613403 -933.261475 892.043945
789.015930 -923.894470 969.134094
794.955872 -617.541504 587.552673
977.132996 -414.724762 340.823242
640.988342 -949.368164 962.047974
543.810364 -724.894287 555.703003
1073.045776 -901.504272 902.275696
984.951477 -413.491211 416.932922
946.789490 -633.946533 311.317200
764.488403 -1064.991821 811.680420
773.264526 -933.028503 971.485840
588.159058 -807.444214 414.988770
830.601013 -865.501892 971.096313
636.771362 -918.921021 982.708862
637.554993 -748.453552 466.579376
591.853271 -629.706116 690.921021
686.042480 -898.669556 1001.296509
777.753113 -995.647400 865.143494
524.667603 -963.575195 918.988586
794.375427 -954.204773 912.369934
958.398560 -563.109863 265.708405
941.212097 -608.221863 245.924637
866.946289 -878.795898 1003.772644
958.990356 -564.159058 170.494339
706.893311 -917.389343 993.835144
668.078613 -585.034241 635.264404
671.616394 -629.885132 598.686218
841.344177 -828.621399 1043.536133
757.841797 -863.150757 694.948792
681.279114 -920.432495 964.736206
658.769348 -555.364441 682.230347
997.742981 -344.100586 386.671021
795.921753 -998.139954 854.877563
967.077026 -506.018433 394.152954
979.231079 -406.575470 439.344116
876.926270 -648.561523 535.635742
641.153870 -591.718445 627.618530
877.402832 -864.976746 927.018005
969.763550 -459.208557 354.077026
971.733398 -546.207520 272.336090
997.816223 -370.410217 347.279083
931.191406 -664.050476 234.565460
633.383423 -642.836731 561.517334
697.529419 -949.800293 965.774536
730.059875 -535.387695 683.918823
935.754822 -1015.018066 875.184387
711.535461 -790.258972 406.386078
1051.301025 -919.821960 919.656006
751.824158 -797.390991 373.396729
699.528320 -991.455017 912.913269
928.544983 -640.184570 217.634018
985.620667 -635.252258 469.149414
963.866943 -559.366516 304.641449
973.273376 -520.193176 482.671295
970.235291 -471.937531 489.695251
788.479980 -839.133301 1030.641602
1055.843384 -935.984924 896.706177
853.132446 -945.947388 794.682800
637.065674 -612.912781 634.819458
633.950867 -989.055481 839.806824
789.278625 -857.001648 1010.135315
570.236328 -732.283203 484.903534
971.700378 -498.052582 243.983917
895.288086 -1157.532715 704.334778
723.087341 -647.894104 546.348938
544.158813 -756.210083 499.640472
729.694214 -556.074829 698.802063
968.356201 -495.006470 374.983582
721.970886 -586.225037 624.462463
898.430725 -763.312134 407.251831
677.724731 -611.514893 624.340332
799.983826 -837.742554 1028.586792
705.356079 -956.599792 953.517944
862.352844 -904.892883 930.578552
993.703796 -404.831940 289.061310
967.593323 -500.245483 365.630127
527.372192 -1055.412231 835.839478
596.330566 -955.175720 921.463196
718.120605 -737.876282 471.733978
942.508240 -611.529297 245.303009
947.461853 -667.799744 333.254028
661.626221 -1100.009644 779.628906
814.343628 -1100.849976 664.613098
559.327881 -687.599915 602.113525
528.702332 -1061.174805 827.957764
777.518860 -1091.627563 764.470886
764.964905 -609.996155 610.506531
612.275757 -921.622070 805.499939
1002.958740 -346.922028 343.460388
599.061829 -746.045654 448.458679
649.653442 -574.050964 652.371399
980.158203 -532.105652 330.974426
626.687073 -736.196960 472.340668
902.539551 -630.419006 579.851929
959.878967 -626.746033 414.114838
583.311951 -615.404968 673.777466
565.814453 -983.740662 893.713501
671.502686 -715.462708 489.746979
970.855164 -399.654724 481.001892
614.476990 -643.138855 577.623108
549.187927 -797.924438 459.974640
952.519287 -550.038879 272.639771
679.075317 -1108.850586 640.945801
619.985840 -686.790344 527.049133
774.863403 -849.939819 1063.546875
812.752869 -1065.486206 764.195007
823.375977 -712.973267 470.624084
544.580994 -728.273254 511.651031
616.391968 -596.240662 637.341980
965.717773 -563.524109 389.062012
938.616150 -694.258301 312.647919
969.942261 -488.628815 495.100098
882.914612 -769.901001 435.395294
638.729126 -985.979736 894.752014
823.255981 -730.382935 466.661560
966.873352 -533.875122 266.484467
976.660217 -470.757690 393.478943
843.507324 -781.789673 387.070587
946.656372 -612.568909 373.045929
657.920410 -609.558228 594.300110
638.837891 -1068.881958 820.675598
656.143066 -1163.448486 653.344360
944.404236 -650.788147 236.619965
855.553650 -831.489380 1060.184082
835.418640 -820.404419 1088.536011
986.819824 -552.773315 527.547119
915.697144 -857.074341 1024.780518
647.172363 -804.540405 402.167389
552.128296 -977.547974 872.664978
946.589722 -683.062134 368.984680
977.430603 -472.063965 360.653931
904.906189 -940.981995 892.119019
981.199341 -406.764313 299.530670
633.741638 -981.963379 904.637878
683.487854 -933.444275 945.106750
1014.803406 -937.208496 923.008362
848.775085 -896.592407 892.030212
956.070374 -638.811707 312.389374
757.508301 -756.703003 446.143433
616.051636 -1142.063599 731.668335
974.073303 -421.848083 351.548218
977.868958 -479.304749 444.969940
588.410950 -755.581055 493.809479
995.251770 -399.601349 342.160797
580.330627 -959.142517 924.977661
641.506592 -566.778870 694.213928
958.211243 -598.038086 271.133728
826.638733 -718.819946 484.025543
926.952515 -777.140137 430.042358
724.747498 -411.819824 596.639709
983.960205 -379.483673 328.094421
652.116882 -941.237305 976.499146
918.834290 -927.396912 864.493042
962.198181 -596.825439 333.704193
973.249695 -406.410553 365.154388
788.490723 -1006.279907 870.901184
767.090698 -611.031067 598.452026
599.401733 -638.575317 591.896729
977.684692 -1002.712097 835.137451
842.764038 -577.049072 629.173645
969.702148 -497.406372 361.274963
670.495728 -929.946594 987.271851
640.717041 -752.726807 254.644592
627.443665 -674.455811 572.732849
712.629944 -753.970032 468.693115
647.153870 -1057.431152 801.359863
564.813843 -963.295593 952.002319
782.592346 -794.824402 375.732300
751.567810 -984.852112 704.683899
964.566223 -584.210938 327.227631
850.187622 -1080.151245 714.813477
692.529480 -562.591980 661.032471
671.513000 -598.905762 619.759705
972.343872 -452.486481 440.663544
965.820496 -566.227539 286.656677
655.296082 -762.948547 465.977814
922.139465 -680.360596 522.653870
725.725037 -420.781403 608.331421
981.855713 -396.042084 342.204651
1021.412842 -946.413330 925.148560
890.752441 -903.368225 957.225342
604.684937 -665.541504 558.834290
632.622742 -763.621338 288.048950
653.624207 -940.119202 960.626770
759.458069 -576.709778 634.881714
808.350708 -793.641174 413.528687
939.177917 -660.070435 321.335449
874.318420 -701.704224 508.531219
574.009827 -1079.202759 805.030945
746.335083 -1064.757080 693.783936
568.495728 -762.640076 465.813843
954.535950 -639.280518 365.586090
961.805786 -567.842957 416.858459
865.470581 -963.036316 809.852051
1024.576660 -358.769165 316.893372
859.190002 -936.446289 847.330383
847.777344 -1158.858032 667.171875
669.978210 -627.188843 596.575256
964.258484 -540.734985 464.671692
514.221069 -984.975952 895.884338
683.461975 -643.296814 593.534607
992.351257 -463.121582 235.237305
769.183716 -1126.438232 724.247742
827.844604 -784.870605 422.129944
582.532532 -1022.985413 838.201782
963.796814 -463.911774 446.680695
688.335571 -950.542175 961.663086
826.777893 -888.045044 877.675171
772.034424 -641.162170 547.841125
717.739014 -940.553833 791.459473
754.575256 -572.008240 644.811218
566.342224 -689.993591 558.803528
733.126831 -1131.150757 722.519409
804.927002 -839.184875 996.010498
975.440613 -462.161194 231.382126
521.153503 -953.822937 950.848267
578.656494 -632.356384 610.639160
862.331604 -558.502502 640.708313
880.320923 -813.431641 1076.625488
883.159973 -771.440369 415.034729
672.968384 -622.161682 617.222290
814.062012 -907.318176 959.959656
974.107300 -551.298096 482.818634
1008.971924 -361.936218 343.025055
651.733948 -587.644165 649.288025
989.071411 -398.120209 252.709503
971.567749 -473.526917 398.314362
732.335083 -1107.017090 662.408875
939.773621 -621.004700 254.646774
555.793213 -703.201294 530.141846
831.094971 -933.259888 955.497559
791.822876 -501.626678 659.623901
752.556030 -610.027161 600.812805
647.876648 -686.973938 531.124023
905.022644 -627.518555 591.518311
773.389038 -991.446045 834.348999
980.377808 -687.081665 506.916382
1038.172974 -948.429810 913.337646
715.843445 -764.554993 461.759064
627.464966 -1114.356201 760.627319
756.618530 -601.363281 631.538330
757.614136 -642.955078 574.138916
915.518982 -834.276672 1031.187012
824.627380 -927.392456 959.242310
814.247681 -860.458679 1000.508911
970.186035 -622.126953 435.282227
809.753845 -784.614319 387.728119
670.171509 -727.143188 483.647003
671.126831 -980.548828 916.410583
960.313354 -607.133118 245.394333
967.050110 -543.232727 486.260925
974.478943 -488.496246 275.183350
987.022461 -382.471680 326.445160
947.891846 -653.694153 331.769135
593.824646 -1050.819824 835.798279
863.460083 -993.213318 848.278564
568.232849 -979.253418 927.751892
560.068237 -769.277100 473.952148
778.044556 -1202.179932 639.129700
969.037720 -502.885864 462.487915
487.748596 -980.291077 921.425537
670.545288 -1134.952881 713.062805
967.223938 -491.192780 339.929230
543.544617 -676.436157 602.383850
968.636902 -487.673340 362.883026
727.392944 -373.476105 594.878784
979.010559 -445.159698 365.025391
665.890625 -982.390808 888.486755
727.129333 -771.124817 423.493042
979.885071 -503.299347 514.929626
973.422974 -484.823639 319.177307
695.732727 -861.525391 1038.747803
981.966919 -438.827362 498.941650
827.934998 -987.306763 891.904602
961.513733 -600.656616 363.184662
795.256897 -808.138306 1069.114502
984.750977 -398.804047 276.381470
629.980713 -969.852356 877.395081
615.234558 -931.333496 970.304138
585.382080 -984.253967 890.341919
958.293457 -556.295044 286.300659
681.719421 -1156.150635 624.523560
621.885132 -571.467224 708.622803
989.170654 -370.876923 362.216217
539.749512 -1090.457397 803.368042
736.679565 -1154.045776 665.020325
587.077637 -1135.425903 718.220947
887.133362 -580.650513 643.834290
615.153137 -1041.128784 859.491882
890.689148 -949.563477 887.533569
802.616150 -968.342590 899.856018
612.313416 -635.958801 586.651794
968.345093 -471.799072 354.932312
656.414307 -608.433411 642.808716
824.200256 -805.852295 1082.832764
967.672180 -626.384644 407.570099
937.472229 -629.587463 361.445770
613.092224 -1006.072327 849.076599
634.355896 -675.278687 541.586060
752.331970 -941.077026 967.319275
645.717163 -1007.204712 828.635254
981.104858 -456.391266 509.588470
846.709656 -843.717651 954.480652
799.052490 -856.657227 1018.500061
824.960388 -836.988159 1003.646667
678.719727 -595.653992 613.121826
976.129761 -416.949768 402.762360
876.762329 -993.711426 727.490601
939.879517 -631.750061 335.665527
686.734253 -1119.553711 751.582031
750.687988 -632.887451 557.527039
817.834412 -900.711914 991.207275
625.179749 -1128.618408 749.113770
1042.642212 -943.365662 935.721069
819.934631 -804.271545 1005.164124
901.399963 -889.236084 950.894287
961.666626 -483.099884 490.406464
508.048798 -1048.770752 843.290222
580.853027 -696.112427 512.904541
788.712891 -798.814575 398.345062
692.140381 -743.146118 453.975342
626.546082 -1175.297974 671.377014
728.751892 -1051.253784 777.759277
987.051147 -488.918152 210.080475
859.408508 -931.395813 947.288208
979.062256 -526.715698 513.025513
963.184998 -569.746399 259.818207
594.813171 -974.532410 884.210999
708.150696 -1190.270996 664.799072
850.251526 -849.257996 992.323853
759.326843 -1136.024048 680.070251
1189.129883 -965.529114 839.232361
846.678284 -857.705933 919.000916
576.904358 -701.697205 531.942993
629.967224 -1047.041382 810.610962
610.892639 -1013.391724 887.912842
709.153015 -1170.758057 674.629150
633.133057 -575.527588 683.831299
608.068787 -920.503601 985.864807
949.600403 -611.747803 374.980377
947.159790 -641.447876 182.000809
821.020569 -920.383728 891.382874
940.327087 -644.004395 300.070435
819.934692 -910.840881 975.975037
650.166809 -750.928467 461.956482
594.599060 -642.278381 618.712830
859.403503 -864.563721 1018.335266
557.567078 -757.780457 510.372192
602.548584 -777.567505 440.077972
528.281677 -726.412476 549.549011
1090.296265 -927.641785 852.414917
771.597839 -571.012512 644.861572
855.771484 -841.562256 980.498413
741.105530 -519.013611 701.873230
955.136597 -613.684998 339.952332
634.683594 -730.465759 472.975342
943.309937 -606.218689 238.456497
652.697632 -1183.477173 677.401367
601.933899 -1109.909912 753.804199
954.342529 -977.378052 873.350891
833.507019 -558.502563 654.534241
847.049622 -1012.108398 852.552856
979.441467 -405.412323 308.860199
582.479370 -775.096375 448.230896
873.906799 -784.357544 416.625153
618.004822 -969.512207 873.783569
752.164795 -809.816284 389.703552
1034.404785 -427.035370 235.312637
565.640259 -754.721985 461.453369
762.129700 -887.570496 1005.369324
624.660583 -993.127930 896.570923
651.126526 -994.437805 865.087463
1025.437378 -434.795502 212.071686
923.746643 -737.178406 494.912018
826.863586 -873.887329 986.006775
599.887085 -650.764160 608.549377
657.367188 -930.451294 986.385010
975.692505 -444.966461 448.588837
605.115417 -665.567871 561.917358
932.978760 -725.445496 463.507843
588.981628 -967.076416 924.101074
1063.317993 -965.750183 802.289734
602.221558 -792.446838 421.011932
573.224487 -698.047607 545.437378
705.042236 -1037.032104 823.911499
709.260498 -668.489380 538.854797
965.768860 -422.851166 481.276031
949.580994 -550.915894 234.396072
954.352356 -584.248840 440.579071
877.886047 -798.101074 1038.326782
958.620483 -633.719971 290.290955
578.551392 -634.722839 609.099731
678.402771 -1056.196655 832.102356
991.382690 -551.170105 528.822083
711.107178 -982.237366 909.236267
634.560181 -971.536987 820.365906
751.868713 -932.229126 938.040894
702.063477 -1127.985352 744.976624
704.104797 -805.741699 428.378174
632.806458 -989.730957 843.559631
698.893921 -928.761230 978.679199
574.017029 -765.698303 450.844879
846.041382 -959.906006 910.235596
779.844482 -746.115417 468.177002
604.196411 -1109.217773 803.950684
787.296509 -937.916748 955.561829
790.981018 -675.117065 515.133911
855.718933 -809.024231 1087.738159
944.474792 -604.485962 360.047119
694.022522 -1148.801514 713.392883
687.817139 -1137.777832 718.867676
572.884033 -964.627441 935.271790
677.142883 -1059.301880 818.372681
990.696533 -361.273254 334.297028
638.098206 -904.427551 995.422791
999.899414 -348.316193 329.171234
953.152649 -595.383118 221.269409
791.916199 -709.660767 492.743225
860.597656 -584.846069 622.585754
563.755493 -963.579956 941.108032
774.399536 -1101.312622 709.057678
699.416199 -965.500244 928.806763
823.845276 -821.408081 1030.380005
982.183044 -498.371002 198.478607
583.666809 -952.997742 889.365051
944.042725 -604.280334 250.510666
833.813232 -816.082336 1017.325745
779.764038 -968.564087 933.113892
611.924622 -975.022339 927.439819
661.116394 -1184.366943 693.289307
735.315125 -1137.351318 706.744263
993.490173 -528.646301 214.853531
958.789124 -547.520081 214.238785
979.614319 -448.034943 184.450073
958.309204 -526.569702 247.705566
808.361267 -775.799133 398.662354
608.711731 -650.768616 558.191040
586.239624 -1041.500854 823.869995
576.908264 -1064.667114 829.377319
972.718323 -494.483154 378.225861
692.556274 -561.426270 680.675049
783.286499 -662.583252 557.306091
937.723999 -712.759338 291.981354
664.058777 -698.140076 515.634155
554.024353 -1035.323120 854.920959
992.798767 -387.480988 256.158936
763.299438 -1157.060913 661.107239
960.924500 -476.344421 523.581909
962.388733 -573.205811 180.783829
1108.722778 -937.369934 908.517090
705.875610 -932.651794 949.567566
680.521484 -873.086914 1025.866943
813.751892 -640.745300 566.429443
735.653198 -1157.535400 656.080383
686.502380 -1212.167358 645.664001
630.078308 -1170.170776 698.647583
936.718750 -641.123169 236.530533
724.799988 -1145.463013 678.891113
853.738281 -633.051392 576.909851
953.828857 -637.283203 295.501190
965.546997 -515.577881 278.015564
814.554749 -983.780640 832.692017
766.132385 -1002.660217 889.280151
964.901062 -450.669678 455.883881
637.404907 -776.292419 414.135742
978.768616 -432.973328 331.840576
512.811035 -981.192444 926.609741
706.123901 -1097.536499 795.572632
821.522461 -569.259949 641.193604
618.000366 -915.219666 1009.062256
751.850525 -751.818481 454.690521
981.794678 -473.129456 180.222504
740.726868 -928.586975 966.465698
772.933228 -1106.989014 704.211060
982.603760 -398.815765 306.781952
683.858765 -941.043152 969.675598
750.627991 -772.484924 426.280701
513.345154 -998.183167 903.042114
849.477173 -995.366028 881.218689
816.655640 -816.659485 375.962982
848.376343 -844.984009 1034.665283
685.100586 -791.475403 413.888306
643.886658 -728.784607 500.540466
963.646423 -614.619080 377.195465
631.200012 -1159.005859 707.536682
984.255127 -371.486603 351.571045
613.026428 -952.902283 937.318298
987.188965 -905.377991 928.452209
733.460999 -1065.038940 833.084656
543.403931 -982.550171 917.742126
560.997559 -999.364685 868.041870
978.112488 -429.161713 274.434723
796.526733 -1064.525635 770.001404
1008.393677 -427.252716 222.924911
892.438599 -623.676636 564.529236
706.023193 -889.852661 1009.890076
742.719482 -804.211792 393.912262
596.139038 -787.267456 413.635590
964.444458 -513.778870 509.744965
561.951843 -671.625977 572.068176
850.425415 -1011.957520 638.357727
617.360840 -965.565857 838.875610
981.739319 -493.303925 218.866974
975.002502 -526.600708 411.125763
968.533752 -451.302887 310.689911
646.032898 -705.501892 512.044922
621.603760 -594.205872 680.591492
1104.197998 -949.840027 774.164063
859.966431 -816.815186 1051.662109
681.369019 -891.206177 1021.340637
606.406921 -712.544373 482.778107
979.426758 -398.098877 393.566467
633.028748 -1176.236694 685.052002
637.418701 -665.120728 555.072998
1192.147217 -954.044312 911.251648
623.731445 -1129.917969 748.740234
933.315918 -657.407715 275.988098
1204.324829 -921.932129 917.133057
587.655701 -629.347900 682.347900
933.254944 -696.108643 493.730103
967.263550 -589.848755 400.915833
965.117554 -557.444153 349.540070
575.880371 -607.714539 655.274963
942.893555 -634.639526 216.834442
628.095459 -1182.773560 685.271118
751.768311 -692.242004 515.386230
961.537415 -503.186615 450.633362
623.452332 -881.239441 1001.562744
814.794067 -603.404785 604.467896
747.499207 -954.451965 947.354370
724.235779 -925.816956 949.151001
729.397461 -878.806824 996.194519
692.263428 -872.626587 1045.109497
805.240051 -876.583557 1001.170715
1147.585205 -944.088623 876.062378
687.343384 -912.627197 962.995728
1226.717041 -993.863708 860.425903
544.987488 -967.002625 941.248840
736.017883 -882.878052 994.990784
634.374939 -766.667969 416.544556
827.656494 -853.558960 924.307678
639.319519 -1075.150879 806.188721
807.471985 -1180.706909 658.110229
799.454651 -726.296265 477.174316
746.729980 -982.175903 906.812805
937.775757 -643.827698 286.827393
837.318176 -674.448730 536.774902
969.243225 -497.622711 382.919617
965.290527 -555.846497 459.839111
849.501953 -800.565796 1024.179077
689.826050 -1158.283936 691.178589
543.323486 -1043.582886 846.098572
656.456909 -1134.425903 773.077515
652.551208 -1064.078125 795.061707
620.536743 -1100.614014 776.637695
792.740479 -674.054260 563.513367
900.154724 -613.727051 608.036316
673.856079 -958.411438 953.225525
845.897278 -809.314392 1027.258789
971.239624 -520.682190 430.397461
724.397644 -380.307068 606.877258
988.980042 -461.179626 514.510681
812.013428 -917.544800 974.419373
841.071777 -723.942993 498.585083
974.009827 -503.883850 358.335449
818.081543 -1072.473877 731.853027
627.618958 -807.352112 394.862640
724.887024 -1111.275879 731.073364
846.296753 -626.476563 594.643372
955.945557 -533.366394 488.642883
770.850952 -572.728271 656.409058
1022.606262 -992.545166 850.705261
814.162354 -919.454346 955.645630
848.676880 -835.399353 1011.342529
977.762451 -421.706268 295.690002
535.815308 -1054.226563 842.967773
999.852661 -349.223602 335.321808
665.408386 -879.130493 786.212646
1190.520142 -932.671875 907.464233
980.640686 -451.348480 364.783966
803.002991 -540.143433 696.469116
584.523865 -985.131287 870.365540
634.087891 -635.919617 569.803284
811.379517 -976.294128 898.863953
766.522522 -954.425293 911.370911
1243.367554 -996.626282 835.863586
987.159119 -621.025574 483.075195
603.602295 -1098.488647 802.244141
974.013794 -453.098969 260.925262
602.092896 -724.483704 470.513824
950.375610 -571.534607 242.390732
555.477173 -995.411072 872.213684
576.700500 -661.638489 577.751831
611.172852 -668.234497 535.423462
870.200500 -599.453918 615.243469
777.686584 -1094.139893 776.752319
804.671631 -911.712891 948.983887
948.508301 -655.814819 548.248840
874.590515 -708.323425 471.368591
875.048279 -1193.294434 664.180298
654.104309 -993.561646 914.989990
678.661072 -562.398743 658.480591
525.760315 -985.609131 889.903259
974.719116 -521.104309 470.357056
731.448975 -1116.729614 769.339294
813.234131 -1003.216797 596.921570
953.539734 -1082.033203 729.204163
973.492493 -513.113464 231.010620
954.168213 -622.539063 378.750275
761.572998 -1070.109131 692.504700
962.962646 -578.242859 347.686066
636.481934 -756.814880 477.056793
837.903137 -908.856812 804.281555
1118.101318 -934.877319 913.990723
929.249695 -683.890686 533.604919
607.111755 -949.420959 955.756836
582.286011 -956.026917 946.334229
813.418945 -809.092896 1081.823853
853.223450 -811.661865 987.466187
646.591919 -579.815247 655.471863
970.336182 -561.490784 358.864807
633.663208 -582.622192 649.923584
496.369751 -1049.230469 844.506409
659.052856 -1160.031250 708.130127
741.298828 -1147.353882 699.022034
888.083435 -664.906311 537.811829
748.109863 -1153.962158 664.923401
607.851196 -1158.220947 717.627197
953.571716 -551.309814 222.277618
1229.599609 -903.912781 911.446716
677.172424 -1204.805176 664.382629
705.349731 -1169.760010 657.901245
972.604431 -405.420990 377.684326
596.214722 -1153.898682 717.795410
1243.506592 -944.494446 876.547363
971.904358 -475.798096 425.042816
952.421326 -614.263489 233.707306
700.230835 -1053.421631 826.828491
967.111633 -457.256195 329.767883
980.839355 -487.555756 521.431824
660.494873 -774.281555 433.523224
699.633911 -646.162415 596.124939
522.202271 -1047.715698 875.701843
602.604553 -1106.192139 774.258850
604.049316 -610.928467 614.961609
959.545898 -547.890747 238.429031
944.261230 -701.885132 337.551056
658.852966 -580.153931 688.786377
960.995544 -497.365997 430.314911
1040.401489 -894.536194 855.759399
944.516052 -646.085693 230.218109
593.122131 -965.156494 958.315674
636.015869 -582.322327 642.532715
604.366089 -623.603943 608.970154
951.133667 -566.377563 378.786255
753.662170 -921.504089 989.013306
614.501465 -939.856445 984.473633
968.308838 -517.683167 404.025909
561.708435 -974.678162 926.468201
796.926697 -821.481934 1075.554077
969.012024 -952.500183 920.019592
551.722107 -1053.045288 832.886108
1063.580444 -926.980225 905.917908
723.018250 -619.267517 588.220154
995.414917 -368.872040 372.357361
704.126587 -953.110413 832.089111
973.622864 -390.481689 414.558807
788.989136 -343.395813 589.120789
875.243774 -664.541687 547.423828
649.185974 -620.269775 623.244507
930.676880 -600.752747 621.336060
930.876587 -646.274292 236.962524
972.084290 -393.808014 434.777802
1234.116211 -979.965393 825.277283
694.193298 -673.774353 552.337585
637.568665 -976.458191 851.845703
975.796265 -612.111145 415.080719
800.888916 -738.487366 441.574524
666.217651 -992.291077 878.346313
662.564880 -561.373413 690.787903
997.704834 -350.672363 355.349518
724.006714 -1095.214966 753.336243
974.400635 -385.560059 395.068481
504.996185 -996.542175 882.558289
976.147156 -410.802368 479.249847
750.390320 -1142.758789 711.999573
629.971313 -612.588806 604.273743
968.723511 -481.931183 504.914001
769.000427 -543.825684 665.942566
650.358704 -594.436279 649.338684
732.454285 -1145.330200 722.084351
961.823364 -582.399902 376.181122
887.978333 -916.315674 892.558960
953.474976 -567.908997 469.767761
532.558105 -1071.316772 822.840088
980.089355 -478.628906 495.990540
598.286926 -664.215942 592.014221
609.073975 -607.518677 661.053162
969.056091 -432.105621 409.733643
968.348450 -431.901611 422.686646
722.768860 -1002.560181 880.850769
986.382935 -409.715607 431.772552
795.790955 -709.898682 498.172516
695.968384 -867.510986 1031.159790
977.763306 -412.384369 313.713196
581.421875 -663.786987 569.523682
994.243286 -455.139282 284.937408
964.484192 -540.105347 158.490936
660.649536 -587.900818 645.843079
974.425354 -467.996399 537.971252
1215.185181 -916.292358 902.133301
847.005127 -1206.395142 642.491760
528.012756 -1063.258545 825.974060
975.374268 -498.647369 472.587646
892.426880 -829.750366 1032.112915
751.243896 -844.705322 1070.242310
607.276001 -588.780090 693.270813
596.880554 -678.313904 575.249512
1220.958984 -936.886047 899.180908
638.129211 -749.140686 442.737244
729.796814 -1108.264160 735.591064
545.390381 -977.465820 883.961853
987.492493 -373.878143 434.031799
791.571838 -997.786926 902.568237
976.709778 -461.115356 326.816498
933.008545 -698.053589 290.922760
715.700012 -591.938965 653.482849
647.685303 -896.382141 1005.464966
849.611755 -913.799438 879.861145
926.957458 -1197.949951 655.547424
690.235474 -585.041748 643.439575
822.154419 -962.106201 885.746460
501.129974 -1004.475830 889.366882
559.071716 -1030.793091 860.231262
613.133423 -951.540161 947.811035
542.451477 -973.003540 875.804932
666.504150 -1209.271240 655.484253
967.639099 -566.548096 372.127045
611.250427 -732.656799 486.639099
683.841309 -1089.131714 790.356384
810.505859 -701.336731 484.928925
966.026001 -476.689972 249.851013
876.777161 -654.656799 556.507324
970.419678 -575.432495 419.005219
836.604553 -712.759399 496.083435
668.891235 -702.265198 485.791809
731.783386 -1119.927368 722.053101
683.968933 -571.278992 692.894836
955.095398 -1128.059082 749.393127
724.884399 -1219.904541 618.103516
524.564575 -753.334412 518.873474
672.748840 -927.949280 970.966797
1001.981140 -411.744751 270.356873
989.649292 -960.839111 908.154541
955.504883 -566.049744 393.425446
950.576965 -603.330994 448.536377
817.601685 -973.197998 845.254150
883.657898 -749.931885 423.130219
970.285828 -547.994751 256.937805
798.214050 -883.279785 996.797424
999.060364 -412.301056 255.801254
684.090820 -984.470520 923.896667
975.261108 -485.018555 434.120361
788.418701 -822.168091 1075.571289
970.233398 -504.591003 444.636810
1028.311646 -966.236450 869.068054
869.376648 -737.098511 438.610931
980.707275 -466.704102 311.402283
598.665649 -980.781860 917.636230
959.893860 -583.764771 374.088409
782.640564 -575.564331 644.917786
931.941650 -658.114197 263.349609
772.201721 -924.607483 980.832520
1055.177490 -948.967163 901.720337
736.082336 -964.408691 905.062073
756.560791 -800.671082 404.446442
563.069946 -1095.310425 786.493835
826.587830 -690.911011 532.162231
975.643616 -375.502991 415.089569
987.099731 -395.299896 356.703186
570.278259 -1090.299927 796.308350
631.374695 -953.180786 954.012878
973.095337 -461.966797 397.916992
961.019287 -646.964661 377.942780
972.038452 -503.859070 283.475647
965.615784 -603.340881 456.442078
825.782227 -1066.817749 766.520813
842.526001 -352.575500 564.828064
705.087952 -787.635315 410.759460
991.407837 -405.590027 366.418671
807.708618 -981.296692 831.989319
986.377563 -478.410004 549.344360
981.365234 -367.488495 395.450256
678.592041 -643.958923 550.057983
800.459473 -1098.190552 781.657593
701.935791 -960.436096 913.524414
973.521057 -530.467896 357.269196
718.868591 -1113.135010 633.743103
967.811340 -475.934967 377.248627
742.731750 -602.104004 593.848877
613.071106 -1011.655945 876.960938
683.657898 -709.994507 516.516541
857.127502 -840.532593 1040.813477
685.285217 -989.755066 821.273499
629.747925 -1091.643188 794.021851
588.399414 -615.716309 640.970581
993.920166 -504.288452 524.645813
775.471802 -627.649658 589.718079
866.413940 -702.193481 500.782959
974.013977 -434.703278 361.212708
552.970520 -961.000061 932.592712
728.879150 -1150.096924 709.410583
611.290283 -798.816467 407.329285
623.825317 -948.203308 954.465820
737.383118 -1165.722656 692.535095
624.672546 -1100.438965 813.678955
775.872131 -822.798706 1054.472168
789.612366 -1098.153931 744.018799
809.059265 -766.018799 429.703491
593.301392 -799.091370 449.309418
686.343933 -867.288574 735.205322
650.124023 -761.496399 447.928711
994.070313 -944.284424 939.416626
975.871155 -462.840912 177.155243
755.069275 -1099.505249 768.076416
697.199158 -1080.098511 771.043762
940.843567 -644.216736 275.682861
575.287903 -736.808655 491.050293
638.838806 -576.172668 681.464233
756.760315 -908.440002 984.743530
601.265991 -934.297180 950.732971
842.884827 -854.317322 980.986572
732.422485 -871.271362 1042.064941
956.659424 -531.304016 400.536224
745.043213 -924.903076 980.375488
741.494568 -716.535522 483.868805
990.471008 -380.819092 387.991852
734.180420 -561.581909 655.278687
526.330566 -745.901367 520.979492
695.095337 -401.628845 626.262146
789.364258 -766.441589 471.731323
962.534851 -506.836792 408.302643
562.967407 -650.162964 601.996277
653.279663 -1179.388794 673.354370
848.676941 -1167.162476 660.592896
951.964661 -858.968750 971.457397
665.288086 -993.392822 854.282898
822.716187 -679.955139 508.965790
963.842346 -509.184479 505.956116
878.034546 -958.874573 883.694458
710.590393 -768.257935 410.323578
613.867981 -929.897888 973.176453
766.940247 -979.273376 915.432800
663.861511 -712.654419 515.332458
771.281799 -847.914124 1046.816406
508.253296 -1025.061646 878.768311
1219.256836 -1029.224243 803.097290
973.640259 -381.420776 456.741150
982.656677 -418.925964 360.470398
703.684509 -607.458496 591.014771
1205.547241 -981.411438 834.338135
913.859253 -741.808044 465.433044
842.213684 -838.613831 1050.943970
766.835205 -693.355103 495.911102
779.593445 -670.424438 567.454285
795.527588 -970.444397 902.842102
948.227478 -660.611511 335.527161
561.116638 -662.129517 566.249329
744.512878 -719.946106 484.683136
659.353149 -786.518555 387.447357
586.706482 -964.361267 921.739319
952.859741 -687.595398 517.461487
940.717285 -629.675903 245.510559
717.065857 -862.760498 1014.859802
969.921570 -438.595581 335.953827
657.265686 -1141.707642 732.224854
973.386414 -433.702820 340.580627
661.469727 -927.155090 970.190613
622.622375 -933.555359 791.208801
625.813843 -612.669922 631.382935
984.995911 -402.695862 380.085480
952.589111 -518.907288 527.199097
889.994019 -853.731995 953.089539
690.982544 -773.548767 463.157776
969.364502 -479.801392 239.813858
869.001160 -988.237610 871.172546
781.009766 -569.211304 663.983032
971.936218 -458.330292 431.709106
843.727722 -986.344421 868.131531
993.422852 -469.979675 224.953796
935.278015 -664.155823 353.861908
959.809082 -494.161713 447.052795
589.759460 -771.510437 444.897644
665.249023 -958.113770 862.276062
1007.576355 -368.223114 350.491821
620.102539 -610.634644 628.406311
942.614746 -630.212341 397.577667
881.353027 -592.944641 606.496826
706.273376 -585.133972 628.883240
607.403870 -616.529114 634.029053
765.822327 -837.659485 1060.770752
926.705444 -717.177490 480.177338
597.800171 -812.802917 412.168823
639.944092 -1088.921509 793.330322
742.649353 -963.425781 945.683411
952.271301 -645.461121 341.529053
596.215088 -936.077148 978.241089
778.904114 -987.101807 860.970642
891.223145 -957.641052 881.157288
639.778992 -967.975220 883.851685
849.444946 -824.680847 1051.729248
767.339233 -913.220154 987.145386
981.786682 -420.771667 399.290161
777.874146 -731.822510 466.470123
717.544739 -943.489685 950.626343
901.223450 -812.241943 1067.372437
775.442566 -635.901428 581.110657
977.461487 -413.938660 413.495575
662.982483 -908.080505 1010.022522
981.537415 -381.656860 368.122986
941.665100 -1158.429810 673.595215
763.028992 -691.685730 531.793152
646.827393 -898.495300 1003.301025
960.720764 -567.003967 325.688446
557.103821 -1084.062744 807.188660
965.197754 -519.097412 284.026855
532.202271 -749.958435 548.176086
559.779724 -1105.786499 781.303711
719.400024 -1137.054565 722.184204
515.086914 -991.716187 892.224609
976.955933 -427.143646 250.638123
570.112427 -771.731812 430.991180
801.958313 -634.313232 604.618896
667.771301 -977.400452 880.833191
973.575195 -461.323273 364.805817
763.511963 -867.510376 1037.188232
979.708618 -457.038086 477.847992
660.635315 -683.982666 525.766052
668.844360 -1151.174561 713.273193
607.922119 -649.849121 557.842529
604.013794 -1067.540039 796.207397
504.780670 -1036.266602 861.278442
619.484558 -1108.136230 790.388245
1251.391602 -945.413208 883.400085
731.286438 -609.337769 613.279480
808.804260 -820.466125 1086.984497
988.593933 -379.283905 314.724945
722.760376 -554.844238 685.289368
1196.707642 -979.094055 829.706116
885.039734 -769.978088 446.361908
973.463562 -510.991852 353.027039
977.572144 -482.414093 331.383240
654.914185 -707.817993 491.844513
641.684143 -739.870911 473.627075
979.959778 -389.383667 392.377441
709.875549 -1114.379028 788.716309
786.400024 -879.331360 1005.385498
871.254761 -642.053955 548.035217
632.972351 -689.216125 523.054565
863.622192 -727.466187 475.102661
513.521790 -1034.437622 886.267029
1101.804321 -939.572388 785.160583
848.352051 -622.310608 565.117126
610.866333 -584.634583 713.510254
792.562622 -975.497620 775.658264
971.702209 -594.429749 489.451172
832.933105 -889.980103 991.477295
603.313538 -931.993042 835.163208
965.199768 -520.442200 183.989365
685.227478 -1004.984741 843.486511
843.683899 -765.009094 407.866760
836.820313 -865.276489 1009.985046
696.110779 -706.074829 507.176910
802.861572 -640.355591 567.747925
973.486572 -393.654572 458.623627
952.018555 -634.713867 343.136963
507.403229 -991.655029 915.388550
645.137573 -748.233948 249.526352
652.640686 -567.286377 666.479309
951.854126 -623.534790 288.031250
992.690918 -393.370850 330.116852
695.702881 -538.700378 669.876648
993.767334 -403.910553 348.644714
984.146484 -502.872559 538.859497
603.232178 -633.303223 624.116821
948.235413 -591.100891 364.014648
800.894470 -989.445313 894.182922
920.664795 -717.534729 515.317017
767.566589 -982.132874 898.932556
869.240173 -608.857117 590.835144
911.229553 -729.480469 463.310150
720.783508 -703.599670 518.223206
735.665344 -1119.536987 714.140259
954.773560 -586.127808 286.871460
705.170898 -567.414001 640.862610
757.551086 -894.458923 1010.543457
734.896240 -950.144592 943.536194
965.084595 -552.627136 474.053680
554.216675 -718.962341 537.559631
963.198730 -533.315857 270.643158
989.496338 -975.703064 882.867859
541.259399 -960.574341 939.969360
958.747620 -515.389282 431.209198
551.797546 -702.178894 562.721924
722.335632 -954.216125 939.065796
936.110229 -675.538696 289.895630
672.601868 -1017.856506 839.575317
1044.520752 -967.630066 877.532288
1125.872070 -957.057251 813.461182
977.925110 -426.718689 440.404022
726.504761 -586.005798 658.389465
618.673401 -582.176819 695.144714
677.764587 -796.447388 408.770081
531.652588 -1047.766602 844.261780
634.854858 -661.226196 536.380005
778.256470 -1029.995605 792.282959
906.633606 -663.988831 523.254089
555.703308 -654.234436 613.559021
944.225037 -602.690369 274.268402
755.906799 -903.750366 990.102966
530.407776 -757.021484 480.204651
660.619629 -1131.783203 669.278076
813.107849 -676.368469 543.653198
664.632019 -1193.328247 654.043579
562.721558 -635.641296 640.406311
815.003479 -971.717468 746.177673
837.156799 -953.138550 840.126526
561.193481 -674.012146 618.525574
942.083313 -631.128723 198.183975
653.753113 -1105.303711 792.023376
956.496460 -577.390625 290.459869
967.561584 -444.822632 370.841125
969.174561 -587.613831 167.280426
975.964233 -403.751740 371.160614
724.955811 -629.557678 604.937317
649.283630 -1101.733154 777.815979
996.726318 -479.321014 534.385071
821.222168 -936.027954 920.673950
777.586548 -1087.830811 670.569275
796.755981 -864.207214 1019.285095
508.586487 -1066.631714 810.288513
981.746094 -400.855499 435.045593
859.914978 -572.106262 630.696533
764.102905 -624.896606 593.612061
801.584351 -963.392090 919.950500
1223.617065 -962.899658 870.965027
971.249023 -432.569641 329.584656
815.250366 -815.873901 1052.806152
816.519531 -1098.756226 704.431213
834.556824 -946.932129 882.550171
610.260864 -1067.239502 801.052612
909.724304 -646.644226 556.025574
876.342773 -897.239685 943.974121
976.761169 -496.280975 415.171631
828.173157 -939.078918 905.120056
1014.612915 -950.885071 897.298706
673.580566 -1149.799194 721.702087
994.813965 -351.626404 326.941589
801.048950 -783.126099 411.046051
612.397827 -609.688782 617.006104
593.902344 -603.040527 658.282288
