ply
format ascii 1.0
element vertex 1401
property float x
property float y
property float z
end_header
388.734009 555.247559 -1399.424561
33.341362 527.193054 -940.669373
101.957268 562.057312 -935.504395
-102.984581 867.237671 -817.481323
188.897308 747.997192 -953.970459
228.066132 448.519867 -971.279480
224.825378 880.450562 -714.042786
102.276512 586.039734 -956.219482
-78.041878 861.773315 -798.601624
59.227863 600.992126 -1426.411011
243.364502 416.143982 -1400.617920
356.187439 508.870331 -1384.787476
-26.231421 741.610718 -961.634155
-102.768036 857.453979 -826.428833
124.203682 899.931396 -669.384277
270.887970 956.642822 -1403.405273
-110.430122 574.227173 -1395.038818
189.680710 863.589600 -763.944702
-97.644928 940.024414 -639.151123
-1.195077 894.057495 -737.023315
15.066381 449.577148 -955.424805
25.883650 493.782379 -938.892700
-92.764107 880.780884 -772.490417
144.973709 641.169800 -1279.088745
212.112274 430.980774 -949.926697
92.507248 878.074280 -803.812134
200.645798 444.325592 -1365.991455
23.790005 870.727234 -871.098450
203.710190 419.070251 -1382.162720
139.175644 686.518982 -1283.649780
64.121635 460.695984 -1406.270020
251.711502 562.234741 -912.777039
171.883713 874.284119 -740.184509
193.830612 527.094543 -934.312134
-81.057625 494.187775 -934.287231
231.408295 915.469604 -1331.755859
196.422806 683.643860 -945.832214
7.487132 462.880157 -949.075562
-0.060537 917.208252 -615.007080
-42.787781 629.165344 -939.585876
347.764221 624.308960 -1380.708252
292.495789 524.229980 -1402.034302
233.728302 469.394653 -944.718994
-35.791618 581.644287 -1347.142578
36.668365 643.635315 -1401.014771
48.801819 893.342346 -729.786438
198.196518 879.549561 -772.570068
154.780731 401.195068 -1341.496338
270.716034 771.972168 -1405.911255
118.187172 913.993713 -662.239319
168.895050 697.145569 -1328.091187
120.786537 824.436523 -969.409790
214.568100 882.985840 -694.281494
-59.924309 934.406677 -624.350403
14.418562 896.488831 -724.869141
108.564049 476.281891 -922.694519
3.439416 907.184875 -644.450134
134.676712 453.113403 -945.288208
88.806725 412.107391 -1387.903076
329.083679 576.056396 -851.772644
145.059143 539.837341 -919.704041
208.153381 368.890137 -1389.451172
392.497253 634.221802 -1330.858154
179.702606 394.082581 -1377.621216
219.641769 458.808350 -940.533997
151.897385 551.101257 -947.878906
205.169495 909.977966 -1353.010498
188.228348 883.437195 -708.049683
210.161087 438.791443 -1393.653809
-46.165195 897.398865 -707.589172
249.611755 520.202209 -925.353088
-35.411125 503.154999 -1439.177368
34.784622 450.905579 -1396.074829
12.189816 892.272827 -717.136902
211.312363 432.403992 -1382.373779
123.662209 927.238037 -606.001038
41.004292 771.843262 -962.343140
-106.372681 587.850647 -1403.042358
221.071060 821.742126 -1396.545410
34.459644 458.724396 -1420.783081
170.428009 430.003998 -973.415344
426.030701 659.817566 -1378.077759
193.505615 440.653717 -945.155884
314.948303 678.464294 -936.138550
266.936615 494.774658 -944.559326
292.712494 491.296844 -1392.472900
-12.476970 859.155090 -863.096252
129.456177 571.131958 -928.223938
118.788071 871.720581 -821.548584
211.129868 509.499969 -929.680298
84.899460 501.670105 -932.400574
16.179886 880.474243 -728.597656
315.019562 602.654968 -1380.401855
278.846985 573.439148 -1412.351196
-13.232413 887.318726 -726.468384
269.339874 757.271057 -911.371887
-39.940296 588.089355 -949.403015
167.113708 510.741241 -927.111023
-62.851063 917.179993 -625.445618
146.959457 401.633759 -1407.134277
146.737427 475.707153 -1297.909546
208.212616 892.956299 -678.417847
362.544586 562.552795 -1390.484253
193.729538 1070.531982 -1413.190430
-15.249557 694.749207 -974.187439
192.565720 731.832581 -937.517029
143.485718 578.527527 -1367.714600
101.245064 788.313110 -958.344360
255.131989 863.050232 -732.742371
262.610352 636.676025 -1329.493408
-46.540241 691.903992 -945.008057
89.138092 608.634338 -1403.427002
93.983162 358.921753 -1396.717651
26.167524 589.685852 -1415.345337
175.759613 873.461853 -761.262939
204.006348 897.175110 -635.428894
206.577728 880.075928 -722.759705
-105.321655 532.338562 -1405.128906
-72.583267 615.854797 -1390.062256
223.258255 725.042419 -948.335815
-52.902290 616.765137 -1394.563477
195.183777 881.249573 -724.298401
141.334900 619.838928 -930.760132
159.342987 776.487915 -1402.130615
192.478104 656.857910 -920.652588
-23.969078 453.642883 -966.582397
180.925964 678.463989 -941.944702
57.673569 470.039215 -956.571167
341.172455 613.477844 -1386.305542
115.261749 879.386169 -716.565674
176.265244 644.486389 -1346.093750
262.127075 595.820007 -933.753662
28.537090 451.630371 -939.490234
208.997345 413.647552 -1378.882568
120.535965 884.944702 -688.662537
27.783806 411.355865 -1406.058716
-60.257282 786.797791 -976.098328
111.505661 460.139709 -940.792908
-80.962830 637.587891 -956.238892
-59.723804 655.331238 -966.473755
161.207825 426.599518 -942.690613
121.343689 486.656860 -1270.835205
111.354332 675.518738 -1354.717529
291.912750 645.440735 -1321.517090
272.112915 729.305847 -910.972473
-17.702707 732.610962 -979.797607
319.308228 626.732239 -1288.405884
74.186378 913.019287 -645.891113
148.444702 583.167480 -935.487061
215.047562 896.682739 -657.409790
59.968437 877.071411 -780.639709
269.713623 864.312195 -829.586731
-41.545017 939.987366 -577.404785
247.475540 735.352051 -947.471436
-56.194302 593.051636 -1414.110596
397.054565 675.500061 -1331.423218
223.515869 861.046936 -813.742371
-20.998417 924.504822 -608.723938
54.300632 468.184265 -1411.236938
153.420670 776.755310 -946.391846
154.399002 894.080261 -649.136475
142.563538 892.275879 -670.742004
218.583878 884.922974 -689.156494
225.180481 615.909912 -939.960571
-54.508099 920.540405 -614.973022
86.540291 915.557922 -609.808044
139.866165 464.262054 -926.865601
34.914314 917.583801 -628.228516
346.524017 506.444000 -1389.066650
-1.124468 921.175293 -600.335571
78.528214 551.166138 -933.140076
-50.685352 887.237793 -722.521790
-51.840736 579.109253 -1406.975464
38.634769 869.482971 -768.966125
133.070557 335.760925 -1388.216797
247.754578 593.385742 -1387.639282
137.264374 623.048828 -1345.772339
-30.315186 913.981812 -662.672363
-24.064562 398.036896 -1396.637451
75.509811 486.500732 -1396.504639
139.721344 500.932831 -922.064697
68.156075 638.137146 -1377.741821
105.647400 794.268677 -958.296143
-55.540260 647.641113 -1400.465088
-76.818909 538.104309 -1400.179688
219.601486 522.250916 -915.660828
163.815811 635.973511 -932.439148
86.202354 717.406250 -1330.001099
148.315872 474.850586 -1309.832520
225.083542 832.307800 -1386.202759
251.869659 886.217102 -724.503845
198.561188 881.665955 -713.207458
342.385651 757.593933 -1385.235840
3.360315 576.103577 -941.130859
197.560928 867.507446 -804.841919
170.829376 490.126648 -1317.906372
-67.050438 880.413940 -712.515259
78.452339 645.302307 -965.664978
104.234634 538.237366 -1411.363281
118.505798 391.657990 -1393.138428
121.367828 468.377899 -937.276306
119.524384 500.437714 -932.942444
125.147232 873.180481 -778.578613
120.978142 475.311981 -931.658752
359.591522 693.379150 -1396.300293
254.224701 573.594238 -940.554749
-16.060509 439.742859 -1422.718872
-62.624485 618.954956 -1390.214722
217.841415 875.069092 -788.965454
32.364361 483.063049 -936.532715
31.828238 908.444702 -668.186768
-71.153145 569.086914 -1430.904419
223.077286 518.040283 -934.487488
326.760132 459.331299 -1396.519775
87.136604 843.978394 -858.559448
0.399499 712.265686 -973.888000
-33.834122 566.059631 -1376.778809
203.644318 862.714966 -765.239563
181.743546 891.235657 -683.155396
338.956879 569.749512 -823.119019
26.464342 736.945251 -943.045776
257.804688 624.423218 -924.418152
303.651459 826.330688 -1393.814697
-12.805477 884.744202 -714.027649
299.295746 651.749573 -1360.259766
175.832016 452.650024 -949.968811
186.524857 370.078644 -1358.077148
120.219406 744.268433 -947.116394
208.401962 600.034729 -938.021179
45.709785 650.063416 -959.845520
208.759644 493.204285 -937.049988
11.870355 500.096375 -939.091797
128.397263 596.391052 -1226.236328
104.919113 567.325012 -932.658508
388.680359 635.493958 -1383.305054
1.237182 630.548279 -1418.034058
272.530518 687.755127 -1331.477295
-13.365858 875.001282 -762.838684
86.926994 337.694611 -1395.832275
181.518051 493.198456 -926.687683
122.213051 819.552185 -959.898865
115.468758 938.532349 -600.868469
6.906147 397.819550 -1391.979736
198.542496 596.211487 -923.322510
57.501789 860.398560 -817.177612
438.989532 586.223694 -1385.451904
9.705234 870.135803 -832.614685
-77.647285 750.396606 -968.167419
202.579193 514.299683 -1403.705811
181.136444 659.268555 -921.066040
32.369350 909.650452 -654.854126
-39.123112 497.362488 -1418.650757
461.754822 629.280396 -1382.821899
30.891981 668.182129 -954.011230
433.593628 655.098694 -1398.850342
223.343018 1062.787476 -1410.897217
55.403931 513.336060 -1413.733032
273.070343 895.181824 -1406.547119
311.200928 498.818420 -1406.337280
96.195366 521.263245 -1418.432373
110.404831 504.063477 -937.522034
340.257019 441.079041 -1397.355347
212.392746 875.224487 -829.483826
-22.243639 711.390442 -976.450378
5.786022 462.091614 -1399.022949
26.789928 923.024963 -625.537048
185.801575 881.775757 -738.040161
109.056808 526.322021 -931.655151
57.527946 594.323364 -1384.141968
140.353119 486.777863 -1373.199585
181.747253 934.191345 -614.697021
1.988488 907.401978 -692.332336
10.950137 884.877502 -774.202576
198.009140 657.966614 -953.762451
2.948142 711.560913 -943.462097
4.610975 929.709045 -618.270508
256.864594 552.555969 -927.618652
-65.360229 667.643066 -943.087585
303.345184 461.937164 -1397.489502
302.993164 618.576416 -749.978516
278.738953 565.544495 -921.250305
279.763397 385.195404 -1391.736084
312.284698 636.935425 -1401.091553
-28.965469 558.113159 -933.857239
123.498161 875.014526 -880.876282
272.940704 598.476990 -921.709412
272.826691 554.786499 -1412.837646
-30.477661 872.360657 -784.850891
423.273285 643.326721 -1387.644775
479.486603 636.122253 -1384.272095
104.685577 481.713959 -922.092712
203.370239 669.750427 -1311.337646
45.221558 725.895935 -969.129028
112.719582 917.110535 -586.457397
-18.068203 919.176392 -649.597534
327.774719 649.813599 -1355.163208
12.032960 563.910645 -1432.535645
247.472061 584.793762 -918.566345
-81.649384 546.390808 -939.502502
106.315376 553.286560 -932.173706
197.776047 654.019104 -1353.276733
41.109257 442.761688 -950.384277
104.181602 915.922119 -598.513672
195.382706 729.645325 -1397.624878
223.242813 880.780273 -758.897949
-23.875708 922.435364 -603.563477
205.384583 763.679626 -943.425598
352.638123 470.765472 -1382.985718
144.033783 877.552917 -749.109924
102.374161 897.338623 -734.667419
118.783485 905.164307 -694.997498
37.919441 868.372681 -831.774475
-31.071259 875.838989 -824.952454
50.691269 659.634583 -1399.190186
52.296673 500.121887 -934.727234
117.796638 572.319702 -953.295227
26.001551 866.362122 -795.215820
297.267792 987.686401 -1436.500610
-69.017342 867.822510 -791.900696
408.790833 669.395325 -1380.307373
-96.357010 870.142700 -772.038208
129.267868 894.025879 -658.718079
62.370872 589.079651 -927.534058
-26.843552 750.869934 -1428.830200
164.941605 896.950989 -659.874695
241.098969 404.216064 -1390.386963
286.496155 668.830872 -1399.101074
300.347473 1031.409546 -1421.607056
372.056274 731.550232 -1389.076782
47.783096 654.921936 -957.895264
217.550751 853.001465 -1414.002197
223.009720 452.361603 -943.928650
34.311684 665.862183 -974.065063
46.835239 503.396820 -936.546326
68.059601 886.572571 -723.208801
-98.389214 859.698486 -837.088318
40.825840 481.891022 -1415.286987
-76.309731 897.654663 -669.024414
-13.465596 628.462158 -1341.767334
116.757874 479.989044 -932.558472
3.048475 500.432312 -939.594849
35.308689 730.982178 -953.342529
30.724781 630.695068 -1428.038208
426.138458 592.436279 -1392.546021
220.932724 469.569031 -942.884460
197.673141 443.413300 -961.878784
49.800201 441.518097 -957.022644
63.344269 933.525635 -610.922546
162.146408 460.122345 -929.528625
148.246002 557.157471 -1221.668579
473.086456 624.323364 -1398.311157
-115.404480 559.225952 -1358.406494
53.663895 686.604248 -938.448975
5.096677 543.181152 -1403.620239
301.311981 921.139221 -1412.109863
92.239388 386.745941 -1395.521606
250.738342 463.682251 -950.521790
-24.421844 931.502075 -609.706848
-134.033203 522.144226 -1397.021729
16.514797 893.847290 -697.987549
-16.346357 672.916992 -972.182556
95.848831 442.873413 -1414.082275
451.011139 695.933533 -1381.800659
71.084251 765.951599 -959.421143
252.296021 670.054871 -928.177002
67.312561 427.753876 -1404.160400
297.669434 553.222107 -1404.465942
-108.870529 869.285278 -768.573486
-38.654892 444.382141 -962.940674
-84.136475 881.047668 -725.983337
135.599701 495.304260 -1332.985840
349.894104 636.184448 -1389.082764
71.517868 891.717590 -687.913025
131.576035 705.002625 -954.361694
19.569746 436.992737 -957.889282
107.707390 916.533569 -657.600525
190.353043 882.178589 -729.120911
-31.154984 879.505554 -755.952881
7.818600 941.911255 -595.974548
222.564087 477.698761 -1383.436157
-26.862072 780.690918 -963.185120
320.229553 469.533905 -1402.367310
47.466278 683.407837 -1390.270874
-103.127388 537.869690 -949.579102
7.998700 901.144104 -708.674866
-22.665813 884.857056 -722.140442
65.151482 912.166382 -610.152832
119.602318 439.404846 -941.726868
-70.764732 912.394409 -673.746643
155.842667 600.388794 -1390.799561
358.719666 700.205627 -1389.657227
80.345856 666.736023 -961.727234
338.344604 510.743195 -1397.113770
233.369293 876.323425 -800.869446
101.967140 734.465332 -954.751221
70.112526 919.273987 -630.989929
89.242325 861.826477 -841.833557
59.395359 504.550476 -1415.302246
-58.080357 857.841431 -844.001038
17.884151 776.182556 -973.880859
429.588959 623.367737 -1388.790649
269.367950 781.311035 -1393.161987
197.579193 330.575409 -1372.872803
54.351841 762.266235 -961.302185
-117.159615 678.373291 -1423.666992
256.507538 390.699646 -1397.272583
276.348724 788.045471 -1395.862549
264.813324 567.766479 -920.528625
110.057983 649.123108 -952.334595
197.515213 547.415344 -927.704041
222.491913 505.462555 -934.581055
326.859375 614.381653 -1400.979126
289.083801 831.892090 -1399.762451
282.040558 679.988647 -1401.625244
307.517212 617.412048 -1399.819214
251.938278 1006.196167 -1407.508423
242.129059 874.252747 -779.484253
361.711060 522.436890 -1372.845337
375.715576 557.053772 -1375.268921
370.735199 499.999847 -1397.112915
211.058823 857.150818 -848.381836
110.596237 742.112854 -963.784485
-10.906313 898.101746 -686.554443
-30.006910 851.509949 -850.875916
156.565750 909.081909 -639.541321
-12.407479 910.012939 -676.230713
-113.723633 699.940308 -1413.557251
323.054688 628.880981 -937.703186
-46.149590 850.768921 -854.033630
275.472015 847.623657 -1418.562256
-116.988731 547.140503 -1393.008789
6.120418 430.479797 -1409.729248
29.575083 516.958252 -1417.916870
217.658234 892.112793 -695.845947
222.831512 541.856079 -937.134644
28.614738 468.826599 -939.003723
100.134163 886.494568 -762.121399
334.565979 645.043762 -1356.892212
87.207596 713.840515 -938.655273
-13.148130 476.163513 -949.442383
335.099243 604.892395 -1399.594116
170.213318 398.269867 -1370.430664
-93.590462 872.888733 -796.842163
0.490954 896.172058 -714.760925
-43.914524 593.839661 -950.815674
-113.925087 658.896423 -962.569275
-48.226109 634.991272 -1359.760742
194.312347 484.643158 -936.222290
279.760651 942.818665 -1405.165283
319.341217 488.118347 -1376.690552
213.116074 469.311066 -1399.798218
13.817876 605.976135 -1398.903320
-11.825535 740.495972 -978.677979
212.429367 827.684387 -962.741333
310.489624 575.137939 -1407.861694
49.556381 531.137878 -1426.554077
142.319839 587.010620 -952.251465
44.353584 441.398865 -957.611450
202.185333 862.807678 -852.646606
321.280029 749.027893 -764.703125
143.561035 579.470337 -942.739563
55.402588 484.358368 -955.914612
248.072845 468.945862 -974.765381
360.876831 649.184814 -1329.596558
41.515724 546.574158 -950.806641
-76.225525 475.164978 -950.962708
193.339386 651.708679 -1387.167358
277.563019 535.923828 -922.018677
108.619141 329.825256 -1382.664917
63.702705 502.864746 -1411.083862
260.133057 486.382477 -943.419617
220.911972 803.365906 -1425.027222
56.272476 565.160034 -1430.918823
-63.213753 872.609985 -802.262512
97.266670 913.635742 -611.755371
-0.171405 856.543823 -829.275085
265.865845 734.191406 -1375.999756
202.852585 538.933716 -916.440613
202.771194 607.310181 -929.992859
-28.966591 576.153137 -1393.917847
343.497101 453.893677 -1374.027222
-61.403374 532.025574 -942.813782
-67.582382 772.045898 -949.881348
13.084579 413.106995 -1410.916138
-11.110456 909.025696 -668.231201
30.859531 565.100220 -962.365967
14.198726 462.569580 -1428.445313
70.622757 434.391327 -956.258972
-76.995964 584.675720 -949.928894
280.253937 562.671692 -928.232422
97.963768 639.445496 -952.704285
11.980301 885.418518 -751.722046
28.187576 801.273499 -961.953552
185.121552 905.523499 -1352.879395
386.422302 549.049622 -1375.252441
264.856995 621.986572 -1405.569092
103.442780 622.450073 -959.942505
195.605026 617.514160 -1393.175415
-88.844421 526.183777 -1416.082520
1.413177 791.512146 -1407.413086
217.949722 464.170990 -1399.813354
17.652878 922.521667 -634.037354
157.895004 905.016785 -672.688354
55.849438 873.279541 -797.736511
218.271896 446.664398 -1371.899048
81.629959 357.891052 -1396.529541
228.329620 533.670227 -1403.757202
-83.369644 775.693726 -953.176941
28.720652 909.088379 -685.971863
70.834305 892.998230 -722.391296
169.146515 794.221069 -1334.012207
413.714874 672.689209 -1337.014404
-178.876511 553.448364 -1399.631836
295.725311 735.184998 -1365.938477
163.956329 625.071533 -919.856873
461.715576 650.745361 -1395.407349
154.514160 504.735504 -916.703979
-49.492939 884.838013 -790.546753
82.485092 890.430969 -675.915527
166.665359 697.575745 -932.447693
31.022892 865.616516 -842.796448
125.271622 339.584900 -1404.459229
-58.541203 882.380066 -711.261169
85.182152 457.162781 -931.704590
-83.325073 521.374329 -1392.404297
-112.800995 616.797180 -1370.697021
259.503876 1069.277954 -1408.919800
161.380493 482.811005 -927.997986
158.054367 379.756958 -1380.983154
119.093002 903.364319 -618.593811
244.831894 751.111450 -948.719971
-70.696983 638.440002 -1393.861206
110.398643 512.890381 -931.234497
271.561310 837.431580 -1399.248169
305.418427 472.471680 -1390.989258
-73.332375 561.118530 -1415.084473
-82.203758 467.313629 -964.497681
128.387619 728.002808 -968.254150
243.954041 872.451172 -1398.825562
75.676178 411.001465 -1387.614868
145.235367 486.191528 -919.814575
310.005127 619.455505 -895.513733
149.169373 463.681183 -1282.077515
89.096024 764.456482 -960.685059
-1.977331 473.526154 -933.458923
443.881531 709.765930 -1378.451172
93.747353 481.094238 -1418.626099
-51.716255 515.299255 -945.957031
28.111038 684.622559 -1395.960205
204.678345 492.506287 -1402.435303
114.280212 876.226624 -887.506042
150.510529 318.619995 -1391.426880
3.664078 540.236450 -939.730103
263.573059 596.055298 -1399.249146
229.577805 667.231262 -937.846313
114.693878 625.410217 -926.400696
126.338127 464.822968 -1395.595337
115.553558 576.108948 -1316.218018
-6.414092 894.019104 -725.358765
-73.908836 535.325317 -942.787354
274.409058 485.296722 -1395.290894
33.679161 709.477478 -969.955078
96.154488 645.258789 -1397.797241
104.623940 546.518555 -932.307068
271.682587 422.528778 -1387.494507
47.732777 417.688354 -958.658020
230.967316 565.649353 -923.590454
255.273788 465.147003 -1404.508301
-118.547600 505.845703 -1403.370728
-5.879492 900.119141 -657.256592
358.879944 525.231079 -1396.797729
460.973572 612.670105 -1393.179565
23.399908 562.167114 -943.838379
110.033173 433.777924 -1403.877563
178.378021 533.453308 -917.749329
279.495911 585.239685 -1385.295288
133.526489 899.187683 -664.867310
272.359528 841.193726 -1396.074341
299.334656 487.166443 -1375.571533
-82.273575 621.437561 -959.163940
423.530457 574.997253 -1395.342773
294.276520 808.643860 -1388.041626
252.178009 676.599243 -1412.480469
17.714556 474.319031 -947.989380
231.399551 706.534790 -1375.298950
297.057587 536.602112 -1398.061646
412.018097 578.955994 -1396.368408
-12.222607 479.362427 -1399.380615
-109.997505 880.385498 -732.996643
237.772797 406.278015 -1398.328735
285.617981 802.905090 -1417.547119
-70.470169 538.102600 -977.843628
29.691242 484.742767 -1434.936035
54.632801 581.596313 -1431.352539
-68.463669 556.083862 -1400.979980
213.161987 687.986328 -1350.981934
30.180777 453.492249 -1431.746338
-6.942832 876.857483 -807.431824
-38.257103 855.532471 -867.374023
10.655359 852.523743 -855.253113
60.329208 547.135925 -947.510437
366.903992 750.819031 -1387.937866
174.213821 528.201599 -928.506592
-28.403244 678.396851 -957.933960
267.597870 546.467834 -1383.811035
-170.945694 537.260254 -1406.317749
-106.425346 563.971680 -1403.317627
-42.929596 735.988098 -961.292725
164.285248 877.223450 -780.665588
366.134705 523.210266 -1398.043823
223.971725 508.472809 -920.680603
38.909782 890.490173 -772.630920
26.103813 858.268005 -816.396240
41.613911 591.515564 -938.987854
127.753281 542.305542 -927.771362
-35.402649 933.507568 -610.872803
405.369507 698.269226 -1397.349365
125.676300 880.465942 -829.298889
-85.606056 579.812317 -1421.184448
-91.200409 863.167419 -810.655579
135.538330 549.242676 -927.680603
232.476212 1057.298340 -1410.996948
148.277679 522.704834 -938.071289
26.434986 596.250610 -966.361389
43.346043 368.258423 -1400.296753
9.956383 798.096130 -963.751343
117.257072 582.771484 -944.067993
-6.696514 592.299744 -948.828369
211.959091 881.130493 -765.651062
154.172867 422.544342 -1352.225708
119.563110 326.065918 -1395.568848
5.134380 713.875305 -973.312134
4.828287 530.869507 -1433.752197
-24.603497 756.833923 -1433.719482
-54.649765 740.245728 -1437.014160
34.922237 901.326721 -706.169189
259.837097 701.123962 -931.881104
154.862640 320.542419 -1378.985596
-43.971230 917.674866 -602.437317
110.052055 908.518494 -659.181274
3.888132 487.692261 -940.545227
79.030266 705.319702 -961.494507
90.241684 328.781006 -1391.603027
167.040787 616.402100 -1390.012573
-67.499748 562.448486 -1421.745850
-71.184586 559.940674 -1413.993896
361.853363 535.959106 -1386.584229
83.131340 528.151306 -1412.372070
185.132584 901.083069 -629.669800
3.954129 878.988708 -753.401489
261.089630 385.330200 -1392.607056
184.045822 490.412964 -938.012268
168.494263 852.450500 -831.093628
-23.179083 665.376831 -956.246094
134.104233 419.287048 -1395.587769
89.710251 453.720276 -934.825684
40.337559 488.403809 -936.061462
184.589462 656.301819 -949.194092
66.247658 899.181519 -667.879944
473.129578 647.799988 -1382.069214
31.383041 497.079102 -1424.629883
14.296153 841.043762 -871.916260
272.925842 801.176697 -1386.255737
186.792435 337.092499 -1390.248535
81.759941 348.774994 -1396.347168
196.489746 561.835815 -917.347839
291.371826 815.022522 -1406.593506
47.817852 879.125427 -782.591187
76.582687 427.230438 -957.899902
-29.402723 831.259705 -978.094360
-39.753757 883.395630 -716.517029
213.391754 563.828552 -929.478821
10.191672 449.342377 -957.127075
280.713715 538.635315 -933.110718
139.178787 686.505249 -962.757568
463.517578 626.378357 -1385.371094
108.093636 546.653748 -1371.451172
186.121918 368.438202 -1387.651001
229.102936 530.970093 -1403.033691
413.319427 588.546753 -1385.123535
186.432404 916.155579 -623.258484
241.042343 613.468079 -1388.321533
19.822535 901.545593 -661.259399
120.879295 895.764526 -686.798889
96.682899 545.723083 -1386.333008
-87.702919 615.090088 -1380.393677
161.408798 636.827454 -924.782715
18.456457 496.238586 -1399.379395
119.240273 874.159790 -750.293152
144.100876 501.856476 -925.417236
154.801605 468.960266 -939.677490
53.631893 885.392090 -794.589539
-13.413269 613.899170 -1417.021851
235.037903 488.047455 -945.258911
-47.712166 487.418488 -947.141296
121.757187 509.646942 -917.632629
-21.470474 623.999695 -952.116577
7.708018 509.464844 -939.545410
-73.904427 886.521179 -740.994934
243.249268 571.537659 -1404.397095
-49.278950 535.344116 -1410.022339
253.504822 564.709534 -1415.738281
-127.169518 524.591431 -1405.733276
7.261404 907.651306 -636.511169
-90.879150 883.809143 -748.863647
269.357605 419.316925 -1396.626587
208.033813 679.856384 -923.167908
148.304703 687.072754 -937.616943
-5.158686 817.184265 -970.899475
348.229584 456.365997 -1391.401367
-10.893184 901.559631 -707.896545
-92.711037 626.065369 -1415.993774
159.340683 873.533386 -827.404053
5.699055 857.540588 -866.142395
81.500275 410.763489 -1400.118652
274.556366 554.465942 -931.486389
437.070770 583.690308 -1380.931763
113.654922 887.022095 -717.403015
211.381363 342.488098 -1384.985229
22.286556 685.285278 -966.528992
29.112411 597.848633 -954.734253
245.622437 494.539825 -1398.495483
91.389961 500.376251 -1404.558594
311.048096 646.419861 -759.887024
284.483551 922.903259 -1401.871704
85.115646 521.241333 -933.214722
95.177971 707.086182 -954.582520
-105.816933 747.021240 -971.579529
112.413139 617.160767 -933.346008
-49.701778 557.971069 -1417.419556
105.354149 579.562439 -1398.581177
45.956955 906.820068 -678.769653
-38.381393 880.772461 -776.007751
185.286652 883.607422 -737.682922
9.526302 879.399658 -800.986267
41.653721 865.952271 -850.666504
-88.763206 647.387878 -953.288635
17.600946 921.482239 -597.701111
-48.775326 456.580872 -1399.345825
85.291611 463.001740 -1419.417236
76.894295 568.030029 -1364.117676
44.942127 893.626587 -734.837097
-59.208561 503.707825 -950.265686
194.333847 664.068176 -1419.921265
131.928268 714.107178 -966.577576
312.519806 987.461548 -1416.515991
298.414307 524.410583 -1408.068481
266.000122 374.471924 -1385.288574
143.215393 833.132751 -1385.781494
-1.343270 540.816101 -1437.064697
90.469406 616.741638 -1412.154419
154.796844 807.062317 -962.370117
247.680908 593.294434 -1412.542603
190.036469 655.547180 -1326.667358
63.435112 946.116882 -572.428345
190.375839 474.792297 -930.684082
-52.986305 597.053528 -1390.672363
0.376286 864.743896 -809.820496
96.803932 516.727844 -933.686707
94.508141 681.824158 -938.421875
137.486816 542.276794 -1394.039917
138.552490 484.140625 -1374.054443
209.457520 777.582520 -1407.221558
105.499565 888.572021 -726.188171
-8.082870 891.181213 -685.332764
165.657715 434.474518 -952.260681
-43.418808 865.540039 -838.634338
70.644951 709.140015 -956.142639
240.659637 373.347626 -1394.301025
274.656036 847.199951 -1401.268555
110.286224 576.404419 -950.573669
291.119019 557.354797 -924.124756
380.718719 616.326965 -1391.051025
-44.774578 835.294922 -1443.477173
164.342560 657.150391 -922.383545
-21.279940 825.275085 -1442.975830
-35.995678 740.582642 -979.033203
152.582306 440.138458 -928.641418
129.947662 384.047455 -1397.249023
50.857025 729.101379 -1331.175659
247.464798 872.619263 -1328.741943
133.534561 878.694092 -779.489014
98.852844 547.409180 -936.152405
-88.753731 552.502380 -943.254761
304.615906 516.221985 -1393.769043
189.182709 650.111328 -1367.530640
293.102386 620.565308 -1404.032104
19.086010 765.688721 -979.029602
128.927078 558.515320 -929.026062
177.265411 369.963135 -1377.004517
64.604141 481.643188 -922.805298
10.332274 913.504822 -621.115845
20.084064 923.265015 -605.132751
-40.474152 476.691162 -939.370361
244.867081 388.382538 -1389.272949
53.655682 629.229309 -941.213013
-72.876274 474.928864 -945.954407
-76.468239 899.636658 -661.802856
43.710018 893.432007 -684.059875
90.031197 449.025146 -1383.650513
155.404221 445.253906 -951.854675
381.995880 516.858643 -1382.509277
24.168980 527.582947 -1400.623779
-51.555416 909.719971 -627.460327
149.943130 372.477631 -1412.233276
361.939697 499.054291 -1383.999878
154.965881 497.410248 -1271.359863
-76.908173 560.694702 -1422.429077
-1.754688 578.518188 -1421.093994
248.241364 549.347046 -1403.129395
-103.042717 503.933350 -936.879700
159.052231 580.193115 -1397.546875
-24.037207 601.889282 -1342.475586
65.550575 930.989990 -580.004272
-55.159164 495.736237 -1406.130249
223.621414 611.529236 -927.272827
223.221024 448.571777 -1392.491699
220.161087 522.646729 -1414.337769
127.544807 885.112122 -685.199646
1.860451 888.919250 -692.846069
-47.762569 481.788696 -939.119629
54.435036 636.955811 -941.763916
198.491364 869.491272 -800.899292
-91.171638 890.273865 -715.607849
391.705078 720.555908 -1385.574585
80.647545 896.481384 -673.961304
16.014265 908.904663 -628.309082
211.487320 554.250916 -1390.353516
395.364655 654.561646 -1370.311646
-113.324516 905.131165 -654.073303
-4.486937 898.092163 -665.787720
-138.230972 609.573608 -1419.821655
7.779359 892.811401 -739.060364
170.026535 887.577209 -1377.271973
322.091400 766.747131 -766.088379
212.055405 497.744934 -924.391663
40.093109 346.088654 -1389.709595
82.312187 743.879944 -966.158203
-85.925591 519.767639 -954.293518
19.226292 751.296326 -986.766724
331.486115 625.809937 -1383.078247
1.208277 934.849365 -612.669312
159.326538 451.722351 -1293.842407
366.813721 638.637146 -1367.091675
265.255585 516.490295 -935.163940
305.763977 1014.455750 -1403.604858
116.181190 874.272766 -781.037720
203.606598 557.671021 -1391.911621
233.887711 596.337463 -912.524902
291.441284 947.463989 -1402.955444
117.989601 549.339966 -929.505676
295.287994 857.831177 -1360.427856
124.801613 554.403503 -1251.703735
-58.451015 728.439087 -1433.017822
285.111938 446.136566 -1394.287109
236.095657 1046.537476 -1444.076904
9.192020 605.301636 -1345.896362
274.390350 513.148987 -1404.080811
71.817001 642.496277 -1409.465332
62.626015 521.339905 -955.627808
421.097473 569.419556 -1383.929688
180.010559 572.230408 -925.028625
251.636230 408.110199 -1406.349976
243.927444 465.029144 -1411.834717
140.947525 909.602661 -623.745667
-52.213791 890.338867 -725.556213
56.871391 461.000977 -1396.700684
199.910782 677.907898 -1414.433228
31.961485 885.286682 -722.055176
164.637344 895.354431 -670.117615
93.312271 679.434875 -946.052063
217.225464 909.577209 -648.600281
145.886475 446.047058 -946.858398
277.529480 537.889771 -1400.451538
178.085114 440.140656 -1344.192993
420.394775 614.561218 -1388.441162
277.075348 1012.315552 -1421.405396
-43.634190 908.161133 -683.467957
135.690598 896.736572 -658.884644
168.856461 885.261902 -700.393127
-94.021240 643.396667 -961.163330
226.589630 797.322327 -1407.149048
202.766541 564.268066 -930.150085
-7.037885 477.395599 -943.438965
89.713608 805.156067 -941.485901
285.183197 541.019653 -1411.325806
-14.568415 600.878540 -961.280762
-61.985413 863.231750 -836.323975
334.649872 562.116028 -1393.354614
177.827179 575.385071 -1410.983643
207.259628 853.886902 -1397.365479
-82.987877 905.465393 -662.245667
339.247742 623.622559 -1384.256714
229.984680 429.833252 -1400.365479
25.500198 429.050964 -1425.236206
260.244476 525.968689 -921.810120
146.328064 894.485901 -651.917053
225.767288 422.421448 -1379.605713
206.770828 662.671570 -1375.382935
170.190796 876.496521 -731.531128
46.532070 926.783752 -625.028442
238.413773 593.593628 -1404.787842
167.153900 750.779114 -948.698547
228.130875 738.527771 -1363.208862
-158.126785 630.592163 -1428.897827
170.592300 871.642578 -772.208191
404.013519 561.011414 -1382.942505
172.212296 434.972198 -1365.056396
244.331650 561.956360 -934.303650
-97.718590 501.862122 -1433.678589
-34.351513 860.097900 -824.655212
216.297562 593.459839 -921.781250
43.501297 865.024048 -860.350220
47.118568 596.501648 -938.956238
164.133713 371.298950 -1381.328491
341.827972 543.711365 -1392.666382
67.439110 881.614563 -791.726990
42.482643 684.583191 -964.282837
323.964081 663.716797 -1352.860352
154.027451 861.290405 -795.250183
435.640991 658.145752 -1374.693970
75.783768 564.919128 -1403.479370
80.363640 673.416016 -943.446960
214.711807 885.791687 -714.488098
223.431412 474.564972 -930.714172
72.022346 611.794128 -1414.680908
53.983440 915.985229 -606.115540
284.760498 989.518127 -1415.225098
-51.510292 750.148376 -1437.833740
311.711945 684.301208 -1405.060791
129.145554 539.283691 -1247.197632
198.569504 417.351013 -1374.050659
200.319077 476.738831 -945.535889
47.943161 594.684692 -926.640808
212.744156 483.357849 -929.766846
212.255798 944.427551 -1366.069458
350.138336 461.180664 -1371.657959
218.726288 346.405548 -1384.978882
225.301636 394.496735 -1394.445679
30.371204 688.192505 -965.849426
222.927689 584.216187 -1390.417603
52.638714 522.079712 -938.074463
188.371384 466.875305 -935.610901
197.664444 661.565491 -920.005005
239.935837 652.768494 -1323.372559
11.094170 631.841553 -1396.117676
70.173912 479.719482 -1409.290649
259.510864 460.595062 -1380.840332
-95.669373 529.914429 -1393.282349
183.344681 836.043579 -956.262085
34.836365 968.740845 -602.224976
222.398224 337.016663 -1383.782715
303.987854 623.535461 -1391.027588
56.372089 874.004639 -800.180237
44.989269 502.203461 -1412.847900
285.130066 500.644562 -948.768799
-80.858948 886.480469 -708.973022
-4.495216 538.724487 -1420.580811
12.672374 526.144043 -1417.117920
203.434372 913.331787 -623.185364
-59.307022 820.619629 -1471.245972
-93.247787 725.930359 -1438.461670
33.173286 421.854523 -1423.970337
24.501911 430.165436 -1409.365723
255.184921 661.639893 -1411.555664
238.257690 510.072845 -1398.177734
-56.392067 870.994629 -801.400879
212.572754 342.077545 -1391.316162
202.620514 873.028503 -759.583374
37.915329 390.481476 -1407.235229
392.925629 594.933105 -1384.667725
39.559769 658.101013 -947.821899
230.874283 575.281921 -934.954773
200.670151 715.185120 -925.443176
79.249756 337.435028 -1386.467651
8.871027 598.698547 -1406.436768
325.249542 682.957458 -1376.452637
-62.657192 446.127838 -970.093201
-56.188911 619.334656 -966.754333
-48.318512 882.662781 -718.677307
135.128571 791.436157 -957.675537
103.345978 545.709290 -923.074768
281.954315 651.456604 -1370.300171
305.909241 709.973755 -744.882263
204.253326 878.861938 -736.983643
43.244232 493.941925 -954.672485
27.189278 922.506653 -608.063782
181.683945 886.883118 -684.241028
243.168732 605.382690 -915.369263
166.931900 339.128571 -1384.630859
-3.817957 661.522522 -955.026978
5.638584 894.625977 -700.371643
136.026489 373.501953 -1380.454712
-56.091583 537.066833 -942.922302
67.552017 409.588135 -943.770447
-15.640013 869.560852 -775.823303
320.204285 501.344513 -1402.806519
246.376266 475.052399 -946.327148
-112.408249 738.593201 -1442.349121
153.872726 647.046753 -933.013428
-21.488968 891.980957 -707.613525
236.629105 544.560730 -931.790649
-81.401611 735.837708 -981.589661
397.454834 537.770020 -1391.123901
-80.790993 857.193176 -867.635864
-74.443153 593.628540 -933.963623
121.100388 417.378601 -968.910278
401.805939 540.074341 -1385.919556
277.674927 665.335693 -1402.687256
-18.738298 682.686218 -943.042969
-4.864691 876.145691 -803.296387
34.162766 471.290619 -934.394104
-42.853649 717.958008 -966.019897
-11.169347 576.014648 -1420.970337
182.003174 482.504883 -1401.575684
210.044632 623.217834 -1410.828125
-104.209579 460.392700 -1402.311157
241.814651 664.593872 -941.574646
117.014679 634.987000 -954.939514
-28.941238 467.417908 -1401.684570
137.017868 743.990845 -960.381348
107.098778 496.092438 -919.229858
406.379578 633.238525 -1381.092651
-119.983261 601.195801 -1412.744385
0.147240 922.837402 -614.346191
24.000679 724.736084 -963.185608
-17.855175 568.064392 -1403.489868
312.627655 702.442993 -1390.910522
88.448792 746.170471 -957.739929
113.450333 518.693848 -1379.216553
120.471642 934.143738 -597.487122
10.889277 596.719910 -1431.760010
130.863342 888.440857 -714.661255
-80.434982 903.112976 -663.151489
168.987747 489.558197 -1259.624146
114.478226 462.450226 -934.978821
164.191910 522.663879 -945.556091
-138.677490 597.639465 -1426.578979
45.391312 863.780762 -869.890442
43.242485 444.156189 -954.248352
11.377774 888.482239 -707.516479
-11.792787 767.428101 -973.909851
105.434219 919.093079 -650.338013
141.601349 878.271301 -758.913696
178.097885 930.777466 -605.597290
351.122711 523.246033 -1389.185913
-118.156258 863.150757 -831.404236
319.915192 621.267334 -1398.124756
194.567276 436.576141 -962.853699
194.923004 501.822479 -1393.844116
82.887154 939.190918 -580.835022
208.761017 693.033997 -945.135376
78.865631 910.739868 -611.012451
39.204887 349.652069 -1386.836304
67.827637 887.548767 -763.520325
-10.615641 586.741760 -948.685974
-48.503002 551.484558 -1404.016357
237.384384 890.346436 -703.495728
32.775463 695.336975 -940.469299
46.709026 664.551514 -1403.822388
56.625900 610.059448 -1430.325195
326.423248 661.372314 -1340.160889
71.921516 878.590759 -741.347107
68.970505 780.889282 -954.515259
271.418060 374.012085 -1383.657471
118.594582 365.614258 -1391.589478
109.453125 458.247742 -1395.135010
111.639656 896.860168 -654.838623
285.543945 801.759033 -1408.821045
173.402817 473.187317 -931.354248
15.496734 908.544617 -634.357666
189.790268 443.554413 -981.799866
284.068451 449.895569 -1377.429932
194.972458 685.005493 -1351.949097
70.700249 434.150146 -1415.873047
-93.343513 857.499573 -821.871094
183.750275 564.182007 -1394.504150
-50.166874 741.842468 -992.144043
114.092300 436.878845 -929.502319
38.426498 883.934143 -797.712036
-102.124191 868.313110 -828.432373
273.726379 869.153992 -820.471436
-89.771149 766.273987 -1456.093384
117.596130 328.869965 -1382.684937
90.488213 591.910706 -925.239929
243.426605 575.734924 -914.344116
389.001038 609.817383 -1379.072388
244.240555 666.053101 -927.896729
97.401199 801.780029 -959.206116
93.121399 885.419373 -751.289185
260.954926 542.726807 -927.234680
130.629303 875.055359 -766.441956
140.981781 909.134705 -627.104980
-40.714977 454.994110 -959.239563
148.468323 893.408752 -660.008118
254.608246 427.941528 -1400.066040
13.555257 809.195923 -1408.317627
277.528442 442.354034 -1394.670776
1.816135 586.103821 -947.749878
-38.387814 608.664307 -1414.789673
426.260803 673.405151 -1379.468018
110.144402 471.807892 -1400.883423
223.165085 869.708069 -760.163147
33.135197 917.427551 -653.342285
43.808098 584.112915 -1406.335815
-76.194656 721.593567 -1420.534302
-104.095123 488.711700 -1417.580200
101.430748 887.858704 -744.164734
199.049469 638.668457 -922.684082
-79.045135 767.188110 -1435.613403
89.702225 503.810547 -919.242126
175.416611 468.667114 -942.385315
265.449890 417.715820 -1377.156860
-104.781761 534.861938 -1397.134521
305.532440 439.189270 -1385.974854
416.681946 690.048279 -1358.868286
197.445557 333.339050 -1387.676270
7.183154 422.095490 -1411.776489
-51.615875 889.030151 -699.575806
178.229218 858.168579 -834.795410
56.911228 753.493591 -969.968445
164.198730 551.872803 -929.427185
6.185226 856.822205 -838.308289
166.575623 596.587830 -921.162903
26.331316 869.632568 -879.003845
-77.216919 486.299408 -949.660156
-19.679188 780.481750 -949.929932
434.038574 689.745239 -1401.415039
267.497070 653.698486 -1388.907471
357.473846 624.494507 -1340.691162
178.471603 479.923126 -927.607544
-31.799524 884.140381 -714.537781
-146.512238 576.597717 -1365.997437
-118.946693 563.054871 -1350.873901
48.072971 478.859619 -924.018921
205.391418 616.485840 -929.145874
21.616104 444.496765 -955.314880
189.025528 555.392578 -1420.771851
38.122517 920.612061 -611.386780
-37.643417 534.444275 -948.903076
175.170670 914.838623 -634.220093
118.258423 696.972412 -966.653809
63.533638 893.368042 -735.605835
64.469551 622.157471 -1399.819824
-56.483784 512.090637 -936.746521
235.445450 464.224548 -1380.740967
225.061966 867.257629 -718.007446
217.505081 511.616272 -923.414429
120.874855 570.296753 -932.328735
15.134207 788.800171 -967.098083
61.032204 511.409088 -1430.614868
423.665436 653.892212 -1380.667236
240.135727 580.424500 -1418.022217
244.712006 516.157715 -929.368347
19.394642 650.401794 -952.709106
259.963379 654.821472 -915.599060
-149.422470 593.842529 -1430.477539
33.505322 868.173706 -784.335449
203.369705 459.816254 -926.926147
442.983521 594.188965 -1387.475098
177.076599 367.191315 -1355.517212
123.436478 917.190857 -589.016724
-54.388390 843.195251 -854.382202
90.339912 886.864929 -744.490967
46.002228 920.665283 -639.175232
231.982925 444.545044 -1392.041626
254.727982 847.997681 -1389.448730
99.747902 414.504700 -1400.854370
251.072098 501.804718 -924.247314
215.530685 876.187439 -732.734863
57.826817 917.639587 -586.508484
246.095108 394.835724 -1396.905273
-18.970556 883.356384 -731.359497
13.640670 489.325653 -944.077209
109.109406 915.045715 -596.733215
476.806885 637.733398 -1381.405884
22.480808 579.067627 -1420.213379
379.363556 566.304626 -1395.727783
61.277725 568.642273 -941.029236
141.281647 640.659424 -941.769287
127.614204 874.796692 -818.959656
-94.848770 506.375519 -1426.781982
416.580231 647.238159 -1381.358032
135.407608 773.751953 -971.189026
-12.318805 546.330383 -965.750732
279.788513 636.482178 -1383.804321
82.254272 889.022034 -746.710815
263.240143 571.731201 -926.270569
165.493896 363.388397 -1384.529541
120.430817 422.949463 -963.357788
65.670830 619.593994 -937.878601
260.837006 670.084167 -913.689575
-67.516518 635.109497 -963.784973
63.676624 479.059052 -1433.264038
108.292007 318.465271 -1381.699097
219.585938 474.374878 -1399.591553
-68.975006 877.478516 -789.905640
163.216080 419.226624 -1346.660645
260.066315 396.310944 -1390.810425
19.958944 705.487000 -970.015259
72.168938 917.063477 -609.687012
217.182495 869.006775 -720.309509
-48.070957 768.818787 -962.726563
262.463654 863.850464 -722.107727
398.719757 649.078491 -1329.297485
147.503006 431.712067 -1371.864014
2.308089 564.063171 -943.402649
179.241241 542.172913 -1405.268066
166.261169 862.954346 -842.402954
83.804123 563.229126 -947.280945
279.480591 418.075012 -1390.013916
-2.542899 539.471191 -944.411316
-89.504723 582.396790 -1345.464600
-76.606178 597.348267 -1404.778931
-17.536287 904.735657 -642.904602
218.436264 890.206360 -653.988464
18.913836 822.773071 -960.485352
-30.014111 509.611633 -1439.342285
61.524929 487.078186 -940.803528
40.826321 446.222809 -1406.775757
-27.725119 497.257141 -1418.357300
315.209747 584.261963 -1381.865967
-53.800644 874.514099 -762.741882
423.235016 646.345276 -1353.812378
-23.697384 859.088074 -843.853088
161.526108 909.079834 -655.086731
251.432312 834.278076 -1401.342163
161.555832 535.726257 -915.070984
-71.223915 830.513977 -1464.984741
143.661163 613.058899 -1368.703247
100.929977 891.391907 -736.168030
1.541196 532.600708 -940.298218
118.767532 522.532471 -1398.380371
123.726151 463.269989 -927.400940
-125.956696 539.360596 -1365.538818
73.314201 554.622620 -1409.340576
91.114975 762.566528 -1343.972046
243.964661 961.993835 -1401.708984
-41.311207 486.877655 -951.647766
-54.590202 445.164703 -967.377930
194.937469 889.640564 -670.966980
-36.840015 513.536133 -944.474915
276.919434 602.135803 -922.119141
77.356644 661.262756 -946.356812
305.853729 414.813690 -1383.668945
-40.945660 898.129822 -682.778076
22.725332 609.415100 -1403.113892
43.784649 618.797302 -966.768677
-45.108498 864.286377 -828.962646
194.295013 426.219299 -1378.053467
289.132996 588.954529 -909.705078
109.725952 921.213867 -603.723206
-45.701363 897.546692 -680.582764
405.258606 541.560669 -1390.582520
98.586784 531.369812 -934.040588
165.077393 652.313721 -923.857788
59.431801 910.104553 -620.995911
244.173416 587.971497 -927.708374
-108.097023 740.148438 -1443.250000
436.438232 696.000244 -1370.524292
113.956573 648.518188 -1284.922729
224.108124 453.468048 -1381.103638
28.517134 889.136658 -716.247131
78.426506 458.003784 -1419.603271
267.899384 758.747681 -1416.077026
-43.332100 866.898804 -823.173401
258.185303 485.824066 -1380.047119
-91.896736 536.944641 -1385.351440
116.748383 637.919617 -935.734070
-51.068943 783.509277 -1456.585938
400.296387 600.405640 -1349.854492
27.957367 896.403198 -717.290466
173.392059 743.046814 -940.440247
-156.017227 585.005981 -1367.943237
265.818359 751.802917 -1429.040161
301.609192 628.067932 -1403.666382
294.225067 413.177368 -1374.301147
298.969208 628.318970 -924.135254
69.995522 523.909973 -1416.384644
217.245773 375.153809 -1395.382446
184.758072 873.208191 -840.684143
-77.794220 712.751099 -947.670288
-14.390488 527.795227 -927.466614
249.210785 532.104248 -937.971436
196.379639 873.023438 -768.084534
15.625819 899.457092 -710.961060
164.413956 606.957153 -1383.123535
140.264557 450.095856 -1345.515625
284.914307 518.691833 -935.692383
338.017334 608.571777 -738.376038
142.779831 454.285919 -945.204041
-103.875511 545.376709 -1389.665405
243.122787 647.903198 -1402.107666
365.885590 651.830505 -1389.514282
85.935188 887.954102 -704.625549
263.578003 608.781189 -1408.156494
-85.531555 704.902283 -1419.401611
78.252319 336.448700 -1382.897217
311.934235 607.887207 -1395.477539
373.195190 573.433228 -1388.486328
81.100815 563.240906 -933.944336
373.774506 628.157043 -1392.534912
285.778137 595.853943 -937.007080
145.664795 528.371216 -1275.048462
-89.028900 572.017578 -1423.839478
150.958115 412.734161 -1362.197021
212.733200 439.186157 -944.361511
94.097939 874.617981 -783.094421
-5.220381 900.916626 -671.618591
-36.083786 930.020325 -596.394714
107.211830 900.432617 -639.323730
7.166448 776.561035 -947.950806
-106.292900 703.020325 -1432.932129
119.240021 781.344727 -952.564026
27.935347 648.166138 -1391.500610
321.034698 651.334900 -1387.488037
-14.231294 926.613037 -604.626526
426.176453 560.015503 -1397.900146
-52.232201 688.352539 -1414.814697
267.484192 517.611694 -1412.755981
14.526582 571.920776 -941.045532
61.070961 452.889771 -944.847229
271.492218 882.702515 -843.560120
109.842628 484.610504 -1409.075317
67.574539 785.568848 -958.036194
19.944719 500.039337 -938.172729
93.389420 877.308472 -838.099670
170.626709 880.751099 -1358.865601
215.924927 429.761841 -963.825928
135.871521 889.392517 -728.371887
45.300591 504.534882 -934.725525
137.460663 853.161621 -850.237305
0.275017 885.182556 -767.165039
-118.756325 498.314575 -1415.746704
-110.898094 877.078308 -746.686584
-56.140270 890.188660 -727.902344
3.024371 903.685913 -654.747131
292.785919 592.453552 -1410.721313
275.481354 651.287903 -1409.368774
195.480484 903.707092 -656.518250
203.571487 861.883240 -843.121216
227.924011 813.078979 -1402.697876
-112.310020 551.211548 -947.087708
358.868286 572.432068 -1389.894287
270.313690 547.382690 -1413.570313
279.821808 710.795227 -1377.418701
194.177567 709.350098 -936.893127
176.372635 888.184265 -688.182434
173.908325 855.287964 -1392.075195
239.843979 751.481079 -947.291565
54.542343 387.545074 -1401.701782
27.836994 856.836792 -828.332336
80.643082 796.847656 -959.574158
433.186584 712.645142 -1388.279419
243.426620 510.250519 -946.360352
82.066483 547.877869 -933.578979
194.385010 888.864563 -696.932251
-104.410225 885.772278 -738.605164
-12.975080 529.224060 -965.167053
43.058350 648.354980 -1338.638062
64.279640 480.283905 -1411.373657
213.989548 663.960022 -919.095947
-21.119514 485.498444 -943.905334
156.270981 762.652954 -967.837830
199.338226 678.204834 -923.900513
5.817716 508.258698 -954.769348
211.189087 466.764221 -1383.650757
218.287140 871.055237 -826.602905
18.311644 485.508484 -1412.202393
123.777573 653.425415 -1257.528931
303.677124 858.632446 -1388.705322
351.571350 659.534912 -1375.684570
55.435085 418.593170 -1390.241455
221.021042 686.180725 -943.104919
456.416504 701.039490 -1377.153931
135.827621 520.392029 -927.716187
181.216049 737.016968 -935.799866
-33.041233 436.126465 -1415.401733
250.583160 517.495911 -1383.781006
200.049927 450.779419 -1407.849854
274.269775 1015.466248 -1439.483765
-75.759125 625.148865 -955.028076
197.505569 453.388519 -934.060913
280.019592 879.098755 -1412.389771
-33.131756 509.712708 -1404.985840
256.833496 611.403564 -1412.340576
-39.926880 683.559204 -961.960999
-10.176991 885.998108 -765.375000
126.588432 524.748291 -927.545776
-2.604393 767.391296 -972.861084
4.714143 889.432312 -720.474854
244.961365 626.473083 -1412.945435
139.105011 494.558563 -919.450378
171.905991 398.759949 -1336.965454
331.627869 708.338745 -726.397339
211.806198 473.552429 -952.442749
227.776749 516.712097 -1387.882813
8.782144 442.603882 -1411.864868
240.266769 659.355408 -1401.850708
205.353424 447.105377 -979.242310
447.813660 625.182129 -1387.680054
