ply
format ascii 1.0
element vertex 1355
property float x
property float y
property float z
end_header
-792.445190 766.069031 -35.239319
-769.411926 447.705139 -545.513794
-855.136536 628.958923 -470.516693
-768.339966 789.564514 -106.922539
-954.133850 600.144653 -1012.402344
-1138.421265 686.819946 -801.987122
-1218.761108 868.682922 -798.825134
-828.143127 765.286011 -155.164139
-880.085022 729.552917 -213.902206
-965.902222 659.823425 -990.467834
-959.903381 678.221558 -1000.496643
-831.264587 754.592102 -189.454544
-737.997498 848.086426 -273.930176
-1039.824219 731.821960 -898.349060
-1002.538818 678.271179 -395.594879
-1072.226196 463.315460 -892.292114
-1152.175293 877.774658 -806.254272
-953.267822 647.398560 -997.792786
-1086.281494 649.526550 -888.224060
-755.378235 813.017273 -223.601974
-927.036621 662.941467 -417.617279
-760.732605 467.650085 -592.865234
-913.809509 603.551147 -428.413147
-842.765442 731.266418 -113.901070
-1035.052002 707.448975 -924.796387
-1165.780396 459.270538 -833.817078
-891.696655 720.222046 -448.797943
-739.588867 487.977051 -566.421326
-1240.179199 464.028931 -771.399414
-1352.101440 655.971313 -692.123779
-864.849792 744.931030 -152.129410
-698.489563 614.466370 -617.769226
-792.420044 752.286865 -23.277428
-797.366028 769.648132 -128.268723
-982.554810 670.584900 -977.608643
-1029.688354 722.030334 -935.158508
-975.494385 738.637878 -985.508118
-927.366150 391.290619 -420.224762
-712.235291 837.781555 -167.348282
-823.486206 779.198669 -197.260010
-992.000671 494.581909 -820.265625
-1034.319824 685.162903 -913.768677
-761.639038 702.888977 -527.001343
-942.679199 497.570557 -387.447540
-1138.331665 713.269714 -814.884338
-1211.468018 482.583862 -797.633362
-1219.593750 854.225830 -741.708679
-862.201721 529.511475 -464.016724
-952.423401 733.117493 -937.792236
-1113.178955 358.635834 -853.177551
-770.248047 464.060364 -553.733215
-874.989929 707.347351 -114.463860
-953.632690 524.828857 -997.858582
-721.343323 574.361206 -606.301697
-855.179993 465.746643 -469.873077
-818.769470 397.025085 -530.964478
-1143.059570 345.231262 -834.794250
-1001.332397 572.021301 -344.840790
-950.722717 667.610718 -387.433960
-1192.517334 431.742279 -825.245239
-1001.429749 662.375122 -963.507751
-998.494263 515.469482 -969.354309
-1034.857544 775.500366 -895.275635
-973.230896 790.321594 -972.644775
-807.929138 415.271179 -505.270355
-1177.640015 747.933289 -765.438171
-1075.090088 411.533844 -913.780090
-927.452820 713.275940 -209.938522
-732.475769 660.792725 -573.133972
-947.277954 634.118286 -425.018585
-1025.560913 514.065186 -940.934998
-876.733398 707.475342 -80.278793
-780.106201 518.563110 -531.779968
-1128.592773 504.194031 -696.398193
-1275.416016 475.603668 -715.178284
-1033.400024 807.580566 -935.995239
-771.181641 540.565735 -524.770264
-1038.989380 434.938354 -903.370361
-882.381836 671.370667 -437.694611
-743.216125 807.994080 -131.301254
-761.378052 562.803650 -542.337341
-1305.534546 981.331909 -691.581177
-751.074585 847.757385 -92.540169
-1265.321777 391.250397 -751.173889
-984.694458 448.458923 -959.412231
-755.227051 828.428284 -189.600037
-1064.837036 742.679138 -865.230713
-1138.642578 470.683075 -854.224365
-748.952209 597.055786 -569.284790
-808.118103 434.589539 -498.142273
-1028.200317 602.609802 -358.715942
-1016.720825 613.987610 -367.686981
-714.486572 564.103027 -588.409729
-1264.436035 990.853210 -749.544128
-1030.534668 471.855011 -839.876953
-1337.512939 589.278198 -699.370728
-1241.131226 399.138092 -767.393799
-801.113770 746.766602 -55.067326
-1009.886719 593.510742 -394.023285
-754.110840 490.798706 -570.703369
-833.420166 780.369385 -496.161163
-1138.820679 529.404236 -837.650513
-1113.550415 455.545746 -876.372131
-767.892334 464.388702 -549.999634
-689.406555 860.608093 -175.089645
-833.832092 567.873169 -509.114227
-791.181763 432.726532 -535.813232
-1159.079346 620.149963 -799.456665
-1049.458008 509.863861 -920.531250
-965.280396 673.682495 -205.909744
-723.554077 853.052063 -229.314117
-712.301697 621.695618 -597.560181
-738.556274 493.912231 -586.838196
-916.798889 716.171021 -249.909317
-852.754822 676.939270 -459.775879
-911.050232 713.770020 -214.701706
-1017.719360 671.838379 -955.398621
-1105.762817 720.594177 -844.718018
-804.629822 397.520416 -553.847229
-1057.881348 698.447144 -910.744446
-740.641296 814.108826 -157.374023
-992.506409 615.788940 -391.328552
-822.574524 407.838470 -511.557343
-1170.379028 338.415161 -828.746704
-1049.602173 829.507568 -906.195068
-1141.142212 360.330841 -852.845825
-792.253296 817.980835 -293.485260
-899.180176 474.469269 -460.029633
-982.383667 482.273956 -989.560974
-834.660706 774.737671 -269.435608
-926.243591 712.878479 -183.807510
-713.904785 557.821106 -609.932678
-1011.921204 439.778595 -931.065186
-950.628418 506.012299 -403.794922
-853.593506 575.627075 -459.932800
-981.280090 533.284058 -975.680908
-1224.292725 499.109406 -784.771484
-933.458923 748.649475 -278.250916
-1141.318604 743.996948 -735.215271
-772.889038 667.368713 -554.745239
-1099.904785 449.262115 -874.450806
-1090.491577 699.211914 -812.962585
-729.080017 624.628296 -579.114563
-743.977112 513.002808 -564.153992
-1184.300049 424.034637 -814.515747
-1197.265015 480.956909 -710.045898
-1056.405396 386.825500 -909.224731
-911.905579 750.341614 -430.334808
-1113.652588 462.847321 -875.705688
-764.819397 804.887390 -83.793358
-727.314026 656.172791 -565.699646
-949.019226 666.969360 -169.396942
-927.696411 729.814148 -295.630920
-843.233765 583.663147 -479.477600
-1081.098877 705.163879 -824.495361
-1096.701538 361.057526 -900.092773
-1024.558838 486.599792 -952.061401
-1165.399048 420.174713 -835.223389
-969.322937 694.802002 -247.688583
-812.769775 385.870667 -524.369019
-864.588806 713.628052 -110.444504
-1169.230713 638.748840 -691.359375
-1232.855225 506.063568 -768.697937
-881.550659 426.805328 -471.972443
-843.052490 673.742310 -476.201721
-709.610046 583.430725 -607.416992
-698.459595 607.414795 -608.897705
-870.468567 369.866913 -471.840698
-1020.274170 583.331848 -965.194702
-712.106689 831.757874 -153.971100
-1176.134155 540.665588 -590.337219
-1253.510986 410.393646 -743.087524
-785.329346 457.787323 -526.424011
-997.740234 353.309662 -948.651001
-760.368591 510.376221 -569.838318
-861.362488 335.461273 -489.588470
-817.029358 784.722473 -199.802216
-1171.035400 548.459656 -786.412537
-983.613159 732.970459 -899.060974
-724.537292 593.110107 -578.861450
-1019.521667 390.087341 -906.185303
-996.015503 610.081238 -967.754578
-1099.963013 431.649506 -881.857239
-1187.513306 559.248840 -794.045410
-1129.023804 432.699921 -866.283264
-1010.065247 503.519592 -332.390656
-972.730652 626.118591 -991.078247
-696.362366 844.877197 -182.264633
-1027.864258 454.135468 -926.573547
-863.196899 408.404907 -468.801483
-691.490051 869.302429 -198.761169
-1015.600281 446.974915 -935.008484
-734.727417 526.095154 -572.590088
-1023.075928 570.430786 -947.733215
-849.105103 743.163635 -142.234634
-1259.534424 365.824738 -743.999146
-972.650574 776.827271 -970.192871
-990.775757 454.330902 -974.240173
-1210.521118 966.026611 -771.236511
-1183.485474 572.087219 -798.549255
-1248.175415 1034.626343 -737.498474
-905.407898 698.300598 -160.766586
-800.930359 786.317688 -153.897049
-947.792847 735.299194 -950.009583
-916.419800 597.712341 -444.516418
-965.977478 428.134705 -388.485138
-794.502441 793.930298 -228.507019
-736.527405 507.664917 -561.592590
-1079.513672 709.562622 -873.642151
-787.495300 793.894165 -210.024139
-908.373779 703.671753 -180.026398
-923.105042 452.233765 -413.887787
-1260.987183 518.498840 -723.222229
-837.958618 441.800598 -468.167664
-830.968994 458.143890 -497.898956
-880.897156 710.297302 -453.481567
-1146.416260 720.594360 -773.790527
-1108.440430 709.177795 -815.438782
-1269.600708 330.951599 -727.163025
-763.340820 564.029358 -548.967957
-1042.239746 611.050476 -947.020752
-869.402100 735.899780 -144.510056
-1077.097656 585.042542 -905.314209
-1198.629028 439.072968 -810.598083
-1410.364258 650.557556 -670.831421
-803.294617 779.529785 -152.689560
-736.767151 501.735718 -569.931152
-788.093994 468.778961 -554.193604
-918.169312 362.163116 -296.682587
-921.701355 721.229187 -221.856964
-769.084961 535.561829 -539.314575
-1207.426147 722.675171 -797.640198
-977.033081 557.968262 -993.423157
-1084.433472 624.682922 -915.284668
-956.932739 716.807556 -399.861359
-796.049438 464.553528 -523.135132
-1126.115479 377.488007 -861.587097
-901.939392 367.761108 -421.625427
-807.956177 694.597534 -525.455750
-942.216064 474.284973 -434.760193
-745.996582 845.714661 -300.957428
-1088.272583 609.038086 -905.202454
-921.465820 380.691956 -426.037720
-1002.782288 347.811829 -953.288025
-860.324463 774.526428 -250.167862
-699.296265 868.068420 -281.513672
-1247.675415 609.042236 -725.741089
-753.090942 850.543274 -298.130371
-1076.446777 361.801758 -897.793274
-955.417908 673.759888 -174.208801
-1008.342896 443.116638 -945.042725
-791.671204 762.387390 -57.579247
-762.121216 683.764648 -530.493103
-989.421448 623.815430 -987.301086
-780.167114 779.404724 -127.162033
-1079.011475 698.398499 -894.188171
-1238.687134 479.438660 -731.363892
-745.977661 484.102814 -606.464050
-815.675598 736.020569 -52.436684
-781.600891 572.367004 -524.756714
-862.312073 542.470947 -452.548035
-817.311951 803.422607 -290.843201
-822.599243 743.808594 -91.605453
-892.491577 736.388062 -199.899445
-891.085938 793.186035 -334.593567
-791.821350 697.374146 -520.487488
-787.638916 776.585022 -105.697960
-787.324585 757.470764 -57.538692
-744.565796 569.057190 -565.747314
-1054.922852 566.875244 -338.137451
-736.308838 511.033295 -573.743164
-1023.023193 660.756592 -355.202850
-997.945251 517.790100 -972.869385
-1144.949341 356.567444 -849.898376
-837.388550 380.144135 -497.672180
-1029.229248 784.830078 -903.207214
-1233.326050 487.853973 -731.439575
-1009.117493 568.008728 -368.798859
-748.118164 686.104126 -546.137207
-1186.206787 800.328674 -802.977356
-734.113647 849.032288 -269.245209
-707.352966 842.278503 -213.706467
-1002.332886 734.772827 -934.376892
-896.887146 384.646973 -471.936371
-1038.610229 537.085510 -932.896118
-938.112854 682.183716 -182.462006
-754.356995 715.684143 -535.409119
-719.270264 827.659973 -133.623154
-1098.547363 732.177124 -877.230164
-1102.775391 777.026672 -849.025757
-932.831360 711.402100 -263.515198
-834.328552 738.258423 -93.144066
-824.853821 758.204041 -67.615601
-744.573547 640.152710 -559.317871
-1019.253845 500.072723 -962.540344
-898.830322 659.064331 -429.584686
-706.834351 872.955444 -141.969894
-914.070923 349.581238 -429.027924
-892.347046 569.950317 -457.692047
-933.448853 690.689880 -197.933365
-879.886719 622.122803 -453.612152
-1026.348145 706.347473 -944.477661
-812.958984 458.496033 -506.235046
-804.683960 819.291321 -295.342773
-751.385559 470.159607 -582.866821
-964.843445 546.487366 -978.095398
-851.379761 721.552185 -59.224438
-1286.916992 352.725677 -712.433044
-823.542114 691.424866 -510.752563
-893.364502 768.854370 -465.177979
-779.700500 442.489655 -555.060486
-1012.210510 676.923218 -965.825684
-857.619019 346.958984 -494.987366
-716.378906 623.132935 -601.181335
-973.474304 538.679688 -990.723633
-1005.537537 470.650269 -935.556763
-821.387451 670.864197 -525.825928
-964.984314 807.096069 -989.086548
-907.929688 575.200562 -436.294159
-1168.078369 342.829712 -827.425903
-750.710754 648.049622 -547.497437
-938.519897 617.343018 -430.214752
-1096.123047 675.344666 -895.702454
-978.338379 521.284363 -691.153198
-1061.828003 703.341064 -851.473694
-986.596680 655.541260 -382.300140
-893.360474 655.938538 -465.148468
-967.782715 721.205750 -994.789856
-1201.703247 426.850006 -806.238647
-1024.433960 687.933105 -954.555969
-946.287292 794.992615 -1002.665344
-1151.410522 359.217072 -841.134705
-1068.690552 413.012970 -907.331787
-1171.600464 526.064758 -846.706055
-835.537964 493.020020 -513.263733
-1030.610229 396.549744 -916.622681
-738.367737 811.958374 -165.093765
-854.229248 763.662537 -195.942215
-998.539856 771.037170 -883.940613
-826.747803 745.733948 -134.820221
-892.418579 720.506958 -183.014420
-1012.926514 424.507904 -896.500671
-1214.779175 803.500671 -794.494751
-721.290894 839.065979 -103.200951
-712.686890 854.650696 -286.464264
-803.747009 517.958984 -493.965179
-1132.818970 510.626434 -849.095337
-778.361450 443.192841 -532.561707
-1021.010254 736.057983 -891.004578
-1332.871948 616.014893 -681.533386
-1035.545532 483.973572 -886.641846
-812.785339 545.625244 -502.215790
-817.160767 396.229584 -524.127808
-1070.081299 752.113281 -876.195618
-1233.809204 936.025513 -716.270264
-1024.188110 446.866089 -917.030151
-709.386047 839.519653 -146.376968
-1211.382202 526.430542 -812.328552
-753.542175 635.017456 -544.084412
-1032.779175 606.035645 -940.752808
-962.314026 724.095825 -904.750610
-995.598389 468.977081 -357.336426
-864.879883 543.664368 -464.987152
-781.163208 814.937561 -276.804993
-1242.200806 426.815704 -744.667236
-919.821594 668.959473 -78.515182
-1084.010254 593.415833 -899.978943
-1026.967163 354.623322 -935.830017
-1059.070801 453.693329 -893.285461
-745.978271 839.046509 -261.619812
-932.887878 575.359802 -420.213348
-953.310059 718.938171 -379.468262
-1078.506470 544.038208 -743.501160
-738.750610 837.082153 -228.868668
-1330.668579 634.135986 -655.888794
-1011.014832 587.291016 -956.329529
-1237.190430 572.194885 -720.670715
-864.841003 429.648895 -468.640656
-796.942261 477.241302 -519.270264
-805.460571 771.234802 -120.468719
-756.863098 636.676758 -571.392700
-839.946655 344.758514 -503.733093
-923.597107 512.880127 -405.431274
-829.887024 465.608246 -518.469055
-1237.258301 496.472229 -745.788696
-700.734314 612.726318 -620.886597
-1080.988892 583.699341 -922.418762
-1269.793579 425.372559 -722.199097
-738.502258 553.001404 -556.061584
-991.707092 691.300171 -965.895874
-1194.403320 750.353760 -810.925964
-1065.435181 369.993439 -920.472778
-1052.564819 726.496033 -903.055481
-1070.836670 616.126404 -919.146912
-1056.143799 676.400452 -911.247192
-1044.436890 656.501709 -938.778076
-726.971008 818.776611 -129.034012
-1222.916260 414.762268 -798.993652
-794.334167 783.851379 -169.198181
-745.758118 462.316833 -585.872742
-992.738037 748.506165 -920.090881
-921.443848 383.012939 -433.364716
-767.662781 789.467224 -133.648239
-1173.621094 884.423157 -819.007141
-835.709167 435.526276 -487.591339
-912.664124 743.882751 -255.101746
-786.365845 829.093384 -283.278198
-726.380066 837.278137 -216.003067
-1099.453491 462.798706 -840.427856
-977.195984 388.704193 -975.303345
-1001.354004 405.392944 -981.178406
-758.344116 823.176453 -120.495667
-1209.350586 771.362000 -774.959106
-1050.241455 643.730286 -932.803284
-955.237183 545.114136 -996.729919
-916.968506 742.681641 -243.833557
-742.191101 860.851074 -282.651520
-875.280273 702.512878 -23.519339
-788.381470 703.325012 -525.444458
-820.330994 745.447815 -51.528076
-1146.646118 653.847168 -784.099304
-835.464539 701.091003 -475.860168
-983.826294 771.829834 -901.488281
-702.781616 519.809509 -626.596680
-795.681885 772.009644 -136.067093
-952.207092 598.310791 -406.361023
-948.531799 669.508362 -140.856064
-853.962341 521.536316 -458.227600
-954.386414 664.922852 -135.785980
-830.023499 807.107910 -503.200317
-948.256592 640.504944 -983.910645
-738.379272 545.896606 -565.893066
-1092.360840 630.608887 -794.082886
-777.593994 597.270752 -538.601990
-718.712280 589.165344 -588.005127
-1124.836670 450.041656 -863.925232
-1080.055908 575.249634 -919.181824
-1252.736816 462.903778 -736.144043
-848.224854 671.774292 -469.637115
-1102.604736 447.989929 -875.010376
-1026.247803 725.350891 -915.456726
-990.426880 734.788208 -870.063599
-1052.032349 702.838928 -883.095093
-819.257690 769.038147 -123.672028
-1021.546387 425.212433 -927.180237
-873.106567 526.830017 -473.927917
-1033.044434 453.432312 -911.436279
-1202.705322 787.233154 -777.382324
-1375.131470 550.301880 -670.612000
-979.542969 726.506470 -982.796814
-772.725952 824.004028 -249.967346
-895.803162 350.375885 -464.293243
-836.994751 415.696533 -507.591492
-724.317566 554.284790 -659.860657
-957.078247 682.248413 -994.038574
-946.603088 747.424500 -988.329529
-831.350403 385.238800 -529.735046
-887.639282 742.945801 -211.909958
-975.361633 526.663574 -987.418701
-851.402039 741.693298 -156.074722
-738.070984 830.393677 -189.110657
-830.008545 731.929993 -63.102337
-912.600098 728.248840 -227.596268
-854.876587 707.961609 -489.321014
-713.478943 590.613525 -583.313904
-970.530518 753.983215 -904.048340
-1234.591919 387.240906 -778.608459
-1198.370605 794.467957 -806.675293
-881.704163 600.012024 -449.456299
-781.155151 803.460938 -236.039627
-853.649536 358.361237 -493.375610
-1145.564209 765.513916 -853.919373
-1021.931580 674.146179 -379.996735
-1265.021851 589.434570 -714.113403
-1000.140259 652.782410 -978.799622
-1277.496582 442.786316 -724.987854
-878.546509 717.526611 -167.494217
-779.307678 656.080505 -543.409119
-728.490051 830.825317 -101.210724
-791.314575 701.098267 -519.307617
-783.357666 803.872559 -74.717293
-968.417725 696.145752 -391.758331
-781.561401 807.665222 -153.190598
-1238.867920 636.973877 -658.149902
-744.624512 457.488373 -589.034546
-786.065308 431.735260 -551.751770
-1139.423706 667.421875 -844.342529
-998.531372 727.578308 -944.285339
-926.601746 775.643250 -418.904236
-1145.976563 414.121979 -849.437988
-725.923157 836.046082 -152.226944
-814.795654 639.125916 -512.036377
-904.608215 725.183594 -439.533142
-990.569336 557.198181 -370.344177
-1018.373535 345.694946 -932.870972
-1309.859375 489.754822 -693.097412
-820.820984 600.878601 -518.437683
-1338.312988 445.879150 -684.618164
-1203.821777 502.791443 -776.445679
-1124.215088 469.780914 -878.259705
-940.441772 645.039856 -412.134827
-1000.944885 577.848083 -386.979980
-976.332947 767.564636 -891.344971
-1032.845093 456.326172 -917.896545
-812.100952 475.182251 -528.871277
-1004.423340 642.490723 -158.519913
-712.130493 665.329834 -555.474792
-1072.013794 464.203796 -882.374207
-1080.491821 627.858093 -783.166321
-1042.055054 309.105804 -914.657532
-995.384827 457.307709 -984.376465
-794.029358 814.325623 -279.825531
-967.565430 742.204834 -963.771423
-775.540222 416.801880 -558.318176
-832.746216 778.967590 -246.183624
-1280.666870 529.132996 -715.457825
-868.905579 722.933472 -138.085876
-711.380005 712.680481 -538.428406
-956.002930 613.842285 -997.728455
-1189.867554 378.498627 -809.176208
-1003.234619 535.529907 -959.475342
-753.094604 494.831543 -546.073059
-993.246582 507.956146 -399.758057
-955.197449 714.918884 -1010.357056
-924.433350 457.247162 -399.544800
-971.345886 771.731812 -388.720123
-1120.179565 748.545654 -830.991882
-1202.442505 430.821289 -801.325806
-1223.727173 1028.740601 -760.799927
-1026.923218 498.198181 -794.841125
-1337.452759 479.806213 -686.710205
-993.921692 426.724365 -975.765442
-1259.176758 409.502716 -745.166138
-1241.673828 348.680481 -770.971008
-988.788818 606.702087 -397.546326
-825.207336 749.790649 -67.304581
-737.406189 581.345215 -554.652405
-764.534058 799.690308 -82.506569
-981.107605 648.311707 -398.926880
-752.516724 848.708984 -300.888519
-772.907532 826.813110 -282.181671
-695.885864 868.488586 -207.043503
-1093.556396 510.202484 -881.014160
-911.505981 379.737549 -427.103516
-939.886108 451.154785 -390.251648
-779.441467 487.766510 -555.560120
-899.108093 340.602264 -466.988159
-704.126526 550.514343 -603.264954
-1197.564087 461.583710 -808.653259
-839.497070 816.546387 -354.617126
-1005.373291 707.239502 -957.337585
-1142.660278 741.770813 -836.767334
-750.985840 563.202698 -560.110840
-1059.580078 381.383209 -897.078796
-724.671997 821.543396 -137.307968
-1099.922852 685.258911 -803.954407
-1006.389404 402.585602 -947.142212
-946.097168 593.531372 -406.756683
-902.865845 396.292023 -416.698761
-869.555298 541.368713 -476.470337
-1319.265137 366.548248 -723.576172
-977.612793 705.894592 -978.630310
-699.666626 850.510315 -193.273285
-857.014832 778.175720 -270.181274
-1077.478760 651.759460 -913.433228
-1173.265991 593.427856 -806.041321
-1315.277588 661.278320 -709.363770
-984.436401 631.553711 -357.110504
-955.193970 672.129395 -206.217224
-750.002625 842.723145 -261.743988
-1270.290039 456.125244 -738.567932
-823.519653 662.108337 -516.186707
-971.401550 742.474121 -419.639618
-1122.513672 479.784210 -865.274475
-751.571411 830.478394 -241.470779
-877.849060 524.006348 -459.425598
-817.179260 542.305359 -482.939972
-875.631775 758.807251 -246.898041
-755.029297 560.544617 -535.438232
-849.591370 731.038452 -77.450172
-1202.307251 399.565247 -681.039795
-1220.749512 444.601654 -778.248657
-1183.561890 869.194397 -817.145020
-1382.602173 608.318726 -658.573486
-852.032288 709.224487 -22.363174
-749.572998 671.300659 -552.992432
-1204.804932 414.223755 -802.136169
-1016.356323 550.701843 -953.539368
-955.828979 502.040100 -978.183716
-795.245789 553.575195 -526.084656
-857.874634 777.243469 -261.961395
-852.269104 693.650269 -470.642731
-781.511047 790.179810 -141.851273
-1217.011230 821.964661 -788.949646
-1044.951660 506.990906 -787.119873
-790.298096 670.659485 -506.967834
-1028.192139 496.000702 -753.600769
-1034.998657 825.022034 -362.540710
-780.756226 799.536194 -185.744766
-971.553833 635.318787 -409.362701
-1219.235962 516.814148 -761.554749
-1004.494568 496.432953 -966.890137
-971.785034 659.415833 -206.833374
-969.333252 660.703430 -1003.727661
-1258.528320 1025.350098 -751.369141
-745.637390 822.986145 -192.113281
-993.712402 404.144318 -970.951477
-1082.302734 726.479797 -891.311707
-810.021973 774.177490 -118.591202
-1125.726685 382.245239 -875.797668
-901.379272 394.723358 -461.680328
-754.221924 815.709778 -187.463486
-846.961243 781.704346 -303.495819
-792.195374 809.704590 -281.191528
-928.334229 511.904694 -419.939667
-944.248718 670.592773 -413.428864
-795.906982 416.849365 -536.834412
-765.455383 786.835327 -120.534004
-775.731140 775.058777 -94.669579
-932.709045 641.132751 -423.401672
-1158.893311 435.916656 -819.003967
-759.204712 803.828918 -174.056412
-1043.494385 750.740112 -895.845093
-762.174072 487.509399 -563.203247
-794.785828 762.728271 -54.673199
-954.548950 745.131409 -401.825256
-759.566040 819.598450 -218.065811
-814.248230 624.835449 -492.815826
-905.199097 761.253357 -268.852692
-1354.147339 675.288391 -717.103638
-1296.190063 483.022614 -684.600830
-771.652649 423.150024 -572.270203
-743.492798 481.034149 -574.864502
-893.673157 639.855957 -458.032013
-801.891052 636.094666 -512.083069
-808.482910 818.829041 -303.555634
-1046.848267 717.598938 -900.530701
-982.715332 469.312012 -986.085815
-861.789063 386.921844 -504.723236
-897.538269 737.843445 -217.961960
-1028.236206 501.539398 -766.480591
-1201.063599 581.465149 -744.274597
-1012.341248 657.442261 -952.951233
-806.503784 798.198853 -296.031555
-972.494751 405.145508 -981.992493
-1254.411499 380.879303 -718.858459
-1049.891479 384.277069 -919.572327
-774.402710 800.161743 -144.123856
-781.571594 660.087891 -511.294861
-1022.708740 379.096466 -934.217590
-1144.366211 745.185059 -827.090942
-1006.457764 513.926819 -366.848450
-727.571106 579.442383 -581.235229
-1096.627563 576.090271 -872.617310
-1146.855713 826.669556 -830.380615
-1199.209839 484.479156 -701.615845
-934.741699 469.816193 -409.069092
-969.600342 448.123688 -983.700562
-1003.387512 484.786377 -949.396667
-1201.895264 541.128540 -799.988220
-1003.836060 432.028381 -944.420654
-696.648438 627.746582 -613.235046
-1282.286133 559.939392 -711.708069
-942.888855 654.484497 -112.876907
-1026.605957 553.604614 -946.028259
-1042.643066 527.000549 -932.120361
-758.902100 422.455536 -557.670715
-965.748352 745.543884 -995.856873
-1262.157104 510.657898 -703.259338
-1103.314453 367.527374 -866.175415
-782.512939 575.273132 -511.682129
-1060.726440 670.700195 -923.941589
-822.551941 405.300140 -542.140930
-723.936829 827.916687 -165.039398
-821.702515 593.500183 -480.557800
-1198.483398 521.982178 -811.149292
-1036.601685 770.225830 -864.067383
-872.493347 664.324768 -480.615356
-953.837769 645.762268 -432.090118
-1187.198242 479.596405 -843.117126
-1211.093506 380.538300 -777.560669
-1208.376465 627.228699 -702.768188
-841.326782 425.481934 -502.009613
-968.213440 588.727173 -999.948914
-1272.001587 433.440704 -707.257324
-1123.207764 676.343689 -817.499878
-769.532349 491.656830 -540.520630
-1224.077759 386.830933 -781.759277
-757.796997 833.989502 -259.261749
-1218.392456 396.656158 -771.990723
-1069.597290 695.711670 -911.248535
-712.742432 836.996094 -189.496826
-940.729004 459.872864 -434.333801
-1132.359863 468.724579 -854.961914
-1068.172241 423.209869 -920.425293
-887.185120 729.775391 -466.952576
-767.172363 522.683411 -526.008850
-719.697144 594.724182 -608.187622
-767.771423 673.085388 -553.694214
-857.328430 522.941284 -491.949219
-816.647827 473.224854 -487.294128
-922.417908 686.216248 -420.836029
-769.988098 789.645569 -113.632782
-817.417480 400.785370 -552.143250
-982.446167 543.848389 -977.056152
-906.725037 687.831177 -113.795296
-1146.792114 839.355652 -803.913879
-838.764709 624.816528 -511.670746
-773.768066 575.447266 -521.483459
-746.223755 489.989380 -554.177673
-1100.371460 564.086792 -867.487976
-1266.936890 482.959167 -741.780823
-913.122925 554.072266 -445.679382
-1146.522827 581.597168 -731.348511
-1122.243042 347.065186 -877.609863
-975.958252 842.000610 -962.265503
-925.823364 422.710266 -409.878204
-1003.770203 734.483093 -932.291931
-1089.211792 499.648865 -875.983765
-1115.335205 343.040680 -851.434387
-1211.021118 851.538086 -758.818115
-884.201538 777.900696 -295.189362
-1181.744873 339.957062 -819.288757
-1265.261108 442.563538 -694.186707
-924.334106 678.603088 -134.424042
-832.572266 728.576050 -70.884575
-1211.225952 601.890686 -788.182007
-861.804077 761.226013 -236.197556
-830.020630 738.359131 -90.426697
-1001.492798 548.429382 -343.353119
-846.565674 806.898865 -317.348022
-984.563477 747.162964 -958.190125
-1201.938843 886.202087 -755.547729
-1133.025513 393.389465 -838.616699
-1137.341187 435.981842 -851.361633
-939.091003 661.902710 -134.928329
-689.691406 865.820740 -218.784180
-1230.329224 421.300415 -759.427124
-989.847351 573.683228 -984.403442
-1235.186157 1002.030762 -771.938965
-1027.179810 324.027802 -926.168762
-726.050354 828.660400 -185.135391
-968.836304 592.332581 -392.093811
-1061.415771 352.059998 -894.071411
-795.966248 856.269653 -397.447601
-980.423645 499.745117 -376.610016
-844.716431 527.624817 -461.671112
-798.918457 530.111877 -523.215759
-1006.371094 466.491699 -958.455627
-1206.987793 550.044189 -801.226379
-994.463928 542.821289 -983.529724
-1042.028320 488.576263 -922.698669
-1020.665527 568.769714 -327.995148
-876.636292 699.712646 -96.603256
-752.343994 482.428925 -570.728882
-708.533691 520.710571 -655.282593
-756.062439 818.732117 -214.334381
-851.250061 763.735962 -266.016998
-778.375488 817.967957 -243.696259
-817.740601 382.786469 -563.442017
-737.174561 472.157532 -599.532104
-1121.476440 628.567932 -855.849792
-869.700745 786.419617 -463.829712
-792.175049 644.862488 -528.171997
-844.729126 742.103699 -27.265356
-1129.168213 789.640625 -845.647095
-1055.363037 662.040771 -929.120789
-816.498474 402.880768 -504.215179
-970.309875 764.154114 -907.587341
-1205.457642 605.518982 -738.067932
-752.598572 521.618835 -569.337646
-989.204346 458.335999 -955.426697
-1103.120361 671.514954 -804.898499
-1412.010254 671.011963 -655.853638
-1124.788818 654.635376 -803.240234
-982.378784 502.529480 -355.267426
-912.630005 703.640381 -153.141159
-1005.551758 521.085876 -963.904846
-1336.721558 596.657349 -697.887085
-1265.621460 447.308716 -749.587280
-1031.799805 723.466614 -881.673950
-850.112061 491.982147 -491.315735
-832.553528 540.377747 -514.824524
-901.567200 759.554626 -279.231598
-1005.824036 519.722412 -973.140198
-1230.351440 489.000214 -771.761230
-752.557739 500.897369 -564.956299
-956.441833 817.649597 -990.190796
-857.505981 718.669312 -469.979614
-824.937744 767.742310 -148.107742
-798.958313 624.564758 -508.554962
-895.535095 772.217163 -322.796326
-1030.878540 560.827698 -960.512878
-850.850525 540.243652 -473.190216
-833.701172 370.107880 -549.356934
-732.048828 820.539673 -138.720078
-1003.431885 615.495667 -973.097473
-1230.101929 556.089722 -620.842041
-1264.896851 439.412872 -713.553711
-847.828979 752.236877 -148.645798
-1106.052124 425.405212 -893.674377
-895.919922 686.621338 -80.626450
-755.281311 801.103210 -119.808975
-1059.090698 476.537628 -883.946594
-1024.288330 624.462646 -945.519775
-735.583801 639.915405 -560.129272
-718.635864 542.615479 -598.666992
-1036.855957 355.696106 -917.468201
-957.798584 629.566895 -981.337402
-853.536072 562.000366 -459.493835
-823.213501 751.165283 -120.957451
-803.429810 755.226257 -113.421455
-1373.236572 502.627869 -664.046936
-1191.880493 428.651337 -793.436523
-830.037415 807.807800 -347.224884
-816.248840 626.085266 -500.785583
-977.474731 782.502869 -923.223999
-1197.255249 600.603333 -798.061829
-1266.334961 646.068604 -741.896606
-773.930054 665.019531 -519.441284
-908.028931 368.246613 -441.725983
-814.061646 798.094055 -237.250534
-1204.155884 846.689392 -770.247986
-976.951721 723.246704 -934.854736
-897.963318 417.140198 -446.107574
-868.533447 773.544067 -273.273438
-605.049011 684.259460 -473.225769
-750.491394 493.193176 -587.643555
-948.406982 586.403381 -1001.367249
-854.810181 792.880615 -329.292114
-1108.083740 382.665771 -891.330383
-896.424988 452.303619 -420.952484
-1145.239380 803.244568 -850.070923
-1159.664917 371.617249 -838.121704
-824.958862 735.500122 -510.333618
-831.953979 789.851501 -269.609528
-1224.858643 391.616730 -785.421387
-1123.299316 582.865601 -817.990234
-1092.501709 716.841614 -874.370361
-1293.607300 998.642151 -727.139221
-803.273926 408.944427 -522.573303
-904.351685 701.339539 -149.643417
-1111.217407 572.890015 -830.891418
-1013.423767 743.822144 -896.370544
-914.100159 755.333374 -285.485504
-1099.671021 678.201294 -894.740723
-982.370972 726.529358 -945.825867
-729.109680 812.585144 -101.667038
-1056.139893 352.430298 -918.616089
-870.810486 526.706238 -473.447968
-746.972656 815.894165 -203.331177
-716.475769 685.021851 -598.693604
-1263.828735 1052.849731 -746.901062
-735.222290 859.988770 -267.541779
-1236.327393 533.138794 -728.516663
-896.875122 703.850342 -153.742447
-1149.058594 615.449829 -835.073914
-1007.883789 425.230713 -955.403809
-1007.527466 389.333252 -959.809509
-1285.286987 336.460205 -722.196472
-954.805481 723.748840 -997.819092
-1362.291016 488.382263 -674.590149
-736.625183 513.852112 -577.550659
-777.772583 832.628235 -373.697601
-834.886597 366.478210 -509.769531
-837.857849 721.338745 -48.669968
-752.435059 835.790039 -263.959686
-949.980652 693.042053 -217.356613
-1020.984863 586.593689 -358.838318
-816.566467 744.600220 -88.728592
-1003.228577 483.978088 -373.596161
-923.265930 744.294739 -308.615143
-768.197937 585.098816 -563.755249
-882.683411 423.026978 -457.060944
-833.429382 515.758667 -503.193939
-850.630371 647.001404 -488.859894
-724.609558 846.801819 -228.928879
-799.908447 674.663086 -513.819275
-1188.121338 347.876984 -811.845215
-822.121643 403.475311 -518.887817
-853.678467 639.021606 -475.468231
-1013.328491 761.747803 -872.992249
-1195.229736 542.441589 -791.177979
-876.367859 741.700073 -179.512711
-1270.122437 383.542877 -748.823486
-1114.631104 361.479248 -883.856140
-1146.620239 861.646667 -770.715454
-754.037598 576.281311 -565.479370
-1050.667114 770.936401 -900.388062
-1197.887085 457.924866 -810.154175
-615.601624 667.318237 -484.616974
-739.451294 488.587006 -619.608948
-1081.428589 632.811707 -755.515381
-973.167297 728.785889 -991.474548
-859.372070 748.415588 -111.856644
-792.078369 464.522156 -537.991760
-752.389038 676.158752 -552.492798
-1021.424377 418.101013 -918.505127
-971.487061 700.550781 -1000.877258
-847.967896 741.861084 -116.874702
-838.735291 800.465210 -302.728882
-1319.876465 351.203430 -704.839233
-744.439575 568.587341 -556.081787
-882.216431 686.186401 -29.598402
-716.593079 839.162903 -204.950943
-768.445801 624.325623 -536.951050
-805.845154 761.533142 -87.343712
-1010.976929 485.295624 -925.305847
-933.383240 684.942139 -197.440323
-1200.755371 951.699768 -789.245728
-1157.046875 388.731934 -818.709167
-874.549072 757.770508 -267.730469
-977.497192 681.908875 -237.099304
-1015.812439 819.565430 -952.688049
-1056.569458 551.642029 -921.425964
-875.328857 760.613159 -252.350555
-1186.786011 494.277466 -833.094238
-993.249878 550.628113 -984.458374
-982.675537 600.268188 -977.181091
-871.427246 468.606262 -456.255219
-996.787781 610.847534 -347.463501
-830.668396 641.017029 -481.129639
-1263.723999 1011.404846 -766.085754
-683.139038 697.456238 -586.949158
-983.103882 547.490356 -956.467896
-1182.155762 877.551147 -772.930481
-779.811707 833.036194 -360.143127
-873.427246 731.828735 -156.885956
-1196.238037 561.702942 -747.285400
-1212.573853 493.859619 -770.238464
-1059.993530 422.574219 -900.659851
-982.858887 658.286865 -983.807739
-758.122986 827.932800 -197.108200
-931.846069 554.224731 -419.656952
-1020.349365 504.325195 -778.403625
-812.901428 753.386658 -122.723587
-725.185181 452.023773 -612.418945
-1221.161255 575.992676 -727.596802
-951.054016 792.537537 -1010.642517
-807.865479 648.121582 -509.642242
-786.081177 510.214600 -528.636353
-1135.372070 413.183472 -852.150146
-822.318665 751.808960 -90.848450
-771.546936 514.547729 -537.258728
-986.270142 668.414429 -252.391373
-1037.885742 515.445251 -932.759949
-758.776978 812.403259 -194.480240
-906.763977 432.578400 -412.291748
-1048.970215 409.771362 -906.833557
-1039.070557 498.736420 -932.449829
-1064.569946 329.770813 -895.532166
-982.401855 609.751709 -991.352112
-715.417053 560.546326 -604.099792
-971.268799 774.842651 -965.912720
-690.089539 600.125488 -604.091248
-971.798889 440.241028 -988.128845
-1132.396729 613.157349 -864.552124
-809.181458 767.883667 -154.505569
-1246.176392 400.740326 -778.164185
-1220.273560 408.184601 -733.971436
-856.770142 745.936279 -219.043732
-764.114868 593.251526 -539.245911
-887.942078 617.019592 -464.869568
-944.613464 443.047211 -401.036133
-1009.003906 454.058502 -941.041565
-926.756409 712.871826 -438.297455
-762.431213 787.623230 -91.987137
-1098.344482 355.321106 -887.749878
-879.968933 484.623871 -475.102661
-867.199036 545.072571 -450.518921
-977.014893 468.699921 -979.520447
-798.323364 431.801727 -522.487244
-982.060059 586.631165 -386.753601
-716.185913 844.334839 -159.073441
-1115.969727 530.471313 -854.122681
-1190.818115 474.453430 -795.916199
-810.834778 472.522614 -497.903717
-926.325256 690.444153 -191.260468
-858.712402 374.873444 -473.172516
-887.556824 357.034119 -448.355896
-697.375610 586.226318 -596.632141
-860.600525 747.427246 -206.781555
-780.878052 799.626648 -235.578140
-993.328308 519.552734 -968.388794
-843.711731 755.416016 -152.182709
-899.454224 708.139587 -425.563049
-1008.008240 503.797760 -978.300903
-1204.934082 862.870605 -780.334534
-1079.490356 553.403931 -758.733765
-1064.869751 532.770447 -897.721619
-1026.925415 400.740356 -917.077332
-1007.125183 842.079346 -941.295288
-908.337463 707.021973 -202.669235
-775.373596 582.352112 -547.872742
-963.707947 678.701050 -207.662354
-1022.934326 799.094727 -922.102722
-1117.117065 537.380676 -840.945496
-951.133240 719.550781 -264.762390
-709.514709 856.441162 -275.813354
-890.547852 604.959595 -443.154114
-790.725464 810.445007 -238.967941
-851.189697 769.030029 -239.794403
-915.230164 497.098022 -425.201599
-860.106323 420.481293 -498.964508
-792.884888 771.780457 -151.228821
-1127.470825 773.967224 -850.233582
-1047.098389 461.535553 -886.932007
-811.735657 597.922607 -524.973450
-1029.134033 661.487610 -922.578674
-836.783264 511.489288 -483.985687
-807.456360 767.166931 -107.336426
-722.502502 581.197998 -595.260620
-859.820984 757.931824 -201.367233
-1027.986450 399.820618 -937.393921
-891.302307 683.221680 -93.645859
-790.476440 862.463928 -398.194916
-727.976624 630.711548 -599.846130
-1062.003906 324.330872 -909.263062
-972.224731 705.543030 -994.254578
-829.814514 506.515350 -476.291931
-989.836731 686.878235 -949.729553
-1279.467041 1020.460388 -755.252380
-1019.301697 626.281189 -963.403137
-1214.670654 976.102905 -773.011719
-1053.962402 573.972168 -937.285706
-965.849243 533.062988 -988.622070
-738.284668 478.368011 -596.264404
-699.382996 850.681824 -208.327850
-760.535278 807.807556 -168.111176
-735.753662 691.532654 -557.706543
-896.614075 756.831421 -280.297852
-1111.862305 712.271790 -798.699463
-943.401672 763.713623 -998.208069
-1061.436768 353.558716 -910.339417
-1012.880066 749.010254 -884.950073
-744.804626 518.074036 -578.933533
-706.789673 858.259216 -158.722992
-1215.734619 385.248169 -790.711548
-927.557129 759.196533 -299.617493
-1202.144409 956.537231 -792.717529
-789.271423 790.435730 -135.131348
-1202.639893 406.681396 -800.247192
-801.356262 617.457642 -506.850098
-1125.721436 608.321472 -812.075989
-884.137085 529.515991 -463.650116
-986.863953 526.950134 -388.201843
-855.633545 428.379791 -471.766388
-982.887146 721.648438 -957.825134
-976.604248 452.835693 -966.683472
-750.758240 569.497314 -560.254150
-1180.133057 377.791443 -818.255371
-992.253845 825.862732 -939.434875
-723.536133 843.120789 -196.187531
-747.967651 795.305237 -85.734505
-1027.141968 671.325867 -353.640869
-841.503235 602.309937 -482.445984
-765.984192 692.414734 -538.596375
-1119.422729 648.004761 -863.701538
-1079.705200 388.782684 -912.301636
-1198.010376 605.440308 -758.906067
-1235.614502 454.004913 -770.081055
-879.600159 712.533691 -93.410263
-722.360046 506.196960 -616.767334
-745.016479 614.278015 -581.879639
-864.307312 719.999451 -81.511787
-622.308228 732.366211 -425.940613
-968.465027 498.445465 -976.004578
-1156.556885 513.552551 -842.913635
-727.096863 554.080627 -593.349365
-745.157715 850.440491 -308.712097
-721.049683 845.256348 -214.325027
-731.511841 536.171753 -596.777405
-986.113953 743.251953 -972.720215
-958.415161 821.001038 -977.609192
-892.955566 736.001282 -241.284241
-1243.374268 497.855255 -738.141418
-812.382263 747.198242 -80.137810
-1061.095581 733.040405 -918.396606
-907.328918 737.931763 -252.714539
-796.827759 444.706757 -521.210388
-846.127991 623.305481 -480.677826
-794.001343 443.557831 -527.253784
-1085.568237 654.278931 -874.939392
-1085.938843 719.251038 -838.004456
-1134.636230 363.222961 -855.178528
-813.851807 761.984436 -104.875900
-766.965515 605.985962 -526.270569
-1329.668823 580.885132 -697.039063
-857.095459 708.291870 -73.674339
-756.087219 584.998718 -551.274292
-1196.036987 803.648193 -808.486938
-986.558533 398.071564 -971.447388
-881.001831 399.086792 -455.685059
-1160.196655 615.643127 -740.913086
-872.736206 746.123413 -201.650970
-811.660095 797.817078 -264.326660
-790.417053 504.541748 -536.106506
-918.674561 689.609558 -161.802643
-810.680969 680.569458 -507.390503
-1003.625732 432.526520 -962.045959
-757.637878 838.488464 -284.495148
-705.727783 855.809387 -231.799347
-793.256226 449.257874 -524.474915
-825.259399 390.192200 -504.106293
-845.885742 597.563293 -491.456757
-737.701233 720.551880 -590.928650
-969.191345 749.469116 -910.465759
-763.743835 799.421204 -52.407043
-1129.011597 600.555237 -803.882385
-829.678101 526.084045 -504.849365
-911.760071 525.228638 -433.427643
-856.052734 717.959839 -96.907768
-790.257202 835.219849 -312.804138
-1072.262573 368.737244 -900.919861
-986.475098 604.632751 -374.322815
-786.845398 800.215881 -124.974144
-1049.613037 403.743774 -896.034973
-1051.542358 420.888031 -899.849243
-847.300720 797.858887 -315.901978
-935.417847 391.617310 -441.679688
-777.594666 599.442261 -533.982788
-922.952881 349.256104 -422.497467
-957.262695 627.409729 -1008.189026
-948.419128 694.197510 -247.516464
-985.568848 623.824707 -356.573944
-746.393616 815.944702 -176.105484
-977.550232 593.287170 -981.384888
-885.109375 442.038818 -472.080872
-1000.328979 653.129822 -222.341248
-796.081726 780.882019 -202.835602
-758.455139 840.154907 -343.641235
-709.255005 518.985718 -641.215942
-797.494812 461.843689 -517.728455
-1086.294434 446.435089 -875.283875
-896.897156 731.089966 -195.125534
-791.241882 426.010468 -584.927185
-818.052063 404.701538 -557.726563
-968.773071 687.802734 -967.193970
-860.662109 658.118835 -481.784637
-993.878601 755.602966 -960.147766
-970.183105 391.214447 -980.145264
-797.226929 641.230957 -530.340637
-1029.606201 359.796326 -923.186646
-1169.812134 401.297394 -831.895081
-1307.361206 386.805542 -728.068542
-923.242249 748.364136 -295.256134
-1065.535767 375.036285 -911.178101
-830.013977 730.371094 -71.929001
-833.290344 730.049072 -51.141502
-976.640076 648.296875 -992.775208
-913.137634 453.348389 -443.280243
-1104.195435 702.780029 -841.444702
-1058.726807 535.744629 -935.265564
-769.172546 605.758789 -540.182007
-1173.360352 344.182465 -829.437744
-728.407532 526.542297 -619.979675
-1299.309814 520.712524 -669.414307
-721.716553 496.202911 -640.304077
-1225.196289 392.451813 -720.728943
-912.914551 644.670532 -429.528595
-838.455627 646.007446 -512.442383
-1097.269287 665.050842 -821.678162
-763.983643 785.385742 -63.673126
-1215.730347 542.330322 -789.009583
-988.172729 385.835754 -977.491333
-964.245850 751.109192 -911.308289
-703.930481 862.653320 -183.118881
-1242.325439 531.031433 -718.175781
-1094.125366 479.224182 -885.669495
-739.081543 846.323486 -264.099091
-1002.849304 545.858154 -970.313660
-766.754089 504.823608 -539.583374
-724.340027 872.031311 -297.687653
-1211.605957 461.000977 -785.467651
-840.304260 788.174927 -275.228455
-1038.280029 708.925110 -939.444702
-919.834717 776.494568 -447.630798
-959.650146 724.928162 -411.367218
-1261.239624 1014.066284 -770.477722
-965.805847 687.686646 -1002.097107
-1202.791138 352.779938 -803.335938
-946.322388 635.658813 -407.533295
-721.865295 533.693848 -599.053345
-857.935913 742.814209 -210.923904
-958.323425 676.126831 -213.095535
-892.501953 679.302551 -59.723042
-989.046875 376.646484 -966.805298
-761.714355 784.975891 -101.380966
-1106.552246 578.070557 -768.062561
-999.418030 564.737549 -964.592346
-878.458679 717.603882 -112.660339
-1171.067749 555.556213 -718.837341
-1135.171753 654.789063 -868.148743
-1215.777222 950.416565 -794.630615
-922.090759 539.963989 -416.253448
-1025.682617 518.002136 -925.567566
-1289.243408 412.888214 -691.660583
-721.059021 526.683105 -583.914124
-852.127747 393.655151 -487.778168
-1108.119995 676.895386 -822.175964
-1248.333374 434.350159 -758.869995
-708.329529 659.950562 -560.965637
-1140.048950 339.910034 -849.929199
-840.893127 738.255249 -146.972366
-780.903992 575.645630 -543.766235
-703.022705 855.119202 -219.165543
-1015.014343 565.731323 -954.290344
-758.113525 809.408691 -139.846786
-760.625732 667.401245 -535.711609
-1107.898926 596.725708 -895.042542
-1237.317871 538.479858 -734.722229
-1221.339966 488.958984 -786.750549
-741.821838 820.004639 -94.731209
-814.558044 606.918091 -504.370056
-842.585388 480.444153 -486.829407
-1145.969238 519.447632 -840.804749
-775.368530 422.101746 -579.263977
-794.711975 430.576599 -530.158752
-1105.542114 659.632935 -861.587830
-1165.025269 417.496307 -836.249023
-1064.061279 540.461975 -898.201111
-868.039429 428.023682 -468.472992
-776.447266 629.637024 -546.139038
-1234.909912 997.143372 -769.031250
-805.280212 409.060211 -516.315002
-1206.577759 832.104370 -774.409851
-1250.990967 398.965027 -713.627197
-768.901978 624.599915 -528.274902
-1207.885254 842.408447 -710.184204
-1038.284546 657.470764 -948.569763
-737.048828 827.117126 -141.182571
-826.184937 697.828247 -482.507050
-1112.917114 720.969910 -787.492310
-854.660461 791.274414 -331.642029
-898.897705 651.867004 -429.399841
-1143.902588 613.885315 -787.722229
-812.146484 768.763916 -29.981041
-1006.251770 670.992859 -356.800964
-833.041382 353.023865 -529.659851
-830.689087 730.421753 -52.640404
-730.623047 826.541565 -185.463821
-907.267700 383.053223 -422.724792
-1072.349609 525.617432 -891.420349
-842.467102 821.737061 -355.324097
-859.074829 778.486694 -273.928772
-822.714050 368.359619 -540.675415
-887.759521 482.569794 -443.483490
-1159.389282 393.789642 -852.308167
-1246.541870 502.131836 -771.468628
-700.596069 848.533630 -156.032578
-735.344666 566.211121 -570.674805
-825.865173 675.717468 -497.229401
-753.558777 850.854980 -324.535614
-999.947632 587.600220 -345.875153
-1029.680176 466.817383 -940.335083
-1007.370361 713.229919 -942.933533
-718.597656 579.589172 -593.684509
-929.809509 496.278778 -415.642914
-819.951233 807.730286 -330.507568
-967.716125 676.060608 -1004.737732
-1341.164551 600.859192 -699.248291
-1025.916992 388.032379 -934.485168
-822.739319 746.577087 -132.134842
-728.313416 584.134705 -594.455627
-704.347900 594.316833 -645.615784
-738.627380 834.975952 -226.446442
-759.715942 856.868042 -328.788483
-761.448914 645.808105 -540.137329
-980.750732 458.156097 -378.130920
-1134.208496 313.482483 -835.608521
-806.843750 580.067871 -515.162048
-1080.791870 619.444153 -902.835938
-1133.633301 656.191650 -859.085083
-724.156189 476.776459 -608.298950
-719.799805 704.520691 -566.954041
-1120.586304 696.157654 -738.902588
-1265.570435 369.665131 -732.993408
-1022.721252 518.239563 -938.914429
-926.763672 416.603119 -403.341125
-806.522400 804.176270 -213.760330
-1214.518188 815.870178 -766.050354
-717.850891 692.755005 -575.625061
-727.215454 498.191467 -599.223694
-799.480103 476.349091 -542.616760
-841.173645 375.659210 -529.398804
-1259.644897 375.020264 -721.477234
-917.307861 725.783813 -434.454529
-1075.038818 682.388184 -893.502258
-969.811401 521.340088 -405.369690
-1044.025269 683.847412 -936.237427
-877.007446 513.371338 -477.151886
-960.230835 774.170166 -989.127930
-781.975281 763.002991 -65.096291
-722.530884 829.266785 -212.942184
-1110.956299 603.083069 -746.351318
-965.235168 541.466187 -392.175934
-1204.802002 476.732117 -823.252869
-1003.546204 744.838379 -948.546814
-821.130737 746.076355 -86.123535
-823.888184 764.156494 -205.817764
-1047.386841 459.789459 -928.651245
-734.533081 599.105286 -592.647400
-870.393433 741.540588 -212.096542
-1100.185181 616.971619 -893.671997
-1411.159058 650.261475 -675.767334
-877.424194 792.943420 -325.726257
-1140.433228 804.215515 -845.311462
-982.670471 636.637268 -160.690582
-1062.132202 585.693237 -924.512024
-795.375427 435.222748 -539.758057
-815.757263 397.342072 -520.320679
-773.367737 812.846497 -84.477936
-829.711548 794.846497 -285.794800
-774.889587 610.545654 -532.723572
-859.144104 374.993408 -492.736603
-712.209717 619.845032 -585.101501
-1150.725220 443.992340 -872.886414
-1109.870605 657.089233 -697.769592
-1272.512085 988.346680 -761.558350
-958.817932 675.196594 -978.127502
-1209.138306 502.006561 -712.853088
-868.027588 643.716309 -476.036621
-1217.949829 857.192017 -685.564026
-841.016663 746.778137 -139.573715
-1110.213989 664.757202 -709.737732
-1316.828125 363.753479 -701.160095
-861.336121 739.126770 -133.929413
-762.683960 602.377563 -549.864807
-803.586853 786.860901 -167.253738
-603.920166 815.532227 -388.339142
-1214.336914 613.738159 -716.021362
-1016.942627 689.521423 -932.025635
-1059.159912 825.306213 -877.074707
-1100.289063 346.746277 -880.392273
-776.024048 439.299988 -573.087769
-848.506287 637.852417 -486.097260
-746.678406 831.187317 -84.177475
-1014.563904 434.260895 -934.965637
-771.294128 566.732239 -551.462463
-810.507874 562.615112 -501.988525
-1255.844849 1048.759521 -730.504211
-1200.396973 851.910461 -811.951660
-781.432922 808.295471 -217.766388
-726.617065 834.771667 -203.600128
-973.413330 669.198242 -396.369415
-830.897156 442.689331 -499.564636
-1090.465576 690.574524 -811.798950
-954.489075 650.329041 -127.761047
-804.259338 679.704956 -524.571411
-1137.726074 630.069153 -770.774841
-714.741394 660.850159 -576.705139
-980.843262 467.262207 -976.094177
-1045.465088 508.572388 -927.503540
-757.941956 620.133240 -545.535034
-751.663513 537.066528 -567.953613
