ply
format ascii 1.0
element vertex 1387
property float x
property float y
property float z
end_header
595.443909 455.902710 -809.158875
1125.835693 495.308777 -934.076721
1087.710083 765.313171 -1003.825806
1074.355591 326.552307 -1002.716431
944.698486 181.448776 -1054.553223
688.803528 817.834595 -408.879028
619.554138 772.639893 -642.042542
972.541565 384.813812 -1076.473389
579.128296 828.874939 -455.071045
781.010193 397.449158 -641.079651
1076.759155 414.517731 -1000.789490
661.283081 742.062256 -682.290649
811.859802 418.809753 -1197.268066
1143.588745 321.065338 -961.532349
783.915283 733.494202 -552.796692
653.942749 776.091797 -566.964722
849.581726 576.006409 -1214.923218
563.162781 821.432556 -536.364746
589.601868 813.372986 -528.037354
625.669312 806.526367 -433.234467
755.997375 317.426514 -697.612183
768.874390 741.925354 -613.209656
551.635681 806.517029 -648.148621
1081.827393 438.391510 -1032.759888
776.391907 315.574677 -695.829590
1106.343628 640.974915 -987.390991
764.403992 445.732513 -662.629761
931.790283 195.076233 -1082.549561
1132.681396 643.623596 -989.551575
891.665710 334.956909 -1147.602051
659.647461 356.105530 -731.342712
744.192993 706.516052 -747.586243
1120.481567 405.086426 -984.319641
831.853271 249.665771 -1152.793701
1175.771484 439.416504 -937.453857
878.972229 504.460510 -1057.115112
504.125854 796.605530 -689.225159
768.467163 607.137146 -690.548828
569.027954 795.262268 -670.998413
911.837891 373.063141 -1079.022827
794.191406 555.431396 -1271.286621
551.669800 810.754517 -596.518921
493.831757 848.983459 -503.620544
825.639038 365.444458 -1216.820313
677.041809 610.571411 -764.428101
699.508362 581.925415 -760.240356
932.954529 235.089325 -1087.126343
949.387573 292.157776 -1074.080200
1099.709961 426.303650 -1010.705261
772.018799 522.352539 -439.508209
1104.884766 429.230927 -1000.019165
905.858093 340.858673 -1138.767212
687.600403 440.006531 -727.962585
1240.324829 420.295410 -894.173767
874.270325 485.955322 -1173.327637
829.416626 454.945740 -610.746887
1131.440063 701.924927 -1020.651611
541.616577 800.526733 -639.283020
781.227905 574.229309 -439.485779
502.405304 871.207886 -495.398865
616.968262 625.804504 -821.014221
860.800232 501.900024 -1079.338501
557.025330 866.714844 -455.789215
680.259216 797.474304 -428.743866
498.428802 816.942078 -632.284424
807.258301 417.490417 -1211.479126
800.031921 422.731659 -625.407593
530.193909 807.839050 -615.226257
1122.616821 405.579102 -986.545044
1006.084900 406.233948 -1058.411133
736.561584 518.949341 -679.538330
542.613953 534.613647 -835.299072
911.908264 488.075836 -1152.699463
552.076904 823.087402 -540.999695
709.172058 768.465454 -588.632324
527.075623 868.208435 -433.168793
534.204773 819.056274 -545.902710
952.683899 245.562164 -1016.828552
1186.112915 412.838715 -934.222107
832.634766 306.330353 -1163.436523
883.975220 312.024567 -1156.862793
824.258728 334.871399 -1177.872437
690.186646 800.194885 -419.456146
525.725708 787.202209 -748.533386
523.628235 845.132080 -528.999817
532.676758 829.481262 -508.700348
901.940308 423.781281 -1156.734619
513.293884 803.406982 -651.715454
1145.781494 329.236084 -945.614929
1160.932983 446.214813 -960.274780
1123.827271 278.548553 -950.711975
620.270752 816.364502 -522.885681
654.941711 502.893799 -748.467712
1096.912842 670.475708 -1035.210449
944.081299 272.519592 -1081.069336
1112.072876 544.154419 -1007.057495
695.975586 485.025665 -719.955566
567.669006 371.353119 -800.354431
724.591064 687.389771 -746.892700
1091.505859 670.253601 -1040.960815
686.586853 454.097137 -720.438904
647.626892 772.183838 -630.281799
738.158142 769.815796 -482.008636
801.960266 484.207336 -1186.539063
466.579163 832.940613 -617.133362
611.664551 421.766876 -769.231445
554.366455 847.807312 -439.585999
854.298401 415.005493 -1186.375610
1148.053833 686.576599 -997.518799
1173.911499 422.241089 -945.565857
593.509521 824.861328 -434.099884
729.814270 640.027466 -725.354187
686.466797 808.538330 -384.383942
470.465973 855.421570 -515.564392
829.945801 384.254608 -631.713257
984.350525 276.529755 -1044.733521
662.073853 384.734222 -739.724182
714.345215 341.699524 -716.949463
909.639404 345.064331 -1148.103394
648.803345 381.047577 -737.512878
512.280029 793.598450 -710.463318
507.897675 822.016235 -625.906189
721.060730 773.232605 -457.782990
1108.366943 473.752106 -940.096313
539.177185 438.159851 -811.533508
1097.213745 433.562958 -1001.163330
843.873657 652.533875 -1249.488403
586.551697 801.882690 -585.810974
1145.376221 408.033447 -970.829041
630.282898 404.894775 -751.426636
858.108337 420.120270 -1186.446899
543.477417 466.462860 -810.405518
1162.210938 443.597473 -926.091614
757.515442 509.187164 -673.763733
777.854126 387.145599 -646.571228
912.888733 391.186707 -1144.113647
801.670349 577.303040 -1261.761597
1154.093384 465.891479 -938.916992
774.696716 741.638428 -545.506653
679.515259 455.556488 -711.511841
817.063354 663.041565 -661.625122
539.757324 490.333160 -829.689087
1196.646851 364.564606 -928.726013
987.661011 166.084396 -1032.185913
770.449402 608.709412 -718.094604
901.570313 489.076050 -1082.498413
625.037415 781.839355 -647.495300
781.673828 385.636810 -1227.451050
1172.950195 346.187408 -932.002563
798.229004 398.413574 -629.367737
1127.626953 433.765472 -960.619202
875.542603 345.495667 -1159.675903
1103.334839 635.609192 -1049.526489
1083.013428 454.599426 -1034.720093
479.615875 829.886597 -567.865173
1073.222778 512.304688 -952.416321
747.045837 411.869904 -1246.364624
1177.741089 405.144775 -945.959595
613.664856 521.932251 -785.872070
533.391296 805.804504 -674.830383
657.988281 807.086670 -425.496765
969.068176 515.571045 -966.650330
412.438690 513.981995 -776.854614
625.546143 461.305634 -763.567444
775.301636 404.313721 -1183.521240
718.890564 339.292358 -693.618713
643.844543 479.875946 -737.890564
1073.079102 315.308167 -1003.212341
1137.448608 773.177246 -1014.653076
808.260071 542.659363 -1240.975708
729.212769 512.928528 -704.790894
863.320496 494.101776 -590.052002
1130.886108 316.706879 -973.074768
693.183167 379.695587 -701.054871
681.195496 610.235229 -780.249878
531.730530 379.600769 -833.969238
701.148804 770.440491 -469.892303
926.735840 496.436798 -1141.788086
959.679321 521.632446 -1003.372498
1040.437256 281.224213 -1034.515381
841.456604 603.931519 -646.437561
545.964294 812.131470 -589.906982
777.283020 454.079010 -673.784729
728.552002 488.828552 -708.215332
694.358398 691.694397 -775.249512
712.748535 766.498657 -456.897827
948.260803 226.476730 -1062.925415
819.997009 468.132843 -597.512756
862.918823 438.189087 -1202.856201
704.893616 777.864014 -444.800873
827.901245 393.908386 -620.312988
1047.527832 367.973755 -1043.323486
642.829712 483.979187 -743.477051
1121.936279 642.047058 -1011.935242
767.414734 462.414825 -653.265991
851.091003 522.376953 -531.919373
719.858765 349.978516 -685.707886
980.111145 411.727814 -1074.678833
806.998291 713.050842 -517.613464
936.799927 343.749969 -1055.698975
1208.260864 498.457794 -896.961548
701.507446 619.250244 -743.356262
664.989502 337.146088 -743.065430
751.977234 418.466705 -675.421570
599.531555 409.684052 -801.007263
772.670532 426.128326 -664.886658
969.024414 159.226898 -1040.623047
1107.157959 287.179565 -949.005310
797.793457 521.227478 -660.750916
1108.777100 258.687347 -976.039429
1147.600586 534.259033 -960.030823
978.969482 190.432175 -1066.126709
706.692871 779.268066 -462.044922
480.031708 858.683228 -495.666870
834.363342 441.712341 -618.889099
639.509399 789.478455 -568.183960
795.748413 685.371765 -706.434265
1085.073608 530.554443 -1059.412598
912.960632 515.772278 -1130.482666
672.457825 790.195435 -482.614807
919.556885 339.246490 -999.896057
739.647095 494.861786 -706.939392
1118.843750 319.381805 -975.956177
648.963928 689.831116 -813.905334
989.103027 607.966980 -1020.098022
1020.679688 238.723343 -1026.369263
899.323486 258.094055 -1115.304688
807.963806 338.078156 -669.075745
703.091919 776.007324 -464.180420
708.740112 773.287659 -533.086426
460.880524 820.914673 -658.125183
578.073120 842.271179 -402.220734
985.711609 305.716766 -1036.323975
722.150146 758.454407 -495.190399
1063.478027 500.099457 -950.936279
916.822754 711.227539 -1190.164063
613.744995 773.095276 -663.090637
539.985413 856.479370 -410.144592
1030.289551 707.794067 -1039.276367
1018.215454 540.740417 -1012.398987
1136.297852 644.343323 -1026.541992
605.603088 651.923462 -848.223694
682.058350 479.167816 -724.783630
494.389282 820.826599 -612.405396
730.746155 656.120056 -715.220459
1173.226685 717.936890 -1007.807129
800.390686 500.262939 -613.609863
812.085571 436.261047 -618.208252
833.014099 414.418182 -613.634216
1100.622559 492.622833 -1015.287170
879.806946 421.922119 -1162.776367
590.052734 814.069580 -551.318115
1027.677246 650.174194 -1093.676392
914.894348 293.874451 -1081.868896
615.481750 407.914124 -750.343567
661.723816 344.340363 -746.410217
506.220428 810.912842 -686.335327
531.022766 867.359253 -474.187622
1000.512817 276.443756 -1037.596558
837.662842 394.358521 -1212.035400
831.056763 363.606476 -618.881348
686.924377 376.842163 -728.791870
819.514160 379.986023 -628.192139
718.849976 753.362061 -567.151245
950.849365 380.252777 -1109.012573
586.013794 378.452515 -794.368713
782.887146 510.638153 -474.433533
930.255127 650.433655 -1104.713867
606.137390 788.387817 -663.140503
920.452454 159.262070 -1068.811768
918.796692 561.866455 -1067.432251
916.983093 325.434235 -1150.989136
1128.911377 555.862183 -970.245789
753.721924 746.540649 -563.970093
897.604492 235.610153 -1100.942139
1079.496338 377.333832 -1030.817993
1028.836060 329.904297 -1026.430298
809.197815 473.558807 -1220.074097
990.347229 221.180573 -1046.128052
630.202637 785.421997 -566.889648
1066.134155 468.060638 -1029.879150
1113.951172 605.144470 -991.122864
856.419800 406.028259 -1179.162842
751.343628 768.054077 -501.066437
559.575562 438.769745 -819.905151
817.893127 592.748840 -1065.120483
671.991577 784.323059 -523.651489
857.512939 455.396637 -1169.754150
922.481384 232.659607 -1090.571533
807.446594 518.841614 -629.692749
829.256653 473.459808 -1173.960449
777.156799 481.070801 -651.990601
1138.941040 479.290222 -933.195984
971.984253 440.360352 -1058.633911
735.461975 576.505432 -708.451538
639.479492 800.649841 -503.926941
604.031738 344.910736 -825.637817
649.552612 798.047302 -518.865601
1115.424072 308.924103 -951.136414
947.974243 377.695190 -998.708923
1049.140015 528.551880 -1046.098511
1199.173218 872.136414 -1033.700562
793.140503 756.110535 -563.939575
754.302002 577.657104 -683.863220
630.710083 414.659363 -746.066345
886.651978 428.602509 -1179.632202
682.822876 684.146606 -756.405579
934.581787 336.116821 -1049.794922
615.067017 345.735382 -805.072021
937.714783 287.436707 -1021.825256
1134.856689 661.301025 -1027.397461
707.357788 780.730286 -492.145569
525.223267 829.379639 -560.590881
797.254944 459.040588 -623.296448
726.141968 779.898071 -474.178070
657.890198 341.129608 -751.524170
680.128601 437.739471 -716.610291
797.514404 469.673187 -624.338135
689.881958 482.487640 -724.222534
966.395325 230.201599 -1047.124756
673.434509 467.813110 -726.451843
1242.255005 525.384338 -900.042603
993.624756 291.619904 -1037.960205
912.749634 237.020065 -1126.141357
617.530029 548.580688 -789.418396
542.589478 784.919617 -720.839600
1032.158569 296.097595 -1032.149414
752.671082 369.655884 -657.264465
809.584961 533.895386 -639.589661
841.507324 348.110535 -1183.676514
611.318909 431.130554 -795.215149
695.852905 579.037781 -758.408936
438.978485 874.180725 -573.811707
696.567200 476.166992 -711.602600
601.111938 801.669739 -549.267395
752.341736 475.037933 -697.834534
710.013550 413.814941 -679.358643
565.359009 809.771057 -625.368530
690.291870 422.595795 -706.976074
747.513611 451.767609 -667.573547
615.104126 802.945129 -555.148010
484.473083 841.375916 -534.842712
675.971558 794.079712 -449.463074
836.337463 497.941681 -1176.338135
1147.591187 425.410004 -974.382385
1071.574951 278.411438 -978.613586
589.858826 528.848328 -840.182251
547.550720 815.925964 -608.838867
880.221069 408.553436 -1181.041870
1117.777710 507.717926 -943.566772
1054.348999 366.906921 -1031.369263
1120.372925 432.644928 -872.385986
1075.600098 338.647705 -1004.725647
747.087280 371.575256 -673.205139
1014.705078 203.024673 -1018.759888
790.051941 533.594055 -655.114136
877.502747 564.138184 -611.115479
803.788086 556.702087 -649.924561
615.125977 816.993042 -430.774780
847.161194 440.503174 -610.353882
509.132660 848.691956 -519.858337
870.504639 297.917297 -1165.711670
729.802612 753.992920 -611.392090
818.702942 624.264282 -637.170593
855.262390 457.856995 -1170.943115
617.639587 445.288849 -754.425049
807.572815 674.971680 -693.635498
753.306213 763.209045 -524.672119
825.814026 579.589478 -652.597351
726.263611 551.667480 -707.127441
1055.975708 298.766296 -1029.113892
1117.040894 275.198334 -973.698059
928.550659 279.753174 -1093.259033
605.572327 368.778717 -764.584290
901.557312 347.616180 -1140.138428
550.852051 835.200745 -510.851624
767.597900 583.340271 -701.235901
1181.269287 434.822021 -919.645447
707.837708 783.051331 -435.664764
895.946594 413.199829 -1171.613647
1060.151245 255.707718 -1019.833069
486.404083 805.442566 -655.861938
581.216553 804.044312 -600.948120
739.850647 542.029663 -679.968018
656.224670 498.710541 -773.998901
612.616516 811.615173 -481.700745
600.549316 418.723938 -807.845276
519.754883 793.488403 -705.135864
1075.586792 281.286621 -1006.470642
750.476807 387.201904 -656.586853
988.265503 201.437485 -1032.016357
579.954590 476.522583 -807.856873
764.215027 604.141846 -677.739075
780.209961 546.088318 -1265.770020
739.567932 640.174194 -721.611023
669.991272 799.002686 -431.812439
1076.364990 516.959656 -950.776550
1119.333984 328.340057 -985.446655
629.012634 453.906006 -743.565063
537.234497 393.597870 -831.785767
683.242126 721.334778 -765.083374
735.040833 417.791412 -662.080872
918.565063 346.636078 -1067.270264
779.385437 658.175964 -687.630432
615.838196 792.805786 -598.709839
887.953064 722.233948 -1188.823120
831.075989 416.990234 -612.001648
834.950134 391.892273 -609.471252
766.060608 400.963928 -648.831848
998.957336 242.413864 -1038.554199
675.527710 791.042542 -538.627014
752.506165 480.243439 -670.841309
1230.921021 486.492889 -931.760437
1162.354004 310.351105 -945.424316
842.226135 418.629333 -1197.021729
1078.071777 243.479462 -969.246582
701.884521 715.504395 -770.909302
1211.247192 881.255066 -1001.913513
981.682434 187.069748 -1028.717896
910.637756 558.198730 -1045.081787
890.556458 454.240631 -1146.363892
796.124756 619.986389 -395.576111
635.476135 452.983032 -780.647400
644.292725 427.565826 -736.083679
905.436035 375.575226 -976.798584
698.199097 408.079407 -704.606934
1140.764160 656.864563 -1027.707764
687.615540 445.846497 -697.637512
933.114319 276.127167 -1062.729614
720.191956 656.135925 -773.251648
581.581116 370.221191 -788.985901
763.811035 759.604614 -655.401001
710.945129 513.812378 -710.768250
1044.444458 336.466919 -1043.590698
685.606567 577.372803 -744.903259
605.406250 402.869476 -766.921875
661.413269 795.308044 -437.392120
611.622803 329.222595 -782.178589
1002.184631 338.770325 -1044.976196
1220.259644 523.361328 -903.466187
806.475037 398.611420 -1213.068726
805.633606 362.570404 -1204.737427
738.808411 313.887512 -693.698669
649.965515 363.184601 -726.979797
901.472412 239.780960 -1094.625122
922.362305 221.517120 -1092.498047
516.286011 815.688171 -637.494019
838.868835 531.190613 -615.492065
693.708130 763.646484 -540.064270
682.569763 796.449524 -463.069519
685.516602 790.047791 -449.801178
998.654785 324.016693 -1046.139893
1131.012329 388.000427 -987.944885
575.803162 835.021790 -438.147278
1009.524170 326.012360 -1049.973999
611.112305 782.159668 -602.248413
862.833008 303.937622 -1143.421387
524.458618 807.285278 -647.717834
580.579102 572.471497 -825.947449
718.161194 564.304993 -706.528137
647.849182 797.779602 -497.197845
599.773804 406.337738 -783.474243
710.128052 770.255127 -481.805389
1206.617920 469.485962 -918.103394
535.631470 837.045776 -470.484680
1179.551392 497.505157 -933.429993
580.038513 847.868958 -394.734802
511.425842 801.206726 -656.938232
675.766296 802.586182 -412.664398
778.564575 558.411438 -662.749023
1173.430420 471.143066 -917.756165
684.153198 549.325134 -740.213867
486.567871 836.487854 -588.872681
637.738586 406.789490 -774.945557
521.172974 841.832581 -471.273041
775.234924 613.742920 -715.592285
1022.288513 381.313110 -1038.232056
1198.705688 394.016022 -928.047241
1119.816650 301.033264 -980.177307
1067.276001 286.623016 -1014.246460
1139.172485 326.855957 -950.683350
642.317810 845.960449 -386.838837
741.201111 437.150543 -669.737671
466.504272 814.975830 -674.999023
1175.314819 471.892273 -911.220886
623.226074 429.105927 -791.422974
583.787354 821.274475 -497.198608
1015.972290 278.949982 -1034.708618
759.929199 747.208801 -537.914368
865.667297 454.091919 -1179.942261
973.787109 267.981506 -1047.597778
476.046295 851.057922 -522.841431
966.553101 314.036133 -1064.102783
956.851807 253.900833 -1024.073486
1110.709595 694.968445 -1039.585327
561.040466 363.141724 -830.863037
671.737183 781.562195 -558.042236
920.984680 219.590347 -1105.841187
672.419556 661.193481 -797.329590
1078.173462 637.918823 -1070.625366
885.351318 394.048615 -1158.937744
1130.453735 469.852783 -909.496155
944.006226 378.848083 -1116.201660
652.559143 569.771729 -805.995361
702.727539 702.109680 -764.464233
1109.651733 488.821991 -939.979370
594.886292 833.526611 -399.649872
617.990723 782.892456 -674.534790
778.142334 391.649872 -638.623657
704.356323 769.176636 -587.769531
606.552612 370.063568 -799.763000
680.550598 429.461243 -740.134766
1056.172974 729.972351 -1024.447754
1067.663330 364.745422 -998.409058
591.575806 376.674255 -774.684814
789.592529 507.075592 -657.629333
713.658875 768.488403 -456.702454
1217.314453 434.916504 -882.812317
944.742371 449.335602 -1081.291382
673.750244 358.959900 -713.078613
929.217224 451.438721 -1135.948486
965.788635 186.169449 -1066.145020
1039.434326 268.467743 -1018.028870
702.293274 672.777588 -739.696045
636.331360 458.263336 -755.101501
964.013550 480.775665 -1068.484863
1189.541260 371.740997 -924.416565
1156.223999 508.570892 -955.742981
923.949707 366.172791 -1077.980225
644.029663 795.248413 -539.543274
1089.233398 334.352264 -996.171204
1235.686646 407.721008 -890.767395
579.843628 812.864136 -551.532593
955.120239 239.487274 -1097.777222
1136.056763 484.504913 -955.843811
924.665222 332.926270 -1079.055054
747.236877 353.027039 -678.407288
519.590820 804.044312 -716.521301
487.195526 828.203369 -636.686890
565.147949 814.005981 -558.885071
1170.818481 378.359314 -916.414551
917.811035 606.382813 -1188.037598
745.234558 467.122253 -1214.879028
562.490112 820.054321 -502.899658
492.066528 827.650818 -627.293274
626.623840 341.332550 -779.923279
663.689636 444.766815 -760.606262
958.571472 262.608063 -1055.505005
755.046265 610.985840 -710.513550
865.893433 691.895691 -1245.666504
670.419006 319.818726 -740.413818
1042.239258 205.908768 -1014.669495
1097.446045 340.778259 -972.426208
723.014771 636.707458 -721.164795
1041.838989 347.288300 -1032.805298
773.989624 400.357910 -642.766235
757.161621 455.556061 -1230.455200
1035.266357 321.066315 -1028.312012
656.731384 348.324707 -745.551636
635.902039 466.415436 -782.710144
931.979431 266.213898 -1044.053467
1097.254761 265.123718 -970.910095
790.545776 726.399048 -572.282959
1093.260132 575.993225 -1008.265564
568.592102 501.946686 -821.228760
602.794556 821.121643 -432.141632
994.690857 286.099792 -1039.598877
779.391907 472.184998 -1222.481079
635.975891 800.918823 -461.903656
1198.390991 375.081268 -928.838440
710.753723 345.113037 -694.962341
912.242065 332.622681 -1156.277710
657.202087 761.963257 -671.511841
823.462341 466.718048 -639.353333
1158.823242 340.374329 -939.619934
1165.791138 465.246704 -911.655518
551.078918 829.868958 -466.385071
910.831177 548.671753 -1030.854492
667.294006 366.178589 -711.786255
962.383362 340.656281 -1084.384277
718.869568 342.454071 -686.866150
520.670654 811.911743 -660.063110
941.206177 244.450073 -1055.403198
622.444885 530.007141 -784.201355
857.555664 246.013474 -1129.842407
1053.833496 223.087036 -999.362488
1105.279419 311.385559 -976.573975
1006.022339 306.738342 -1035.841797
855.437927 349.860840 -1171.439941
833.056091 467.446869 -625.691345
1118.091431 712.702942 -1017.431091
633.118164 796.923462 -608.315125
1020.370605 496.687347 -1015.156616
1009.430237 309.625183 -1052.084839
1149.359985 330.380829 -929.743713
650.486877 475.227478 -754.776428
1088.009888 516.167542 -960.924988
671.582153 558.237427 -753.920410
840.819336 479.535187 -560.099304
644.208435 794.790222 -528.292725
939.486084 303.472290 -1049.569580
615.965515 830.036499 -400.896881
668.822937 795.595825 -422.824646
685.283142 784.305969 -458.926422
663.120667 482.626190 -770.786804
647.313721 377.976288 -730.156555
504.953705 843.420410 -503.205322
718.057739 766.207947 -531.576172
1120.512451 645.405579 -1047.763306
534.011475 449.706451 -826.029602
490.764526 860.536560 -455.553070
568.232300 836.942322 -425.713409
1037.298950 545.214722 -1003.514893
663.341370 774.886292 -536.432556
627.963745 798.627991 -484.603546
910.019714 220.691574 -1107.384399
1013.023560 660.914734 -1074.194946
1215.114136 369.350128 -919.843567
540.988159 802.226501 -629.152832
791.007385 480.317230 -628.168091
660.492432 322.789185 -764.934692
582.391052 778.333374 -660.341797
576.876831 846.489624 -471.622101
606.459167 793.921204 -623.027954
648.996582 786.531677 -490.600861
815.716614 736.509338 -592.765808
566.898987 460.209656 -815.220886
676.054443 723.869812 -796.169189
751.100281 365.711029 -678.339172
861.698486 586.117188 -1206.032104
607.215210 824.770935 -415.083984
771.631165 753.983154 -567.541809
753.029175 736.649780 -735.228760
1166.930420 371.179291 -940.955750
486.410187 867.340088 -471.785095
743.807800 444.457458 -659.704468
713.919312 747.457092 -634.595520
606.862854 803.168701 -553.005066
592.932068 699.413757 -827.751526
1081.719360 474.984985 -957.717590
1004.572815 442.738037 -1077.610474
994.422546 193.663254 -1040.775024
943.262268 660.311279 -1086.888184
814.309692 507.932526 -632.301331
635.910278 699.507141 -824.632813
650.563232 350.841919 -735.338684
789.786377 522.814941 -1219.588135
682.660400 785.320862 -482.703186
594.377930 826.985474 -420.454346
808.093750 592.827332 -655.545288
705.038208 765.352173 -580.742859
597.825195 815.605896 -534.682434
834.648438 427.108398 -615.704956
803.784851 560.116150 -1260.634399
1116.444458 392.440002 -997.357361
1067.182373 325.136627 -1008.078857
444.457947 840.835632 -610.773193
659.852417 475.026642 -765.934570
752.825867 320.736145 -679.953857
824.567810 645.360046 -652.501282
1154.798218 391.355103 -952.857788
1225.036987 413.910950 -884.309631
458.778229 866.418640 -558.472717
889.189758 179.614929 -1092.290161
1135.389404 553.850403 -948.618896
1158.029785 346.285431 -959.949524
721.246094 769.648193 -491.273254
588.333008 581.081665 -830.831116
906.516357 500.816071 -1058.034058
857.633362 598.007751 -620.934875
966.448242 289.644897 -1040.949097
934.341675 448.886414 -1138.808716
661.471680 497.721985 -763.541626
844.713318 434.212097 -1193.724121
787.229492 402.767242 -1220.552368
1085.291748 506.685303 -1014.367065
994.840332 515.931030 -1032.378052
948.692078 176.548141 -1065.874756
764.347107 456.909180 -1188.869995
580.286377 776.378723 -724.926697
1226.512207 437.387421 -896.518372
836.962769 254.466309 -1149.860596
969.283081 203.943817 -1040.921143
1059.842285 400.884857 -1012.070557
794.021606 448.466187 -1223.562256
1039.211304 253.434250 -1024.302246
636.989075 524.013855 -772.949463
609.177246 814.234863 -434.102966
752.074646 364.494843 -655.665161
830.843567 401.690308 -1192.978638
565.484619 822.815552 -473.382416
730.327271 486.569885 -676.757385
1243.912964 457.047180 -894.041687
751.235352 771.586304 -505.332306
643.930603 800.846436 -514.356567
630.753174 335.751740 -765.771362
767.054932 406.265228 -1237.857544
697.154236 778.503052 -523.642334
776.093872 475.379791 -640.495667
566.080750 854.116638 -416.907776
1092.608521 298.776886 -982.565125
670.778503 622.610535 -788.333618
799.537781 402.510529 -626.993469
751.129272 323.076050 -712.662842
641.031189 804.532349 -468.868164
726.966553 398.253601 -679.925293
579.386780 798.442505 -574.994995
453.813049 826.958618 -653.730652
707.175964 623.479309 -739.861938
785.011414 545.211792 -646.038025
779.765991 594.544739 -681.836304
1117.883301 447.064880 -901.756470
651.867554 763.589661 -638.593384
576.353455 837.416992 -505.622711
1072.031494 655.787109 -1062.397705
756.753052 755.419800 -610.126038
855.313660 416.442047 -618.073181
975.918701 478.122192 -1029.752441
723.024231 353.672913 -675.617249
854.209351 565.680054 -601.880920
539.061218 849.487976 -436.087189
527.692749 819.130127 -570.848083
1144.848022 340.924133 -967.472412
780.677612 437.927979 -1216.046997
562.629944 829.150757 -501.583679
809.949951 496.987732 -567.840393
782.448425 488.610046 -1201.970703
586.619324 342.246124 -811.128601
759.353271 639.686829 -715.802612
479.391510 802.948425 -674.901733
969.552795 435.549927 -1021.973328
1024.188599 183.827530 -1030.116333
1017.644531 197.175751 -999.264587
1036.397339 712.678162 -1034.572266
801.410278 384.218689 -1202.530151
1218.977173 479.452881 -917.889343
1208.527954 453.381378 -913.516113
799.713806 734.708313 -515.842529
573.580750 833.428101 -433.182770
783.887146 749.722229 -724.039490
565.454773 618.657532 -857.864136
858.171631 662.365845 -1234.121460
883.832947 284.649323 -1139.020752
586.199829 547.627686 -820.113647
555.758911 798.790283 -646.746765
872.515320 513.921936 -1089.938599
899.059753 679.639221 -1178.005249
483.871216 818.873657 -657.303589
535.052185 793.967651 -690.359436
690.399475 414.743378 -691.676270
554.459229 393.005249 -799.352295
519.832153 806.271484 -655.921326
896.140869 204.914124 -1110.930786
623.637329 425.041138 -742.643188
780.983154 419.031281 -628.910278
614.014893 793.490112 -637.827698
748.634827 373.267487 -674.138000
1100.658203 660.508423 -1030.687988
595.712402 809.421570 -573.153015
1083.209595 259.826202 -996.432800
1143.247192 450.970490 -983.112671
1135.194946 673.280212 -1021.982483
1162.177246 506.420624 -938.256592
727.874023 442.252136 -680.824463
592.115479 471.446869 -798.534119
944.005981 327.005951 -1100.639038
1133.168945 727.173767 -1005.283508
669.740173 536.891602 -764.656555
577.285522 814.343811 -533.489319
1059.561035 467.202118 -900.179321
805.789246 635.172180 -664.935547
667.526855 359.849213 -723.545593
843.002014 289.423584 -1169.603149
795.840759 484.738739 -625.832703
870.309875 491.279572 -601.446045
682.140625 747.341736 -676.279602
1045.770752 303.076813 -1031.040405
782.721436 560.650940 -688.828430
741.221191 472.130188 -665.491516
787.074463 444.515900 -643.768127
1040.591431 402.082794 -1063.964355
758.122925 651.785034 -739.808411
645.641357 772.473022 -586.630005
865.407166 234.858185 -1143.421387
705.364624 463.909027 -727.090088
1146.116089 486.387787 -924.816040
627.411621 364.237274 -761.186218
1056.459595 662.414856 -1061.507080
511.283417 842.295349 -497.126007
850.293030 442.627533 -535.241394
1068.471191 434.708344 -1030.072144
836.928955 347.003967 -1200.601685
699.086426 602.256470 -740.623840
730.658997 752.159058 -527.453430
763.375793 714.687256 -728.832336
793.867249 668.424011 -703.468933
728.193420 750.664551 -532.650513
958.850952 213.728745 -1055.604004
1124.833496 589.589600 -1034.192139
544.079285 833.769287 -515.899353
530.243286 800.220520 -681.842285
846.220703 357.630280 -622.799194
735.260925 643.875488 -728.460876
941.802307 365.142609 -1092.032715
812.883301 467.664185 -1200.329590
534.847656 781.936218 -732.243225
716.409424 778.152710 -480.199188
687.867432 525.559631 -729.167053
733.532837 445.182129 -676.956848
574.637634 416.402008 -799.161743
599.640991 794.930420 -650.791748
520.760681 844.661499 -601.275452
591.252930 820.409546 -474.670959
830.349365 346.059998 -1203.922729
581.512207 620.604065 -837.848450
945.779968 482.145874 -1067.494507
883.431946 448.132874 -1173.250000
937.742859 168.406479 -1071.222046
1021.326904 258.982544 -1033.406982
1048.661011 529.289673 -987.527893
1073.798950 596.532654 -1061.359131
934.949341 232.931824 -1075.489746
644.117249 668.543213 -814.726257
817.281128 438.956085 -609.261780
623.773254 341.924896 -789.242737
780.626587 446.472870 -1216.775391
1150.872192 644.925720 -992.489868
791.885010 527.306213 -637.090942
1132.612793 346.736084 -961.211731
1115.807861 699.727783 -1033.967407
800.548096 674.340515 -685.220825
791.546265 398.775177 -647.983398
728.158142 404.033173 -677.278870
759.842041 390.095642 -665.453064
544.094116 430.314941 -833.218689
708.153320 429.895844 -722.068298
652.362183 516.548157 -763.338135
1071.588501 331.077484 -1008.345459
884.111938 672.366516 -1177.687134
812.354614 367.256866 -635.452820
601.162231 789.834534 -676.497620
527.528259 833.829041 -533.360291
780.608643 434.890717 -666.462830
589.620605 780.768921 -708.948853
1079.722412 603.337219 -1042.009644
1030.326172 304.230194 -1041.841309
963.494507 200.030228 -1050.493042
1093.248047 604.443909 -1028.520264
1135.422119 880.590942 -1068.794067
581.578552 784.132568 -662.410461
721.134155 768.306152 -666.632446
808.732849 447.588196 -1216.408569
531.181946 817.001587 -614.939880
543.593994 850.935852 -426.024780
595.032654 805.724548 -581.645203
681.884521 787.235840 -478.837036
517.156494 866.360046 -511.745972
656.770569 469.145630 -745.785950
519.027039 800.951843 -672.596375
1135.152344 580.743530 -1014.848816
1159.683472 533.656250 -930.980225
671.520569 664.341736 -788.764771
1050.788818 480.953430 -1014.003540
884.926758 273.739685 -1132.689697
1238.558105 408.816589 -893.095398
599.052490 821.519714 -429.354675
929.246826 323.805328 -1074.794922
785.914856 361.930298 -634.709167
694.774658 775.908569 -642.314087
830.096313 335.132568 -1168.347290
1121.361084 489.585541 -953.188171
820.535950 351.837952 -644.467468
704.271667 406.572632 -693.609253
961.530029 299.298584 -1069.430786
759.747864 622.353271 -690.675598
944.073425 171.442505 -1053.189697
1027.421143 220.810272 -1014.295837
826.605225 412.182770 -612.803406
931.722900 380.099091 -1144.860962
1160.951416 404.421387 -962.658569
718.058350 390.998901 -703.590393
548.051514 501.421875 -819.153992
717.016296 772.251770 -578.356079
714.596130 389.509003 -686.568054
1153.152222 432.728760 -969.801453
920.099976 221.457565 -1090.244019
856.090210 422.443970 -596.709595
806.799561 455.742249 -1164.891968
761.297729 307.375305 -673.255676
598.519043 554.714111 -812.501282
860.639893 592.736694 -1195.529297
833.448730 283.806427 -1173.653320
1112.289063 367.704315 -983.506958
856.708984 486.999390 -610.211792
552.295105 824.646301 -538.105469
633.684631 795.853394 -490.964569
949.554565 630.656006 -1050.846069
1181.503418 383.824280 -930.491638
677.198669 578.333313 -737.860840
451.335297 858.455383 -543.785339
1088.976440 472.634644 -1012.729126
1125.288330 551.547729 -955.557495
1080.119019 702.937012 -1039.615479
637.773010 787.938110 -535.178894
615.363037 592.829529 -829.066345
719.854309 717.110779 -732.959961
460.272430 839.676758 -588.252502
987.961792 179.139420 -1040.889648
854.799500 447.989563 -1190.066162
1048.446045 386.458435 -1042.082275
674.951111 779.080139 -510.528687
662.482910 583.827515 -773.408020
711.111755 759.824158 -599.356201
709.183105 544.610229 -750.965271
591.966553 556.605652 -814.300659
677.122131 398.946655 -723.872375
784.482849 341.014740 -1218.063354
569.184204 367.942688 -815.791809
648.294128 656.335815 -818.376221
1172.124756 843.797791 -1007.812134
946.340149 196.749619 -1067.953979
592.442078 380.229340 -808.551331
576.916931 423.182831 -825.759216
1193.179199 379.908997 -917.642639
924.646362 339.764832 -1019.849670
678.866943 810.434326 -414.766693
717.470886 487.918427 -728.515503
518.860474 827.433716 -556.147644
998.400696 463.262177 -1067.176514
829.631226 555.507263 -635.999451
460.600922 837.563904 -587.821533
690.349304 772.824036 -552.476196
839.660767 492.189148 -609.037476
566.894592 843.765503 -411.241608
712.038696 572.649658 -728.303894
763.785461 398.080505 -664.908997
704.016479 795.825439 -432.201874
1013.199158 314.814636 -1061.387329
667.579590 652.049194 -788.252197
539.190002 431.517395 -833.815491
1157.819458 680.502991 -1001.421509
1165.296509 435.149139 -949.911865
1112.155273 505.612640 -1017.472717
1119.684448 466.077637 -997.176575
590.712708 826.828552 -465.555481
1163.824829 821.302979 -1037.488892
665.479065 343.020477 -738.498474
874.015869 382.149841 -1180.463013
716.291016 786.450989 -433.901306
637.705566 611.292542 -800.098022
727.937500 778.215515 -415.073975
799.395569 523.126648 -632.310242
699.103882 466.125641 -708.676208
626.888245 792.675171 -556.965393
784.121704 396.571899 -1207.524048
625.653442 349.737396 -755.266479
1113.604126 473.801270 -976.421448
692.307312 360.561768 -703.883118
531.664246 806.889404 -639.577576
644.761658 399.880157 -744.370117
502.112701 829.504639 -549.728394
1194.468140 410.341339 -926.278809
914.408875 353.742188 -1004.570496
1109.947632 271.237152 -962.445129
1150.242798 384.919647 -972.449646
623.687988 418.949280 -758.507019
1157.958252 387.883698 -954.253723
638.472473 801.562927 -490.027740
805.975342 638.923828 -674.615479
741.882935 761.505920 -594.901978
567.530518 774.625244 -723.603577
875.642639 345.086884 -1184.131104
1145.319458 399.656555 -961.214050
536.356384 840.861450 -463.241913
854.630859 506.209595 -609.459106
936.125671 398.631439 -1053.982788
627.132629 331.873657 -765.156921
571.406128 363.737915 -819.528625
1080.382324 501.906158 -943.990906
552.689819 471.534027 -827.291504
619.474121 833.910950 -410.832123
580.966797 343.593933 -813.120361
671.012512 806.347534 -396.903595
961.167175 323.187164 -1027.309814
941.853271 227.158432 -1059.729980
950.167053 315.203217 -1052.802856
484.836456 819.629028 -639.145142
767.682251 405.930786 -661.568054
612.422607 552.558411 -801.806763
955.936096 512.065613 -1102.678955
781.968994 337.501556 -660.505981
1087.697144 861.297485 -1100.088989
792.241943 410.757629 -1224.782959
1117.007202 423.673309 -999.260437
1148.382568 460.076996 -936.505127
780.273193 693.143860 -700.355408
595.473022 494.410767 -802.849731
862.487549 463.670563 -1208.113525
1090.515747 342.496124 -1009.939087
1134.482178 705.341797 -1012.971436
600.290588 369.889465 -807.737183
650.555664 400.988831 -751.512512
1052.967041 288.675049 -1026.725342
725.590454 446.766235 -1214.007690
585.775391 435.329803 -791.130066
1245.502441 425.240051 -891.260742
537.178833 824.565735 -527.390686
1033.387085 561.448364 -1029.476563
1179.256104 371.080933 -933.354431
1156.479370 760.266541 -1004.494995
784.855225 463.331207 -658.903381
603.828308 382.280640 -779.914368
619.824280 782.752991 -663.378174
534.953125 452.850098 -838.790100
688.187134 759.830688 -568.848450
374.260223 580.904236 -717.804626
924.041199 210.419434 -1115.674316
891.252686 656.821228 -1206.938599
600.901794 350.476349 -778.571655
872.234863 680.754944 -1252.603516
697.203186 775.223511 -555.492249
1054.372681 514.252075 -1060.182861
711.220703 762.989807 -583.611755
1038.956543 342.749359 -1038.408325
726.171387 683.919922 -739.822815
751.314758 760.267395 -481.940918
443.038544 832.301331 -645.843140
889.262329 298.771729 -1163.479004
1121.675903 656.416565 -976.538025
998.548218 419.891541 -1071.208130
738.253113 365.200592 -671.747070
631.476746 360.409210 -754.226257
801.991821 541.928833 -662.525391
532.472900 825.273926 -519.970764
723.308350 621.281311 -713.358276
552.561218 396.085205 -822.118286
742.151672 347.100494 -674.495789
834.039001 303.551910 -1180.500854
521.322205 818.256531 -640.778809
1112.268677 504.195251 -924.736877
651.194336 783.549316 -572.578613
750.348267 629.987976 -721.405273
1186.423340 849.898621 -997.775574
783.291931 402.227203 -653.919861
841.095032 578.172668 -614.969421
701.423889 657.705139 -737.688843
1141.350098 694.191772 -995.842102
589.070251 818.975525 -504.044495
461.298920 858.329529 -537.669373
593.133423 556.122375 -795.843262
1089.160278 462.697845 -1012.973450
1091.766357 287.149414 -991.953918
573.869690 389.920197 -826.759705
606.139160 416.244751 -773.830811
776.108215 501.700592 -644.044434
849.797974 378.246552 -931.808228
788.180908 398.083099 -1247.418945
784.990784 748.956665 -569.781311
1088.999268 246.653915 -984.613342
558.394714 601.041138 -849.026123
895.804138 375.727081 -1115.517212
670.968872 777.550354 -514.919922
542.386353 829.155090 -559.975586
1104.741455 466.824432 -990.944031
658.904663 482.304535 -761.659363
798.502625 462.940186 -636.112366
1169.319824 712.635132 -988.748535
1056.900513 301.367981 -1026.407104
900.453796 322.345001 -1019.185059
736.191711 404.946289 -676.451538
630.195923 629.316528 -827.518982
542.717163 831.621277 -608.886780
1031.587402 520.125122 -974.993286
834.313843 581.467834 -1213.512329
720.763855 756.865051 -596.824524
529.110962 831.752014 -522.294250
669.819153 798.467896 -441.103333
746.529907 688.454895 -729.776489
695.003235 372.981415 -701.834229
612.311646 814.011658 -511.306244
798.673950 367.318848 -634.052673
563.710449 902.463379 -436.501678
833.064148 443.085358 -605.679993
757.990601 544.178650 -672.908081
626.314453 564.854431 -801.530029
940.149780 189.273987 -1074.957031
636.040833 643.119324 -839.435120
748.725159 727.142273 -741.979431
862.432617 233.811707 -1143.869263
816.154419 483.260498 -1192.385254
1192.761108 409.446259 -926.368042
699.299194 784.948669 -461.365875
1056.708618 507.627930 -1046.041504
607.211182 376.731903 -774.222717
732.752808 760.204529 -530.010071
1045.775391 348.588562 -1046.836060
620.082642 394.601410 -760.085388
1063.119629 638.049744 -1064.214722
960.540710 341.316071 -1073.815430
844.443542 389.170380 -613.756104
1128.508423 498.211639 -922.304077
672.550964 796.343689 -416.258026
976.965088 444.857635 -1053.582397
852.141113 339.485321 -1175.654053
988.039856 210.859116 -1024.539185
622.900574 373.769684 -767.191040
658.591797 477.915955 -773.258301
1116.538330 504.506683 -973.975403
669.765869 779.079346 -587.294739
767.394958 744.857727 -452.589325
1023.224487 377.013672 -1055.391968
688.893188 378.504211 -717.471130
1199.712158 814.459412 -1003.287720
783.481506 454.042572 -642.718323
609.394836 800.745789 -531.565125
458.837708 835.441956 -623.616943
857.218628 329.860809 -1164.005737
973.844727 279.096863 -1046.606934
471.046539 842.588379 -559.501587
1162.532349 400.456055 -927.503418
597.867920 466.919220 -817.942261
736.623230 468.416199 -679.994934
705.713989 700.891785 -795.204102
499.032623 851.290771 -523.296875
670.243469 378.978729 -722.759216
594.863220 602.049500 -831.497864
792.452698 561.624023 -1265.229736
511.542389 850.329102 -520.518921
1055.187256 519.148438 -998.162903
959.803467 267.631165 -1045.482056
554.812622 383.620453 -802.313721
1190.778687 893.671875 -1043.907227
820.915833 364.164581 -633.822266
521.358337 790.997131 -718.593628
674.092041 388.424377 -739.561035
632.007141 804.760010 -427.291962
873.326538 584.968018 -1194.359741
1090.898560 576.632263 -986.551880
1150.053711 474.897949 -942.863281
676.146240 354.876495 -709.767761
1069.974121 430.478882 -1044.299927
1060.475220 296.274170 -1028.809937
439.078339 854.244812 -565.976807
755.969482 439.091034 -651.177124
503.583313 798.827148 -725.966736
634.673157 579.082825 -794.113403
777.761169 513.234131 -1242.651611
1102.420044 574.072937 -1051.090332
631.068359 310.501495 -754.874573
1075.047363 405.661835 -1008.950806
604.488342 798.118591 -642.448486
1093.903320 294.197784 -981.538818
775.313110 371.585876 -654.626709
670.501648 784.119629 -508.382172
946.736267 514.289063 -1075.977417
907.562073 652.187500 -1152.115112
1089.166870 430.301147 -1001.295532
1154.689941 465.932556 -978.739136
1154.428467 873.893738 -1046.484863
927.760620 238.171265 -1113.848022
564.617493 550.313354 -836.934143
644.394226 802.348999 -408.712036
930.041931 226.562531 -1114.959473
1018.815430 389.499237 -1043.157104
850.385132 376.133118 -1163.382202
1121.543823 429.222839 -982.245728
751.892395 445.677399 -655.249634
1144.857056 357.220734 -964.264404
663.664978 421.418030 -727.268311
588.684265 814.807068 -495.278015
679.697998 368.028137 -716.747559
862.406982 267.104858 -1136.190552
452.813141 846.869446 -585.744324
786.613281 519.780151 -1201.849976
866.923889 403.087494 -1193.213745
883.151306 239.477829 -1142.702637
1089.936523 443.442261 -1006.558044
763.469849 755.284241 -509.985260
877.035095 491.209198 -1185.664185
588.094604 834.189026 -404.739380
637.173401 631.942932 -808.957825
867.722351 471.732971 -1185.696655
615.703918 635.854614 -852.242737
727.105713 768.783142 -446.061829
1185.073608 482.647461 -930.184509
1132.671509 660.538147 -1008.978394
870.776062 575.656555 -588.364929
762.360901 738.166992 -570.386841
1105.552734 286.286285 -985.850281
797.040222 436.205231 -620.414429
707.452820 536.915649 -1015.035522
610.015381 416.039154 -800.254150
933.599792 468.286163 -1153.390015
812.217285 342.630493 -1205.155762
1103.229004 316.856262 -962.449890
1068.947876 511.601532 -1040.575684
709.571045 380.445923 -686.404114
1072.483521 900.035217 -1088.505981
1123.031250 668.789001 -1018.838745
630.739075 475.064362 -794.688843
1149.705933 406.816895 -963.293701
680.836548 691.136841 -815.014221
776.675659 376.648529 -1215.920288
609.044800 801.512695 -515.981323
670.001770 763.110352 -602.150146
750.186584 357.967773 -662.445923
665.324341 790.803894 -498.981964
727.446472 604.982910 -728.512573
1001.005859 199.937241 -1028.211792
615.496704 803.282288 -463.361786
1076.195435 743.988281 -969.234131
982.450195 221.245682 -1040.869019
507.350067 796.592590 -707.121216
552.620300 812.951477 -654.921936
1087.643188 421.538788 -1022.418884
507.388763 809.246643 -658.942261
538.047668 851.116455 -517.625183
632.347046 550.156250 -764.531738
567.786438 475.521820 -794.246155
663.710938 781.056824 -581.390991
565.299255 830.631531 -464.519104
857.319153 312.586456 -1178.278687
1190.143555 822.219543 -1009.068848
1045.968262 483.870117 -974.295654
1135.533203 487.790863 -970.157410
671.591431 571.181091 -774.141357
569.470520 794.530090 -659.040833
665.515259 582.222778 -768.423889
934.064697 196.180588 -1060.849121
784.297485 411.965485 -1219.228882
801.455139 421.359253 -632.093262
1125.530029 280.131256 -967.720581
1001.059326 304.356476 -1040.001953
783.032654 627.847046 -694.578369
1226.213379 497.894745 -922.165588
1041.005859 352.152527 -1052.690430
1095.613770 252.410812 -957.101990
721.081848 771.933411 -465.615326
915.040466 280.362915 -1112.206177
575.746094 615.938782 -840.955688
512.576294 868.111511 -491.597382
939.927124 510.730743 -1073.453491
615.197449 800.044861 -509.691559
684.895447 534.638306 -734.800659
668.953491 659.500244 -802.071167
541.411316 785.262512 -702.393188
774.530334 359.017242 -651.798950
660.735107 499.428162 -749.406860
1108.868042 264.843506 -959.921448
638.289429 333.345123 -783.404114
574.394348 820.825806 -511.059875
872.597839 315.697968 -1157.583496
821.127136 425.885498 -626.598083
594.058716 850.414124 -389.199371
1121.966431 593.680481 -1046.609009
1134.010742 863.978333 -1066.921997
626.909424 803.457214 -466.329010
930.037109 351.371155 -1006.577332
798.180481 774.980103 -527.641174
784.826294 446.883026 -631.254883
548.106384 864.320435 -403.577789
805.478149 746.782104 -565.213867
983.064880 265.460785 -1040.554199
1125.601318 628.809937 -1037.104370
647.101746 812.531921 -416.432800
1130.111694 282.786896 -962.445984
864.031982 622.869080 -635.740540
652.278748 628.268860 -808.678223
987.883972 191.688004 -1032.549561
916.225525 331.374451 -1119.120728
911.786011 174.330643 -1090.142944
500.026093 835.913452 -588.947327
982.989685 233.327835 -1034.996948
943.723389 505.337463 -1063.952637
901.449646 405.735474 -1122.907837
1120.636963 363.226288 -977.432983
1016.442749 350.455444 -1065.330078
951.881409 399.989044 -1083.648560
882.856689 484.558777 -1090.648315
777.541626 645.929688 -702.134399
490.261932 816.230469 -675.239807
1186.011475 402.540619 -937.624634
527.772156 394.819244 -855.683472
771.387207 509.932007 -459.167389
791.565308 447.706390 -632.114258
865.007874 683.386414 -1202.985107
624.365234 339.821442 -777.977966
914.324463 329.297241 -1145.517212
1097.343994 494.222137 -1012.391235
755.926270 459.053650 -671.980835
631.241333 769.126648 -650.634705
592.456177 794.096252 -667.820679
724.558716 569.018311 -732.455383
562.840576 855.454590 -444.972900
828.771118 493.427277 -638.259094
654.879272 801.080627 -450.923676
888.790344 178.391830 -1097.126221
779.259155 428.177551 -638.947876
790.078857 357.385895 -1225.600098
754.688904 482.500580 -1273.100708
1127.920044 362.195435 -949.909668
652.711914 369.149963 -720.948120
755.840332 325.930725 -687.576416
557.270935 405.921967 -810.441772
905.897827 540.582275 -1112.893188
750.853882 589.093872 -695.502014
635.027893 813.201111 -415.459076
589.771118 823.002991 -461.581848
587.551453 850.427673 -398.001190
1153.000610 444.444244 -945.288147
580.755127 578.951172 -810.622803
722.397583 506.139282 -688.745300
674.601135 812.558777 -416.887573
698.606384 408.697327 -702.705750
449.693298 848.324219 -581.871033
1084.357300 739.391968 -1014.546936
1129.351196 464.059326 -972.511719
693.672180 762.840515 -653.799377
644.993958 340.697144 -762.261658
1219.148682 483.043884 -910.702515
718.110901 440.696533 -695.645020
1019.596863 453.997620 -1063.709229
688.825134 778.496216 -498.678009
554.067383 796.536499 -630.573181
711.218628 466.791229 -684.031311
851.739685 506.910553 -1107.110229
815.044067 413.778015 -622.016846
643.951660 547.064087 -788.993958
952.069458 333.050812 -1095.573364
894.027771 189.776321 -1094.220825
748.615112 598.593811 -704.227051
784.832642 665.379761 -678.995728
896.857178 630.059265 -1187.201050
490.526398 842.176636 -531.280334
1010.617920 286.791168 -1035.495239
688.688110 347.861115 -736.157959
532.056641 786.948303 -756.674744
586.492920 770.555237 -693.380066
689.300232 618.240112 -738.985046
1019.527161 471.693817 -1053.832153
1210.773315 477.872833 -929.297058
648.990906 494.411072 -785.388550
638.938782 771.167053 -631.694885
1002.559998 448.528473 -1058.755127
919.836609 419.413879 -1159.105469
705.884521 409.789978 -703.621887
715.040894 754.184326 -581.665771
679.145447 324.996429 -736.814087
810.268616 684.261597 -695.110718
796.468994 735.712769 -548.956116
760.986816 716.165527 -727.589844
746.127686 632.200500 -713.465942
612.937134 417.292755 -767.043884
733.024597 353.663025 -671.930664
860.240234 504.608795 -615.796570
589.705261 791.639893 -588.466736
797.477356 662.238464 -697.980408
659.869751 619.763733 -761.899719
639.989929 798.242310 -468.612549
965.785461 205.353683 -1067.974976
1140.156860 478.749878 -940.407898
715.755859 771.927002 -487.605347
951.554626 423.849304 -1113.091309
1122.499878 874.215759 -1049.721558
1068.148193 258.276581 -980.759766
1021.658997 373.553711 -1037.741821
749.043823 447.272430 -667.625366
484.416351 875.694336 -451.972168
668.425964 332.874084 -741.442688
1078.239502 616.882019 -1089.136108
549.239014 393.605896 -812.197266
662.950745 561.108032 -762.400696
753.353638 456.851044 -1269.335449
848.191528 638.988037 -626.820068
768.433167 344.177429 -678.851440
629.190063 418.493469 -759.818665
1094.146484 430.219360 -991.618835
1045.163208 490.030640 -1026.385254
690.644531 382.477905 -705.917847
1056.864258 263.421387 -1013.114258
895.881165 228.195206 -1115.433716
682.461914 813.718384 -409.370972
736.856567 455.276489 -663.789856
646.897644 357.802979 -747.951355
524.393738 404.949127 -858.478699
688.924561 771.964478 -674.122131
828.438965 412.988525 -619.843872
