ply
format ascii 1.0
element vertex 1381
property float x
property float y
property float z
end_header
-756.280762 40.656792 865.173889
-1057.856812 413.542389 1205.520508
-728.585205 189.117554 734.960754
-705.354553 126.551140 1001.782471
-403.295746 126.772484 1054.112793
-1225.974731 134.418442 933.960876
-469.882599 202.277344 1066.043457
-336.752594 43.057407 1042.492310
-1092.546875 345.440826 1052.303467
-1157.406372 431.736664 872.001709
-1198.362671 244.069672 882.258240
-1081.968750 429.421814 1128.646240
-1184.146118 385.490906 839.212219
-751.503235 223.095581 706.405579
-779.004578 164.942993 687.060059
-780.672607 9.225209 797.397461
-360.102875 57.686443 1049.493530
-537.826904 189.654755 1063.359131
-682.236633 158.867310 1039.756592
-505.055054 265.468079 1058.730225
-398.647797 123.078392 1063.311768
-508.531311 139.873184 1058.444336
-662.832947 345.250092 909.561829
-472.528015 74.429832 1055.774292
-485.845917 222.450592 1050.375977
-681.741272 339.321167 799.081665
-619.330139 -33.527367 1044.835815
-1189.232056 291.938263 852.070435
-736.607422 50.161953 946.922852
-1201.367798 102.643188 1160.491333
-724.514771 255.877258 774.241089
-1133.211914 473.238342 925.427124
-466.450226 -44.983112 1048.052002
-734.842102 93.004654 813.687927
-1113.537354 383.210815 996.748901
-1064.715210 397.455444 1104.263916
-1149.508179 124.065620 1147.199463
-785.282227 62.522320 768.148804
-515.127441 -92.928642 1030.032715
-1072.114990 366.806854 1228.997314
-744.109497 212.592056 746.139343
-762.156860 180.592865 695.205872
-1212.197876 283.718170 767.026184
-1208.475342 304.669250 755.395264
-782.447449 76.545044 715.291687
-379.464935 125.944572 1055.539917
-688.736633 150.826706 1070.947388
-621.503357 40.475330 1067.032471
-686.156616 150.800339 1038.362671
-721.060059 297.231781 717.864624
-558.860535 -3.565365 1036.323364
-329.381378 59.681416 1047.713257
-719.785400 83.243729 1037.798218
-336.410278 41.700130 1046.690186
-725.181213 272.961975 730.132996
-1189.378662 260.291473 918.802063
-400.411224 -97.285568 1035.886108
-1219.085815 123.591705 951.813416
-443.676331 239.353424 1062.240723
-1067.761719 400.515747 1191.383179
-1164.369629 343.765472 763.237793
-710.703003 88.327599 1043.295532
-1134.824463 265.066986 863.985474
-739.419373 318.337067 703.213501
-356.919769 106.422569 1042.697021
-486.367889 62.587303 1042.271240
-714.765686 54.603050 978.582153
-708.357483 130.563095 985.145813
-752.635864 9.059462 837.979675
-703.239380 250.457916 878.191406
-1044.065674 370.283783 1396.335449
-738.335327 94.832016 871.097351
-390.603149 -25.006292 1048.592163
-724.364502 240.509720 723.728271
-734.278015 212.130646 829.534973
-456.185547 -30.872431 1047.296631
-1217.452393 213.564301 831.924011
-782.106934 4.051615 822.171204
-1245.271118 180.557816 818.746033
-1092.553345 364.367523 1151.478760
-306.662170 71.474060 1049.820068
-351.846710 94.645561 1055.286743
-1207.563599 334.438324 711.115295
-545.081665 102.515671 1047.689209
-658.316345 376.346588 927.817078
-695.956604 339.354279 833.198730
-678.407959 236.658005 1002.765686
-438.428253 121.129578 1058.833374
-416.420654 215.514282 1058.253906
-490.024811 116.299789 1046.422241
-1170.145264 427.777710 717.741882
-670.400330 223.990936 1013.011475
-493.504669 -50.215485 1041.277222
-679.219360 237.255249 908.196472
-1179.943237 282.352112 837.399902
-586.619324 339.427582 848.410217
-785.554382 103.419128 736.436890
-475.997925 4.001606 1054.806030
-1164.223633 410.054535 902.822815
-406.253082 106.720512 1049.922363
-1173.415527 406.364075 710.443115
-405.791443 -72.433823 1032.528442
-707.860168 284.220886 743.717102
-1175.487549 229.376709 934.911804
-676.135803 354.151642 821.331665
-717.618530 239.526382 874.781982
-1180.705811 393.652588 852.394592
-726.906982 283.233673 717.233582
-1072.333862 342.692566 1055.216309
-1214.883301 107.083008 923.512024
-1130.729004 298.364105 913.195251
-815.107666 48.529228 690.658752
-1149.709351 357.157074 992.868164
-1057.570068 128.014771 1057.681763
-1047.282471 476.897461 1033.004150
-1182.184326 375.239746 855.135193
-685.687195 365.623810 775.212402
-1069.323364 598.051941 1014.905090
-1106.838989 185.429169 1114.993042
-669.379883 159.683502 1065.903931
-726.691101 181.169525 796.862305
-680.583923 218.004410 912.010071
-1118.761353 324.788971 884.649719
-692.873474 154.274734 1039.778198
-777.011292 91.974533 702.499451
-380.181793 95.032013 1049.083862
-1207.708374 219.881073 866.658386
-384.055878 10.746484 1041.875854
-484.251892 167.535172 1058.124390
-1212.038330 148.366486 925.945496
-771.753052 130.239029 711.698303
-733.745728 125.440750 829.419373
-1224.587891 199.594833 897.428894
-406.130707 102.556778 1052.291016
-793.544800 -2.897672 772.311279
-1013.038391 262.213043 1063.475220
-393.623566 -8.875850 1051.293579
-661.294189 207.015656 1048.592285
-327.487244 59.668648 1048.031738
-708.799805 232.729568 805.643311
-739.439514 -5.955072 1023.740967
-1212.591797 188.233002 942.748291
-1224.394287 61.155342 913.756836
-1126.179077 195.382507 1011.309875
-1198.084106 378.593689 689.963867
-1100.816650 524.348022 979.283691
-1223.730713 173.313385 779.600403
-1033.433838 386.971466 1219.659180
-1093.424927 419.925842 1027.925415
-314.343658 78.217484 1063.204712
-1178.976929 425.467896 820.550720
-372.515900 109.263420 1049.994873
-1145.844727 472.034149 829.031799
-663.215271 237.515717 982.693604
-1146.050049 468.652588 826.875610
-820.951172 110.699173 670.975525
-758.219299 -24.087587 854.700989
-1216.640015 278.666565 737.929260
-1169.280640 441.263641 772.735229
-387.267822 -43.971733 1057.244019
-1215.293335 77.476334 916.387817
-1062.435669 398.800415 1157.169067
-1101.048584 569.634766 929.225769
-1126.447021 408.386658 957.733154
-799.199829 66.562141 675.206604
-706.841858 115.977440 933.999634
-601.857788 74.903389 1052.114746
-1090.842163 467.929077 989.852539
-560.627380 211.250137 1072.447388
-1180.088623 304.547607 821.956970
-590.342285 76.135559 1070.775879
-347.882721 39.904537 1042.845825
-698.410278 279.252563 798.137634
-1190.879639 214.760086 987.050293
-1101.742676 515.510742 960.482788
-756.199524 106.793823 764.412415
-1116.461670 312.364014 998.894897
-517.091675 22.521395 1051.405640
-448.152649 217.219681 1063.986084
-1199.606812 408.685913 699.115173
-782.327515 184.295197 644.889648
-396.767456 143.947174 1054.212280
-1233.479126 131.764038 837.141479
-1171.892456 342.875397 798.579041
-509.155579 118.468300 1056.162720
-1061.321167 538.470154 1073.828125
-1036.089355 276.201721 992.668640
-342.520782 98.851257 1042.025269
-681.689270 360.801086 798.050842
-421.033966 233.104324 1043.390869
-1144.578613 431.883942 898.337280
-1217.675781 251.490021 702.066833
-335.329773 15.810695 1047.850952
-741.074585 131.904022 739.539490
-1191.502808 228.806320 869.193237
-465.465912 5.459089 1052.806763
-633.205627 -22.711224 1054.925537
-1062.349976 602.907898 1016.744446
-543.189087 93.392181 1064.408081
-672.879944 272.282928 877.010803
-399.007629 200.422638 1055.052124
-1232.512085 132.307068 848.216980
-1176.459961 404.723572 775.354919
-1194.950073 252.805450 819.145874
-602.910645 -39.073692 1036.439331
-682.627625 270.727875 863.905945
-326.852661 171.761444 1053.102173
-746.979553 100.477638 914.481323
-740.440430 250.534958 716.772217
-733.828735 52.808449 885.454102
-752.726563 135.222351 727.629822
-1121.266235 495.235352 916.581787
-473.527130 49.579666 1041.359863
-770.378296 141.000443 727.275208
-1240.015991 210.740158 805.009155
-738.672607 284.716461 703.795288
-1045.376587 296.154236 924.389526
-392.945343 21.771976 1047.698608
-757.637451 273.069275 683.099670
-331.208069 118.972687 1058.052246
-727.479858 138.327011 811.651245
-715.242371 191.767059 934.586060
-808.272644 41.683029 743.667908
-720.372131 100.858925 967.317017
-1207.663086 64.433083 890.354614
-681.623840 230.865204 912.251038
-1135.394043 405.517212 985.893250
-1063.670654 330.800964 1235.584839
-705.049561 230.070099 924.643677
-411.527618 84.349586 1041.548828
-382.888184 -35.324078 1054.858521
-776.751892 114.315407 772.722656
-754.210266 149.213226 828.148987
-729.652283 222.623474 758.639404
-359.979828 203.145264 1055.515137
-1145.825928 457.768463 886.788574
-1176.625366 151.260712 1179.462036
-797.417480 63.610336 688.287842
-1227.450806 33.581383 889.953552
-1164.737793 400.164886 775.757324
-407.310791 19.851734 1049.161255
-1077.949829 319.959808 812.284912
-318.511078 93.519272 1047.464722
-770.574768 250.660339 663.507324
-1055.206787 554.203369 1079.898804
-502.893951 124.019791 1065.489624
-597.299438 -42.697609 1036.356323
-1119.852661 343.403748 797.679749
-324.353821 119.951752 1060.024658
-702.274536 124.150429 945.965942
-1051.311035 371.911133 1081.128296
-1099.142700 489.562561 987.116699
-405.707764 -61.152176 1042.733032
-709.831055 277.626007 757.895447
-689.947021 272.027649 835.096191
-729.095947 196.040894 729.759094
-1068.742554 527.404968 1047.900513
-690.238953 163.529800 966.138123
-1157.457397 334.546509 898.496399
-501.665741 352.685211 879.078430
-1150.775269 345.975983 945.835205
-686.065002 281.035522 845.717712
-704.430298 120.057243 1020.515991
-405.042175 141.829300 1056.435913
-1043.295898 402.555145 1017.274719
-364.486267 140.543716 1049.159424
-572.675110 110.735657 1042.897461
-1118.399170 518.026428 897.467590
-378.152557 44.354050 1039.776978
-1221.611450 280.083069 733.692993
-707.518860 282.135468 762.625732
-368.156433 172.243805 1043.711182
-717.585449 225.694260 790.365112
-1175.313843 363.250977 808.992493
-739.260254 211.653641 724.234680
-568.074097 14.944732 1053.708374
-736.061035 221.381302 806.131104
-1234.417725 253.801407 803.356628
-1212.176636 63.719330 1001.864868
-1158.004761 267.509460 850.035461
-730.063721 84.217110 958.333862
-327.776520 2.973859 1041.075928
-1214.473511 273.030396 771.372925
-682.016174 255.526581 1002.542542
-558.358826 237.802658 1057.867432
-1243.171143 109.544373 845.326233
-573.628784 195.870377 1076.517700
-703.856323 240.398544 825.605530
-606.916504 55.241814 1039.205566
-471.095856 -51.619919 1043.242798
-1087.430786 482.489197 1083.093628
-1112.356445 197.298798 1067.217651
-1109.398315 319.737457 1047.527954
-569.759216 110.471481 1049.219727
-367.488892 53.234451 1044.158447
-586.522339 122.784157 1070.583252
-526.112000 -59.252518 1034.315186
-1056.170166 494.847015 1016.303833
-1094.374512 502.341278 946.472107
-1123.845093 493.321411 906.432434
-1149.042480 458.255829 862.104248
-802.380676 94.799736 704.538208
-592.326538 80.913383 1062.914795
-1204.436646 364.259155 699.560547
-1053.175415 473.307983 1011.698059
-1057.999878 287.597870 1213.807129
-1170.022583 258.864838 924.211243
-1029.348877 310.954346 1009.316223
-320.400391 36.424419 1051.270630
-1178.197388 402.326813 810.105713
-1192.354370 41.338985 921.621460
-702.559753 177.680740 1057.049072
-1218.298340 240.085068 801.734070
-1202.959717 142.918564 963.778809
-720.967224 134.294220 882.075439
-1152.592651 165.236206 1069.337646
-1054.596558 488.048462 1004.011902
-358.747070 52.088848 1047.333618
-1066.812256 488.387146 1105.558716
-712.064026 345.720520 748.657104
-383.808746 106.390137 1050.528687
-513.655334 -29.495752 1040.728027
-1212.721313 189.732300 884.480103
-1058.036621 416.823730 1210.586182
-432.408752 234.143768 1060.223633
-1070.581177 336.757935 1229.901611
-1201.271484 301.946808 761.672180
-371.275879 59.370422 1048.607788
-732.113281 217.796158 810.578186
-1041.951782 416.154388 1324.230835
-1117.562622 370.662140 999.033875
-336.918488 153.952789 1052.152466
-1170.003662 117.160179 959.643494
-595.620850 92.547707 1069.436157
-730.156860 270.940460 707.454712
-739.177917 69.795753 907.142883
-722.517334 87.324120 991.294983
-1104.927490 490.447906 929.267578
-1171.165039 441.702667 744.939575
-1232.650513 147.696503 757.206299
-1207.448486 239.926224 782.009888
-743.744568 77.244110 967.778687
-1156.583984 192.311325 993.389954
-1047.790527 377.413879 1040.125488
-1208.193726 73.348053 1089.622437
-1237.465210 181.440277 770.263245
-1239.844238 162.612610 785.794250
-1212.203003 73.130997 1056.581543
-1074.521729 604.772827 1028.466309
-752.037659 124.938293 818.777039
-424.333984 -56.612926 1045.699097
-754.522156 107.317413 728.408386
-1156.753296 243.523056 1008.178894
-1124.161987 422.975159 972.477234
-1194.106689 305.655487 804.949829
-1171.427612 348.324280 862.428955
-309.751678 140.256592 1073.257813
-1241.550171 129.847244 810.496704
-1085.932739 355.645233 1029.613525
-574.170410 55.154137 1064.031128
-1163.181152 154.138733 1097.421997
-804.989136 32.682457 694.686462
-1124.768433 491.508362 954.066772
-1169.973022 365.829590 881.570068
-751.582947 241.202530 695.409241
-1113.729614 392.674713 1032.904053
-1185.507080 114.225914 1087.138916
-1172.163208 423.878418 712.179626
-1094.702393 396.463470 1175.034668
-1165.928223 439.640625 770.794006
-776.898682 186.554977 684.142700
-1208.241577 72.772278 919.079346
-1057.354004 590.957886 1056.597046
-1082.624634 499.048706 1014.771179
-1208.642212 363.819550 738.427795
-786.483582 207.538651 663.347046
-578.147888 -81.278130 1032.307617
-705.144165 209.224594 815.687378
-1042.261353 526.399170 981.523132
-1123.837280 187.232132 1026.782593
-311.403900 49.980591 1059.779175
-1042.516602 289.272888 1392.789917
-762.257874 287.644501 682.885803
-1193.753052 279.544739 921.003052
-1199.925171 217.803314 924.576416
-1096.777100 506.074554 1003.312378
-1245.321655 99.117271 832.920410
-374.044464 34.637993 1052.409790
-1220.494141 209.098480 821.894470
-1055.695923 369.647644 1236.540649
-1074.398682 547.396301 1005.776123
-1058.046509 299.974792 1424.235718
-471.939270 364.139679 859.909485
-421.354919 38.619205 1050.229736
-702.113281 195.238007 849.197205
-464.104095 227.237930 1063.955688
-519.447998 -87.779594 1037.979614
-1147.585327 387.117554 944.639221
-1071.085327 384.748077 1239.623535
-741.178467 97.043488 860.566956
-655.227295 323.067261 868.773865
-1192.909546 193.863831 950.970398
-1156.025879 391.014099 897.681885
-1182.539795 180.301865 937.144592
-1082.290405 280.462830 1223.388428
-541.882019 82.774979 1063.845947
-475.196838 214.751099 1063.342896
-1071.430908 315.968140 815.971375
-717.026123 121.310471 958.237366
-1166.643799 351.805908 911.714233
-1242.225708 134.101089 790.717529
-1189.047729 362.317291 736.237549
-530.205688 -9.603966 1045.797485
-1055.139648 390.830444 1318.287842
-1073.771118 556.507813 1044.572510
-823.188232 87.639343 689.828125
-1160.660645 413.950775 840.498352
-771.917419 162.155457 704.375244
-1056.956421 513.771484 1013.015564
-557.476440 112.822220 1069.901001
-1136.815552 492.784210 846.176819
-1094.180420 498.495178 1035.186401
-1069.099609 366.132721 1030.764648
-429.502075 71.960648 1045.841675
-557.687317 86.834572 1047.495361
-1069.614136 359.619080 1144.037354
-1167.171753 421.846588 869.831482
-693.234802 262.281158 796.732178
-1212.579590 228.647293 915.729492
-1054.921509 501.194153 1008.147644
-332.279846 42.868500 1049.583374
-1128.714600 328.147491 981.966064
-1184.713745 350.420654 732.370422
-405.807739 31.719900 1042.421997
-743.805054 227.087494 711.541260
-1046.204346 393.726776 1350.885498
-1159.572021 368.918793 839.725769
-374.920868 -30.798819 1040.393311
-803.524231 73.120941 703.849792
-1234.216919 59.948822 843.125488
-684.678650 311.440674 795.237305
-531.893677 145.893509 1059.321411
-680.949524 271.149841 841.450989
-530.896423 275.219269 1066.799561
-1099.515625 517.858032 985.054138
-378.882294 211.008682 1052.603394
-1110.408691 475.165497 922.588196
-331.141449 54.838299 1046.480469
-1137.509888 452.610107 907.947571
-592.366028 43.227177 1064.277954
-1074.946289 377.423706 1167.462280
-719.428711 218.276596 901.182983
-1189.619751 207.686859 963.026611
-1241.358398 222.427094 758.822327
-410.246887 129.231934 1048.383911
-375.475464 51.670044 1057.385498
-1236.810913 187.113983 752.895630
-740.324097 76.228661 810.036011
-688.978088 154.096207 1072.408081
-1245.055298 51.750210 837.894531
-1097.929565 270.582947 965.277344
-1055.774170 394.871521 1024.418091
-1104.428955 368.600769 1140.745605
-1124.019531 526.134888 916.110962
-1209.643188 168.794388 920.405640
-1173.191406 353.859528 776.235779
-1103.257446 370.064453 1035.289307
-783.472839 104.470345 693.738831
-480.443848 58.514198 1055.149414
-1051.760254 583.694397 1080.209351
-1189.642334 301.459839 772.078491
-700.846069 158.310822 1001.969055
-467.093750 179.071304 1055.902344
-712.372375 273.637695 775.843323
-321.377045 104.978416 1046.431885
-1167.446411 119.739197 1078.747681
-1062.393555 305.629150 1111.275635
-1027.275146 328.673279 1251.851807
-1231.196899 107.792778 867.717651
-502.024750 62.234005 1053.730957
-784.330383 16.630381 781.174255
-814.050598 108.037979 660.778442
-523.384705 159.229568 1051.905640
-1130.593506 340.786133 980.870972
-1133.902466 152.192245 1159.053101
-409.637756 201.444000 1055.959351
-384.382019 118.814369 1056.035889
-1240.106689 91.134651 800.302612
-1067.291016 421.956482 1033.618042
-720.018921 201.624969 806.680725
-535.358582 190.757950 1074.832153
-782.181030 38.143654 867.930542
-746.512085 136.130768 766.021423
-1166.827271 383.111389 936.569885
-804.532715 86.360893 667.961304
-747.590759 76.473412 791.458069
-452.506134 152.645996 1056.579590
-1160.246826 153.348236 1046.953125
-1042.225220 400.500824 1356.779175
-593.544434 -34.551853 1038.016235
-674.756958 276.530273 863.551453
-1023.111877 478.246277 968.418091
-513.564636 144.511276 1059.615723
-457.413879 168.927139 1056.107056
-488.435211 79.566154 1053.294922
-1104.169067 467.805634 949.153137
-1127.329224 452.010437 945.524780
-1070.340942 556.380249 1020.247559
-1092.121460 406.593079 1042.348511
-765.552124 172.046539 699.763000
-758.717407 44.810371 851.879517
-1218.533936 275.179321 756.044312
-1140.366211 457.414917 797.239136
-1155.713013 481.124084 805.152283
-518.345459 227.077301 1066.277954
-1188.593018 263.657379 802.607727
-352.811401 -82.236549 1075.863403
-1202.744263 175.726364 934.038513
-796.004822 71.225784 716.016785
-725.223816 19.279144 973.139160
-345.855957 176.103226 1058.156982
-352.882355 10.049071 1057.510376
-508.871796 178.630615 1061.159058
-1198.304565 63.813015 875.396240
-332.240784 14.725575 1046.905518
-755.871765 291.802887 709.061829
-1111.172852 461.344055 1003.545837
-1142.542114 429.843353 911.373230
-370.850952 236.927872 1050.722778
-1094.480347 484.004272 1048.845947
-442.078796 173.353470 1046.814697
-488.148712 42.674576 1053.600952
-1191.319824 83.490677 1013.262573
-1036.948853 396.196075 1339.221680
-616.898254 -115.214386 780.649658
-696.931152 244.766708 807.910583
-729.016052 187.414307 775.764465
-1223.481201 229.510559 766.732788
-1167.252075 375.496246 781.663452
-1062.907471 599.281616 1021.804382
-376.016724 20.921438 1047.261719
-1111.840698 201.392349 1051.636841
-699.012878 177.903732 874.687378
-726.297424 281.511993 759.411743
-543.340271 -129.484299 1043.819946
-739.811401 57.739269 950.726379
-567.184082 -49.409721 1031.593750
-1221.251953 124.691353 851.835449
-696.534363 185.933853 1068.370483
-435.639679 -59.536182 1044.993652
-344.902832 70.954712 1050.036987
-1067.314453 310.238464 1226.717163
-702.763977 240.683594 865.831177
-499.693024 -9.130069 1039.918945
-724.627319 83.813583 886.302917
-1203.693359 57.827400 936.341736
-1177.303833 403.918732 694.486633
-706.602051 188.245941 899.546265
-444.137268 212.470535 1065.811768
-763.960449 114.160179 736.602966
-1218.801147 234.768738 899.836670
-303.527008 -7.938773 1053.728027
-432.046509 193.628021 1052.793579
-1143.230835 119.543427 912.752319
-1106.981445 497.508240 899.279358
-1074.820679 389.762512 1208.898071
-373.999268 73.052185 1045.536499
-746.736389 253.402618 676.459473
-1140.242920 495.520752 852.300110
-707.346008 327.296143 765.482239
-1223.071777 104.299896 871.635315
-709.537109 160.309631 1053.798584
-650.083435 287.327393 1001.289551
-1193.346802 68.773140 1114.914429
-701.697021 225.421219 926.981323
-1122.211060 490.052734 835.374817
-671.223633 320.440979 864.468872
-707.664307 275.641357 811.940918
-782.711731 26.124289 775.717834
-601.050659 -119.889992 780.946228
-719.335388 169.990860 946.862793
-483.155548 -55.981247 1046.560547
-1200.491333 290.790009 775.510803
-359.749054 23.899694 1050.315063
-334.346405 -10.725155 1045.335449
-1194.725586 219.851181 848.348267
-1204.802124 206.692596 888.338989
-432.622772 54.545616 1046.477051
-680.091736 344.225403 869.681458
-1215.076782 343.402802 687.441467
-1210.552856 157.946640 935.403992
-746.185669 190.820450 756.652161
-787.882813 34.011459 745.635315
-785.718384 19.086306 705.281494
-697.775330 179.510223 958.477356
-538.064270 217.888474 1057.572876
-1047.684326 367.864502 1021.543762
-1101.837402 302.530975 868.870178
-468.729858 239.058746 1060.184448
-1213.649170 258.194641 772.512878
-418.334900 128.185272 1054.481323
-1165.753296 152.024796 1124.846313
-690.545288 312.921875 797.002197
-378.758301 188.852188 1044.491211
-1149.507446 349.112305 830.144958
-703.797363 88.773308 1061.797119
-1233.935059 130.621262 851.053833
-752.016663 -7.351555 1013.087585
-574.892151 63.678997 1043.474731
-765.585876 113.886444 740.108826
-1198.702026 244.914612 875.724060
-1158.427246 451.327087 853.344849
-412.892456 179.640045 1061.973022
-1110.233032 457.895203 938.027466
-1227.328369 165.279083 845.801758
-1150.397217 432.658051 814.596619
-1197.978882 63.131393 908.373657
-481.672485 -2.561501 1053.394531
-1193.973633 310.737701 764.594604
-1122.448364 147.659119 963.235352
-495.094177 160.875778 1059.183105
-660.065063 193.836761 1073.869263
-514.526917 -28.001486 1046.231934
-1092.131104 224.039627 974.207703
-694.243469 312.991699 844.935608
-1084.124268 509.081879 987.989014
-1156.347900 425.532471 907.075500
-1233.152100 174.743851 785.831360
-1226.278564 120.691849 939.857788
-765.903503 111.749298 831.247192
-1167.864380 298.796021 863.391418
-383.711731 -65.485405 1037.476318
-379.447266 51.842705 1043.230713
-392.014221 0.784594 1063.501953
-1163.246948 400.086578 855.219788
-738.255371 170.211807 770.087341
-755.427124 101.098259 781.126221
-1214.027466 304.814575 803.962036
-571.625854 30.891861 1060.385742
-544.960205 28.705921 1061.016113
-308.215149 76.981529 1050.122681
-670.810547 351.833954 898.340332
-496.059113 103.455093 1056.398315
-1097.919067 382.063049 1185.102783
-1046.017334 325.617676 1338.993286
-1155.160400 456.530060 868.908813
-1191.789917 108.205345 1181.534668
-579.519836 -51.869099 1036.177612
-350.963928 -1.917613 1059.057617
-726.193481 281.571625 748.387146
-503.585754 -9.012846 1049.429321
-1076.895386 349.220978 1161.072876
-319.413849 131.164124 1053.669189
-344.375793 111.287659 1049.736084
-1214.345703 275.038971 755.144165
-603.512695 -0.794713 1052.418457
-456.537018 159.168228 1046.348145
-1187.628174 428.966644 764.237061
-334.871674 106.778801 1067.749756
-727.255005 147.781876 776.252808
-1184.528687 65.486580 859.096619
-732.229675 35.966587 923.433838
-1197.577393 283.048859 756.611938
-1082.079102 246.457016 1386.692871
-645.921082 392.710571 878.129700
-1183.135864 406.112671 767.301880
-688.226868 322.278717 822.317139
-782.773254 -4.750661 770.176758
-1053.354736 489.655212 1007.172668
-1052.647461 357.996185 1438.790283
-1108.100586 484.527252 912.010925
-775.168701 129.149246 685.463501
-353.093048 69.868935 1043.808960
-794.596924 221.855133 684.897400
-778.029602 216.887222 672.800354
-1098.802856 366.907806 1175.874146
-1206.785767 336.468292 745.986511
-565.825073 161.656784 1073.397583
-1158.555420 405.768555 830.176086
-1210.075684 265.439819 718.867188
-678.012817 242.346512 927.253235
-744.835388 155.576157 842.259338
-427.186371 -27.532778 1051.319580
-1093.723633 328.902222 1204.507935
-1146.249268 263.851959 946.739380
-521.989136 -45.561306 1038.428345
-454.104980 175.557770 1051.074707
-1137.534424 522.800842 854.382446
-1179.094482 419.256927 741.173218
-763.249084 40.816200 814.795349
-1040.491089 316.920288 1366.574951
-732.560730 152.541275 805.802002
-561.920654 -56.202923 1030.608521
-1231.406982 73.125488 844.781494
-740.397949 158.918594 765.241516
-1105.618408 318.739929 1177.315918
-683.624390 181.748337 1042.043457
-730.215332 117.221252 818.113525
-742.868530 22.801712 989.819702
-1126.006470 435.485840 896.957397
-1113.298096 450.768921 979.473206
-423.413300 202.967850 1052.985107
-680.794617 323.456299 819.973694
-710.330139 206.033295 841.396362
-1123.935791 403.398285 947.948486
-724.568726 126.777611 835.174805
-1058.612305 221.009277 1406.861572
-561.972168 83.517540 1065.772217
-1256.223145 24.263657 878.946167
-703.554199 278.581818 838.853394
-1165.087036 471.905273 776.580322
-658.699036 314.421326 892.771362
-369.400208 1.178679 1058.740112
-440.911560 -9.565770 1053.770508
-1131.369751 304.258148 1132.729614
-420.402985 -36.333233 1049.468140
-791.903625 12.334699 830.358704
-1107.411011 350.392212 1063.897583
-763.713318 117.872253 741.480774
-1213.911011 41.592850 1063.714233
-702.351929 201.971405 892.332275
-681.038391 271.160278 887.928284
-546.924805 -50.401894 1044.251587
-364.070221 -72.791855 1051.600830
-733.545044 221.811935 797.454468
-699.462097 276.148529 832.950623
-775.192322 236.051666 668.180847
-1057.546143 606.132385 1031.966553
-372.089386 -4.283687 1041.022949
-1220.945190 216.095596 873.792419
-1147.787231 335.618927 961.836914
-1074.347168 155.104141 914.191223
-741.001831 46.018318 1020.183655
-434.839203 129.153931 1054.242554
-558.569092 -52.735378 1031.943848
-1090.182739 468.611969 1033.328247
-715.821777 359.065460 770.840149
-530.296143 -2.685313 1052.526733
-596.841492 125.350235 1053.771240
-1211.196045 250.755722 819.503784
-1130.689941 503.796021 844.863037
-347.093506 153.669617 1043.077515
-1202.199951 37.572781 1045.967407
-686.922058 161.697968 985.165039
-639.505249 358.737549 903.006348
-1167.306152 295.970245 907.047913
-1147.510864 454.108948 837.346619
-734.039612 103.358231 970.767334
-1210.858032 82.991638 854.742432
-716.690308 308.393311 762.991516
-556.622314 -5.497931 1046.745728
-1156.811157 409.530304 926.559021
-482.016541 159.622345 1056.130859
-500.372772 42.866245 1052.614502
-814.859314 100.771141 680.062622
-1175.564819 290.337646 798.050110
-1233.880493 267.140930 760.202942
-1159.456909 426.458893 886.727722
-476.608551 100.932114 1046.566528
-736.290039 69.560120 842.777527
-739.479309 46.399185 991.025146
-345.329254 89.101654 1049.249512
-1025.913452 258.399261 992.389954
-282.469086 49.173874 1058.408691
-1067.849976 601.355469 983.744202
-697.036438 357.023499 762.633667
-767.404236 -25.947618 960.310425
-676.781799 249.823563 944.261780
-811.026733 122.564575 687.141846
-650.121033 320.839935 909.000427
-686.897278 193.343246 917.284241
-1065.821411 343.749512 1014.420288
-1166.362427 372.020477 955.068359
-1043.965576 431.737335 1023.680481
-430.302917 -62.191586 1042.400635
-792.488525 229.264725 668.623108
-1071.109863 379.499542 1201.532715
-738.551880 107.335785 775.627380
-751.352295 134.619034 748.358093
-1211.258667 159.775711 900.281921
-683.677917 364.188904 829.452148
-654.629089 289.564423 1062.014404
-1202.064819 278.685913 831.728577
-1155.286011 389.317352 833.872192
-708.553101 222.843597 950.563843
-403.761108 255.660858 1043.759766
-791.063843 180.605408 672.518127
-1060.620117 431.561798 1111.001465
-1074.407471 477.674408 1007.137695
-728.400269 239.563034 816.268311
-771.715149 56.133274 836.256226
-721.166626 202.736160 753.401672
-761.908936 359.962494 733.529480
-611.103516 76.946152 1072.964478
-1216.615601 108.636482 906.941650
-1160.461182 418.087891 772.314087
-754.081421 202.067856 693.554871
-517.276794 245.655426 1053.923462
-1135.478149 347.723053 1043.993652
-1076.616699 161.837357 906.539429
-1139.641846 508.803711 874.733398
-506.994568 -63.621281 1041.316406
-1198.242554 352.406006 720.480164
-682.430725 319.545258 876.362549
-1125.282593 424.231171 1017.423096
-1096.100708 517.164795 973.407349
-1145.186035 131.903366 946.131470
-1151.603638 396.665985 947.181763
-459.692657 245.392838 1060.734009
-1174.581543 293.878845 844.067200
-801.061096 -4.822503 743.061951
-330.321716 132.222916 1053.774536
-1097.625122 359.678406 1185.649048
-950.708374 231.022614 887.623962
-1135.942505 445.546967 913.385376
-1047.634766 403.507324 1022.044312
-417.705566 10.773742 1038.289551
-1064.988525 425.361237 1013.822571
-657.456787 346.670746 901.144287
-809.531616 151.753494 660.536499
-1246.435303 90.521103 841.833862
-598.301453 337.781738 952.752869
-737.017944 209.688492 800.069519
-1139.807251 521.522827 834.748840
-526.469788 67.212471 1043.449707
-1134.836304 356.130219 1021.440674
-499.112213 197.479858 1064.416382
-1064.575806 547.508850 1032.792480
-1224.255493 255.601334 756.978821
-343.944336 160.962570 1057.988403
-1134.381226 456.427856 838.719421
-711.345642 237.599274 759.223816
-1201.687500 129.032166 901.571594
-681.464966 381.523895 825.962769
-498.296600 145.584503 1063.761353
-1243.910034 47.501549 817.187622
-479.658325 43.862282 1040.848999
-462.535736 -12.459254 1041.084351
-1136.384155 458.562256 930.342896
-423.897919 118.091827 1053.052734
-573.737427 179.286713 1077.853394
-1041.847290 568.854553 993.642883
-1132.234009 316.355927 983.012390
-1114.336304 440.246521 1004.132874
-1191.322388 338.994873 708.659241
-1196.211548 370.213928 712.701172
-1186.403198 374.879333 724.207642
-316.145386 47.440102 1049.143555
-1179.897827 230.416031 977.211670
-695.150574 195.163681 1059.690674
-1220.352905 179.531311 872.289978
-716.148682 232.053680 843.636719
-416.909393 -61.363483 1037.194214
-366.680817 105.411156 1049.502075
-545.898193 242.719376 1094.126953
-562.968018 11.243057 1040.906616
-479.943970 260.462219 1060.803223
-1223.368652 217.641342 859.633911
-748.887756 154.440277 737.645203
-406.736023 127.627266 1051.991333
-467.938080 374.391083 817.821594
-1203.662354 64.014038 925.973145
-1206.174561 177.168747 855.783569
-766.770996 121.283951 715.335449
-752.991333 189.112473 774.819275
-1240.393799 141.890411 811.506653
-475.860687 159.967575 1056.781128
-716.709900 376.381195 774.710754
-505.133484 35.248920 1052.147339
-1145.941650 323.476440 747.172791
-437.330444 150.686829 1052.514771
-1192.538330 346.852325 757.904236
-764.580139 243.298920 678.867004
-1116.052246 272.126007 922.569336
-448.141144 5.266776 1051.388428
-1215.336914 169.295441 894.227783
-410.188782 65.562851 1051.124390
-1205.091064 205.724731 899.975098
-1139.231934 347.023865 1023.400574
-737.407471 154.257629 882.260559
-1228.709961 138.329529 808.985840
-728.883118 263.397552 718.808777
-1226.805908 131.399353 904.431763
-1167.038818 332.328033 841.832642
-667.357849 193.286484 1040.296875
-1122.394897 261.887482 931.284058
-1042.896362 552.823669 1086.265869
-747.070496 165.066788 751.470154
-386.380402 -95.318130 1058.141602
-614.084656 59.657074 1064.023438
-733.652405 -99.434364 765.498535
-525.592957 266.170227 1063.446045
-1084.396118 390.327606 1069.763062
-793.424866 35.224281 735.672119
-424.700409 167.112686 1045.922119
-1142.286255 171.115219 1128.172363
-1140.266968 480.868958 908.323364
-1050.667847 430.175262 983.332520
-513.634705 5.655907 1041.846802
-700.009460 150.985214 983.909180
-1161.506226 342.830475 973.339172
-361.106628 -4.425335 1055.524414
-472.240631 209.987930 1066.208984
-510.390076 -104.079964 1032.851929
-729.552490 252.328293 724.164307
-1181.142212 408.812012 732.791199
-1171.443848 379.360138 881.793518
-391.094116 -96.059517 1045.225586
-730.435669 105.696594 925.451965
-757.544617 163.658371 713.475281
-1208.934692 315.159729 718.978333
-331.614899 0.720908 1054.328735
-497.799164 231.046494 1051.968506
-1050.749512 410.542084 1310.161255
-1073.484009 337.648071 1217.669800
-1112.310669 476.026215 993.084045
-1153.911255 394.044495 965.759460
-712.125916 365.645050 745.246704
-1165.986206 461.003326 811.150085
-752.422058 256.196075 698.517334
-518.944336 198.201431 1067.230713
-1143.285156 332.241821 993.801147
-1149.991821 456.828247 895.122864
-760.214661 189.685837 712.057434
-1044.481812 266.220398 836.362915
-1113.182739 478.979919 975.094360
-563.757446 56.582119 1063.362427
-1178.407593 285.251953 845.210999
-724.307861 228.337265 786.935974
-1214.568481 316.040588 787.700684
-713.699768 175.839005 816.053955
-409.512421 189.899750 1045.802856
-679.072510 355.160431 848.515137
-1184.495483 393.421417 723.606018
-692.113953 191.012146 942.768860
-1092.664795 375.356995 1016.070557
-615.609680 17.436792 1044.718140
-754.856201 203.278992 698.321228
-671.693298 359.280670 836.764893
-1215.086426 71.948837 893.530701
-746.104004 91.713127 804.902893
-793.485962 137.867310 684.941284
-1163.049194 338.358307 774.003113
-1193.177246 146.159088 992.013916
-1066.960693 559.584290 977.750854
-740.938965 174.413605 748.360901
-1140.812622 486.664917 865.184082
-1121.856079 221.752167 984.120728
-680.704529 282.430420 877.559082
-1189.136230 337.492645 757.746155
-1153.151611 452.831970 812.066772
-745.174438 352.702209 714.471130
-1243.075806 155.457748 831.168213
-1137.738159 340.112061 819.096497
-1209.862793 307.105286 749.826538
-1233.038208 201.592880 766.604919
-1033.585571 486.690857 1069.553833
-1239.613770 213.604279 779.727356
-790.803162 41.684093 699.389954
-1213.589111 154.733612 911.209412
-763.859497 91.291145 769.203918
-544.614929 -44.980423 1042.971191
-367.838654 35.428795 1055.663330
-337.206055 118.557838 1065.312012
-1110.681885 165.529373 973.680847
-1164.376709 79.675621 935.323425
-583.131836 153.982010 1062.987671
-1241.962402 131.986176 800.817993
-1153.300171 374.467712 922.515991
-743.344543 166.120361 753.658325
-1133.727051 168.984253 1064.837891
-732.109375 234.336395 723.409485
-1051.886475 582.863281 994.423218
-756.651123 329.229706 702.095642
-687.920288 282.785522 882.357727
-1198.646729 68.541321 954.972107
-1186.307251 88.584564 1115.694214
-713.605408 325.031830 771.780640
-1021.301331 299.713593 992.140015
-1229.113647 193.729263 807.875183
-1238.441772 140.869125 881.813416
-1194.468750 179.824692 900.310059
-466.390869 -81.582047 1031.438477
-1157.749512 380.962799 907.690430
-1178.063232 385.582458 758.433167
-648.065491 332.538361 986.477539
-1116.441406 231.092606 995.722839
-464.696503 33.424484 1046.460693
-431.921326 146.584854 1052.160889
-1139.161621 461.806366 931.647339
-788.663574 -1.945951 711.826111
-717.073608 147.287735 846.607849
-563.918274 -43.641136 1047.977661
-1109.819092 503.091980 968.564880
-1174.340820 304.376465 787.543030
-1199.338013 262.320557 845.718811
-390.353302 -45.499668 1037.750977
-541.491272 68.801636 1066.632446
-759.009888 13.629614 953.870117
-683.920654 190.098969 1008.235596
-583.919617 105.888611 1047.370605
-397.329407 136.131226 1048.157715
-1223.552246 210.265930 858.108948
-761.491211 181.787399 702.582397
-732.320984 267.486115 726.423706
-332.930237 171.368683 1064.430176
-1178.208862 235.903229 964.387756
-1075.062378 327.875183 1219.669434
-797.843933 121.479507 701.875366
-1142.991699 472.971344 842.498413
-794.166443 195.149124 687.458252
-438.761749 38.011414 1039.662231
-779.913025 186.395432 681.921692
-702.098877 90.756744 995.745667
-515.925659 91.917747 1046.041260
-1229.797485 105.896278 899.514038
-509.984772 -71.303680 1037.492310
-759.795288 235.152771 693.428772
-837.101196 84.854836 668.871704
-1169.307861 301.742157 796.042664
-500.965332 233.344772 1059.578369
-611.070740 -70.188225 1038.435303
-482.453400 75.656685 1052.566650
-1199.009399 83.669380 1060.773804
-1163.589111 423.594635 752.459961
-1060.093750 590.395752 996.452759
-652.138000 341.695862 991.424011
-1141.772949 442.992889 894.928650
-482.664612 102.573624 1059.705933
-680.459778 332.756927 813.251038
-377.257202 111.683815 1063.495239
-737.069702 84.011932 932.999329
-763.874146 57.018333 796.867981
-741.735107 353.511841 742.987549
-770.757324 -19.004465 918.087646
-451.385895 362.282776 840.453613
-1180.287598 428.716278 729.761719
-304.722229 45.535641 1065.765991
-1188.513428 377.654602 745.652161
-1190.350586 165.394287 943.406921
-509.277527 29.945768 1062.024658
-791.964600 152.851807 664.437988
-715.393921 90.536758 992.573242
-1220.855957 283.203949 735.484863
-782.566895 206.595200 680.064819
-1143.377319 173.762436 1037.010864
-1110.515259 358.477051 1052.740601
-1145.955688 174.363739 1097.574585
-1215.233887 260.581818 769.276062
-712.516663 239.819595 801.986694
-708.552551 359.199310 777.172913
-1142.710083 396.166595 950.894592
-1200.125610 50.224712 1094.426147
-1074.269775 565.714172 1023.737732
-661.703918 298.520355 986.426880
-1090.117310 489.908142 1020.726135
-754.285889 241.587616 688.510071
-1200.007324 264.390411 893.930481
-724.854004 120.301086 985.872437
-1154.019775 378.258026 909.385010
-493.319183 241.203110 1059.132202
-1101.342773 438.369629 1000.984375
-1125.265137 472.347931 952.839050
-445.157074 190.831802 1062.630493
-431.729645 35.636459 1056.099731
-1182.277466 400.910187 727.454041
-1139.705811 469.164093 895.504944
-412.607300 259.123322 1045.646240
-1251.347412 65.643982 878.740662
-455.499573 245.780167 1042.786255
-787.324402 196.592239 674.936279
-1094.412598 321.958588 775.377808
-722.037048 116.343124 847.785034
-518.558472 54.321354 1042.431519
-1124.991333 342.109009 1036.978760
-1230.001099 230.306137 830.038025
-1232.148438 169.408661 797.419312
-1106.532593 493.451904 966.976746
-570.053162 114.960167 1051.885010
-1118.807983 361.046143 1039.354492
-492.403046 -110.469513 1030.779419
-700.234680 214.682846 956.174866
-1115.366699 518.746399 911.570740
-624.971802 -39.862255 1042.244263
-764.129395 196.749802 661.963318
-794.011536 181.873276 688.938660
-1145.761597 292.009064 940.968384
-1105.408691 506.368896 907.919067
-736.587646 88.475487 916.135559
-388.886292 150.999435 1047.709961
-1093.623779 340.177155 1165.669312
-1120.895264 204.352707 1007.588806
-781.343384 22.257946 764.310913
-493.744720 194.418610 1065.301025
-1087.246460 407.652100 1045.647095
-738.868774 110.774811 851.052063
-362.294159 11.015905 1044.158569
-474.489777 93.780312 1053.298584
-1204.323975 252.720078 907.901367
-1207.321045 358.277924 683.438843
-711.536987 273.631073 774.027222
-615.501709 385.021912 857.696594
-746.740479 197.468796 720.560608
-1206.324829 200.614288 887.134705
-593.731262 -64.586990 1039.169067
-780.167542 172.044769 705.510742
-408.815674 -44.159512 1032.773560
-1173.930420 426.017059 758.493713
-1133.211914 468.257324 945.489868
-1198.625488 356.297119 708.340698
-749.008118 67.468361 797.296570
-1167.791992 378.098175 862.561157
-1212.094727 235.399902 824.476746
-595.083374 72.574867 1072.077271
-1074.890015 306.632019 1151.955933
-1141.015869 339.834076 781.682678
-1117.806274 395.990967 991.791260
-394.931213 175.542740 1054.539673
-733.891052 355.704712 739.787537
-388.809509 -90.379349 1041.724854
-1184.834717 170.611847 937.252136
-746.390686 351.632080 725.192261
-802.744995 16.222712 721.177307
-1049.522217 423.589691 1030.674316
-740.871155 -0.276646 1004.981628
-812.178833 89.188683 693.371338
-605.322449 -30.324553 1041.515137
-490.800964 -75.581764 1033.811523
-389.926727 7.949286 1051.953247
-1111.272339 333.126831 800.787048
-770.590576 98.421753 738.506653
-679.981567 207.975922 956.536438
-500.154358 209.605774 1066.513184
-829.042419 96.380173 660.753052
-804.226685 74.635117 715.014221
-1210.440186 164.881836 967.750305
-1061.233398 399.542572 1232.838623
-749.351074 245.823441 697.432068
-427.231476 -36.411705 1041.186890
-1112.260498 468.904816 973.080322
-1201.484131 311.357086 771.636597
-1164.132446 369.791626 866.232117
-680.824219 136.014725 1024.420898
-753.518311 52.827457 776.731934
-487.934235 -1.196279 1061.549927
-741.130005 125.131058 830.405640
-712.691223 126.516563 900.456970
-751.013977 45.004955 910.750305
-1123.381836 471.164124 937.492920
-730.398682 294.159821 753.159485
-1207.976685 119.682167 950.356323
-727.255981 145.844635 918.019470
-359.217804 12.622358 1045.509766
-1079.120728 263.911743 899.733276
-1049.183228 589.422058 1073.708008
-810.728210 27.340086 769.851196
-664.678345 298.402130 965.586304
-677.594727 190.302094 1058.098877
-682.969360 168.441605 997.682556
-705.431091 116.704536 1053.499390
-717.090637 9.112455 1021.038086
-451.892548 248.236877 1056.501587
-428.113678 -73.559372 1031.982056
-688.120239 209.078323 1032.804932
-737.957703 130.579132 956.887695
-696.733276 364.075714 771.020630
-1119.329468 354.362061 981.282349
-774.528931 193.951553 706.079834
-1005.624817 302.535858 1293.758057
-1168.117432 100.695404 899.152405
-532.671631 208.112198 1062.195557
-699.024780 258.467896 882.028625
-792.471130 65.737556 721.990906
-516.501892 118.048218 1055.503540
-732.439880 10.847182 949.223999
-1106.293701 534.458435 964.881226
-1105.676392 209.820511 964.830811
-1138.784546 509.046997 849.156128
-654.351013 359.033386 915.016968
-336.957184 32.655590 1041.685059
-362.863647 180.276825 1048.653076
-702.617615 354.156708 798.729980
-1125.582153 521.086792 921.059998
-1106.130127 515.444763 891.809265
-672.796692 331.315887 861.885193
-1133.349976 480.706482 933.951172
-772.150024 278.928741 687.869629
-1195.521973 217.584518 907.404480
-1026.402954 395.052032 1432.433105
-423.263062 -32.124928 1050.721802
-1052.024658 374.628357 1242.810913
-762.998535 115.331284 782.821350
-707.961975 233.777985 828.560303
-779.390076 188.999603 679.332336
-1161.494873 464.626709 801.149902
-1229.499512 206.228165 871.231018
-753.206543 83.194557 744.935913
-1159.727661 215.008530 1010.540955
-1221.455200 53.026543 902.558960
-1093.738525 554.799194 974.237915
-699.078003 248.651550 825.461487
-1225.052246 235.935989 763.411255
-301.556885 127.540993 1060.395630
-1210.840942 119.074509 914.007813
-1072.093506 582.546448 979.344055
-1148.963379 490.274628 845.105957
-1076.433228 406.158173 1154.354004
-718.616333 326.094269 744.713806
-718.417908 84.023972 1003.356934
-1211.289673 147.080307 916.350342
-515.659729 381.696747 789.354004
-1092.365479 394.309052 1010.762878
-785.087402 -14.607618 819.312073
-1116.750000 455.739655 1010.836731
-1174.562866 463.176239 784.062622
-475.308533 136.783646 1054.248169
-658.401733 275.918365 996.826843
-787.398743 159.758408 681.142822
-376.647644 -31.520658 1040.894531
-814.506409 102.002472 676.618286
-747.798401 227.027390 710.289185
-1173.056763 221.388687 1005.809814
-1139.285522 445.981232 899.041931
-1211.661499 229.950577 844.810974
-399.346222 50.230873 1043.503052
-1126.345581 303.144348 1008.780457
-716.827576 75.655418 942.215637
-555.345764 -107.356697 1042.710205
-750.538452 264.396240 705.214905
-542.526733 -54.607811 1044.779785
-729.929565 126.847733 951.601135
-529.005310 94.705811 1067.376099
-675.125916 318.112610 839.401367
-672.525818 182.624237 1049.545288
-536.792053 89.394165 1047.056641
-1034.280396 399.159271 1329.601563
-437.314575 131.037674 1052.161865
-1072.374634 619.736023 1009.929565
-418.381744 346.148346 936.150574
-772.107300 -17.079498 779.220337
-747.375427 346.985718 710.336243
-1050.316040 218.769394 979.089111
-1067.912354 411.376831 1044.697021
-756.277100 27.002686 1032.584106
-373.098846 227.032623 1059.649902
-483.704773 240.479538 1063.646240
-558.228760 85.919617 1073.392944
-388.738190 32.400181 1051.625122
-692.179871 254.638672 872.022888
-1204.173096 282.559601 774.711304
-404.887665 -52.914494 1033.543579
-1053.670532 604.465576 1013.802551
-775.512207 149.336334 733.792175
-614.615417 48.554325 1071.092651
-509.262146 -62.082283 1029.286255
-1126.601074 500.402313 815.756531
-788.540039 -12.045489 780.809509
-701.473022 360.416687 755.698608
-1169.201904 63.983624 1013.130310
-304.704437 -19.849924 1054.770142
-783.645386 28.909281 739.445435
-471.583374 18.351460 1054.812744
-670.877319 194.877701 1020.636108
-566.909973 165.915192 1064.568970
-1122.678345 401.017426 985.836548
-316.424774 0.669415 1053.317017
-344.567505 22.322998 1072.322632
-778.589783 267.197601 695.320068
-716.355530 134.392441 924.825989
-1099.575073 510.961792 994.997620
-1057.039429 273.864929 858.881470
-696.521606 234.382843 819.487549
-1158.578003 303.867218 922.761475
-683.311218 273.377289 831.123535
-1207.617554 294.132660 815.811218
-499.039124 187.928894 1058.992920
-1171.667603 75.353806 909.758057
-534.657104 73.455307 1056.454712
-686.040527 -126.307144 783.360352
-1214.366211 205.050751 912.575928
-1162.491699 425.666046 765.020386
-1073.428467 457.844849 1041.561157
-724.251099 95.888741 994.611938
-758.164185 224.862305 678.980835
-379.121521 117.481453 1045.488892
-1085.318848 267.881561 1033.807373
-1077.419189 331.937347 1211.765503
-1211.114624 309.489655 678.103027
-479.229187 213.972504 1061.827026
-448.504120 69.032562 1065.291016
-1157.852539 470.210144 812.232849
-419.682281 130.033310 1051.565552
-393.098053 -91.336441 1034.878784
-1141.313843 511.252136 863.557922
-688.902710 173.841095 1022.562134
-1221.973022 32.144760 1006.823486
-732.700684 129.982681 829.476563
-1197.772095 252.748047 867.325134
-1081.516113 313.425568 1204.441895
-1141.944092 336.255981 991.601440
-483.461304 -108.277985 1035.967529
-1059.675171 291.273224 1010.454102
-1080.543457 558.679993 960.874634
-1175.230103 374.900574 739.855042
-1156.436035 450.917175 848.002747
-379.321014 -43.649502 1034.891846
-1135.870361 273.710419 983.372192
-1189.637939 288.042145 823.459045
-737.944458 288.213104 730.715637
-1064.519287 539.147583 1014.796570
-1161.984985 357.753510 840.390625
-719.225098 116.982330 925.390808
-466.173737 198.197388 1064.173218
-1135.195435 420.259857 904.558411
-1175.872192 384.260986 887.215454
-1156.164063 358.751373 865.027832
-1235.374268 177.024063 772.962219
-1086.740845 575.771667 981.269714
-721.632263 297.305695 751.220947
-701.216064 185.891968 958.872803
-1118.464111 503.003632 961.132874
-774.265686 189.083542 685.057861
-818.797424 88.694130 659.205750
-613.023376 77.158455 1077.756470
-1233.468994 26.173555 912.714294
-423.907166 -98.226715 1033.445068
-476.338287 238.398743 1059.193848
-1027.095093 362.765259 1280.581299
-1041.535522 550.394348 1091.540894
-1216.100952 304.569855 716.905579
-722.071533 61.874977 1010.096130
-1069.363892 319.386566 1181.191895
-746.055298 154.877655 747.069092
-740.889160 262.727722 705.522400
-730.748047 84.230316 918.377686
-375.161591 77.800621 1054.146729
-488.194458 94.878639 1060.929810
-767.059937 37.134052 808.505066
-500.692383 -63.540344 1034.661255
-567.557800 129.956085 1065.044434
-1114.871948 557.414063 904.358276
-528.071899 225.207794 1066.408081
-747.813599 135.229645 780.908630
-739.080322 226.966827 745.997009
-526.365295 101.544342 1045.927856
-713.368347 246.465302 886.163391
-1201.156494 335.835846 685.384216
-1213.635986 243.749680 796.149597
-1148.875244 448.622803 901.209045
-735.201660 237.354340 724.326721
-1219.684448 217.247437 756.564758
-752.989868 269.330231 688.207031
-584.453674 -30.522863 1041.871094
-825.956604 107.054543 662.902405
-1198.763062 142.256531 956.557007
-1187.720093 385.082916 746.377258
-1158.002441 384.298431 953.831970
-759.087158 206.096069 732.885864
-737.752014 200.471542 830.368713
-698.425293 296.454376 784.753479
-1099.757446 403.003571 1041.406982
-1155.250000 108.656364 1141.316406
-375.350006 -31.760864 1039.772949
-1063.997925 527.484985 1023.759705
-1134.085938 445.452789 928.367615
-1128.748779 531.155396 854.032654
-818.282898 87.282478 673.409424
-1208.049072 116.574478 907.944397
-495.264404 72.569839 1052.989380
-1053.449585 595.245728 1004.250977
-445.750946 124.102455 1048.204590
-355.181366 190.347244 1060.807861
-775.672974 12.229691 812.792358
-311.766602 86.103996 1068.407837
-360.437561 -64.175407 1049.776733
-717.019104 222.207916 760.850403
-1116.233765 507.882660 853.189941
-489.866364 161.204956 1051.599121
-728.327087 -104.112381 771.245605
-1185.377075 141.458237 938.398621
-1085.022339 294.379578 836.321899
