ply
format ascii 1.0
element vertex 1348
property float x
property float y
property float z
end_header
-188.531876 -704.547424 891.951599
-285.921295 -672.960815 952.914490
-481.540161 -190.048187 1434.793579
-182.260071 -280.923370 1087.321533
-701.956787 -123.101379 1257.008545
-232.765945 -765.870605 793.163452
-373.930328 -475.369751 1021.651917
-442.698090 -387.858154 920.367981
-765.658630 -356.526062 1272.555420
-502.702515 -382.911316 1303.416504
7.567579 -664.921265 887.268677
-312.847656 -585.227539 1049.796509
-610.113342 -84.801003 1326.727295
-347.018219 -666.735291 1638.338989
-234.989014 -330.443756 1044.807983
-214.103745 -438.258209 1089.647705
-206.636902 -663.141907 966.537109
3.365313 -634.160217 963.724548
-504.005829 -364.994720 855.363342
-618.527771 -243.477646 1338.178223
-111.613213 -763.777893 813.340210
-413.717529 -253.941116 1503.030273
-184.886139 -347.286865 1086.478516
-224.335236 -368.863617 1078.050171
-420.711548 -516.613525 1542.114014
-617.702148 -213.701843 1310.321899
-49.108425 -698.898987 856.505005
-546.361206 -173.961487 1383.719849
-232.749924 -389.171143 1048.967651
-460.998627 -428.750854 893.583374
-485.233521 -556.733582 948.542419
-212.297195 -729.899353 832.295837
-514.141418 -192.065445 1419.447632
-351.310638 -298.132111 943.499146
-261.732788 -693.967957 927.258423
-697.444824 -219.628372 1267.719971
-275.098206 -727.829346 848.148560
-56.888130 -701.677307 855.051758
-686.378174 -267.516205 1288.854004
-481.377075 -260.846313 1459.906128
-527.081787 -82.400749 1352.311890
-359.420258 -255.147079 959.291626
-280.730774 -482.498993 1066.120483
-389.997375 -341.832489 1517.231323
-265.122406 -446.617065 1042.136475
-770.863892 -490.805511 1283.419800
-257.756805 -388.232330 1042.152710
-387.402863 -670.178528 1603.434204
-461.112152 -193.092117 1449.732788
-398.061890 -425.589081 939.855225
-486.625519 -364.912659 1367.375244
-711.581604 -525.373535 1337.502441
-194.264908 -717.614136 850.579590
-375.703094 -298.345062 942.122314
-628.165466 -173.259232 1308.740601
-730.471130 -482.807465 1318.135986
-743.650696 -279.647583 1270.483887
-427.057709 -267.613800 1484.560059
-441.273590 -314.746979 1488.966064
-27.210037 -636.854248 946.661804
-605.830017 -138.613220 1310.187500
-794.479919 -400.551086 1255.248901
-94.009743 -637.786865 971.252380
-608.000305 -226.118011 1332.371582
-366.835083 -182.027863 1513.567627
-179.945297 -333.318359 1107.746948
-440.706696 -249.880386 916.327942
-241.845444 -316.202759 1036.634521
-517.010437 -363.807495 1391.117310
-88.851326 -717.362122 836.630432
-746.278931 -376.636902 1281.645020
-362.635284 -243.685333 949.027710
-288.075165 -694.473938 922.000244
-189.658478 -771.934692 777.319214
-36.819134 -640.374756 923.299622
-639.585632 -433.401764 1342.784790
-594.897827 -67.811188 1312.248047
-306.496368 -506.802643 1031.540405
-413.564178 -326.805634 1468.435059
-484.175232 -202.109268 1437.972778
-493.220032 -400.539764 1335.916260
-171.457031 -639.017151 970.805176
-513.297668 -105.464264 1392.749878
-558.875916 -226.889404 1348.275269
-255.046814 -217.642212 1079.464966
-83.898743 -561.145691 1091.672852
-775.481689 -385.429474 1269.850830
-446.109924 -629.101379 989.936279
-588.085876 -401.073395 1327.162354
-59.645977 -698.757141 861.079468
-284.962891 -750.943542 824.222107
-340.257904 -217.212402 1462.399536
-422.194519 -493.069733 945.282898
-430.475555 -269.277893 901.911560
-195.199692 -688.638000 915.684265
-792.862183 -336.165192 1238.274658
-504.563599 -172.774811 1422.232788
-661.683594 -330.135498 1310.399292
-720.358032 -160.939636 1252.918213
-162.561478 -718.990234 861.791565
-527.841797 -75.574951 1357.248413
-764.635986 -407.290680 1248.908813
-415.552826 -475.046204 1527.238403
-253.094894 -252.135315 1021.683533
-818.735962 -378.866119 1225.877808
-570.354858 -302.652191 1359.218750
-391.234619 -335.336029 940.368042
-556.065308 -58.250504 1330.116577
-547.956726 -60.401951 1362.287964
-261.210510 -439.011536 1059.650757
-571.200439 -195.091461 1328.287720
-748.954407 -347.692535 1252.100830
-312.004364 -256.568604 970.357544
-367.999542 -343.273010 1536.922363
-447.648926 -323.040070 1428.187744
-364.453827 -261.904816 969.209229
-414.470306 -370.316132 1503.832886
-239.008682 -251.626190 1038.040283
-341.653351 -473.401428 1020.142456
-312.361389 -322.377869 1566.370117
-446.470886 -464.119293 937.884033
-111.712944 -601.268616 1038.453613
-76.932487 -598.472717 1020.970764
-774.491821 -300.382477 1247.802490
-403.460968 -515.503052 987.482117
-289.943237 -453.203888 1030.625000
-673.823120 -410.335785 1348.052612
-572.408081 -71.754906 1340.588989
-443.206329 -479.921783 963.271362
-389.365448 -492.596741 1004.289368
-336.929810 -229.198959 1543.834351
-293.516205 -424.162872 1018.527344
-731.330933 -187.322388 1254.657593
-614.074707 -399.734070 1367.986694
-614.765259 -59.600834 1285.728027
-209.774750 -640.150513 980.604675
-565.341858 -98.858665 1333.879150
-544.762268 -224.038132 1414.316406
-269.668427 -676.330811 977.740356
-233.358170 -267.316925 1042.515991
-661.209167 -85.107437 1269.726318
-299.965607 -732.747620 866.099487
-608.763977 -246.367142 1335.540039
-144.486115 -639.657227 991.537598
-488.251373 -99.165802 1401.011963
-384.119141 -290.664520 938.995972
-679.476685 -112.238564 1267.313477
-666.943359 -115.805397 1304.162598
-369.400787 -244.521652 1480.597046
-573.800903 -39.955406 1313.599854
-260.885620 -235.659973 1039.331665
-347.916718 -282.783295 1474.743042
-218.020996 -218.745911 1051.561890
-559.373779 -86.462440 1349.811279
-548.182312 -240.324600 1407.075684
-239.676132 -672.823792 978.812744
-239.448959 -707.598633 885.702698
-342.996429 -284.731598 959.239990
20.353161 -609.139038 962.402710
-681.070923 -162.198456 1302.415039
-150.889206 -661.283020 950.731934
-264.092987 -296.864014 1004.164429
-484.834137 -309.015472 892.464294
-605.922363 -258.190735 1335.330933
-517.675354 -319.191193 1276.037842
-423.873230 -274.690460 1480.331665
-213.953964 -657.299927 951.839905
-513.196533 -295.556885 1429.862427
-314.302002 -691.799683 938.572083
-129.361572 -626.582153 1016.269165
-433.297211 -192.286453 1467.677124
-465.636688 -333.104889 1458.982544
-412.908356 -252.819244 1469.608276
-333.882843 -596.427734 1068.530762
-279.690155 -213.493561 1020.551147
-112.835014 -655.804749 941.303711
-136.876175 -772.262207 782.680969
-4.138588 -674.456116 876.239868
-5.407619 -619.182861 975.100220
-269.588104 -290.709381 1035.809326
-2.776249 -628.648499 931.325134
-809.900879 -313.782776 1211.049438
-216.309784 -362.497955 1054.383057
-226.193146 -521.871216 1105.683472
-624.492126 -152.697830 1293.627930
-422.537415 -163.763107 1480.952515
-74.549263 -574.070435 1100.935669
-711.115723 -611.999512 1404.194214
-178.677216 -667.356262 948.105164
-36.259502 -684.429932 896.919678
-451.250153 -234.750839 1474.080811
-279.194489 -702.001343 922.925354
-22.344372 -612.156067 982.560486
-238.175644 -550.988831 1127.456421
-110.851196 -729.575500 848.592163
-561.998291 -78.734848 1351.391724
-341.921265 -728.830383 877.761780
-573.028625 -166.217102 1382.489990
-593.915466 -36.338707 1321.348145
-72.834587 -569.430603 1067.743164
-271.278503 -497.625092 1053.349121
-607.420898 -87.576836 1322.613159
-431.560120 -120.385277 1464.521118
-480.438690 -519.189209 907.680054
-329.468597 -244.210739 1545.685669
-165.367767 -772.753784 783.657898
-541.765259 -217.976974 1276.539307
-16.376167 -595.853088 1019.379578
-465.676544 -125.000069 1426.484375
-102.141922 -708.688843 887.514160
-282.170593 -320.167816 1007.382690
-516.877686 -315.891205 878.005188
-744.209656 -393.789093 1264.769653
-499.910828 -336.092102 876.091553
-40.065746 -754.189087 810.203064
-470.563171 -295.744568 1466.270996
-428.731506 -202.369781 1470.137573
-67.642494 -620.622375 987.778198
-249.403793 -356.223755 1043.998413
-368.778870 -248.774765 1492.237671
-538.173523 -357.328156 1425.994507
-337.622437 -728.859680 879.501709
-45.168129 -669.778687 888.519897
-478.234222 -330.615295 1436.554932
-502.249603 -450.259705 1497.029785
-209.605042 -730.923340 864.583191
-167.421371 -733.263672 851.060181
-635.637329 -239.727188 1327.923218
-652.474854 -524.405884 1395.453003
-212.436768 -258.601349 1063.416016
-415.234741 -245.766556 1489.660522
-437.296539 -388.240845 916.094421
-18.642725 -653.578430 903.281860
-396.749634 -535.565125 1546.519775
-692.022949 -366.620392 1280.934448
-100.114510 -673.423645 904.683289
-805.197632 -358.685028 1215.499634
-265.954163 -692.799805 1100.907349
-648.957031 -182.299973 1304.653931
-83.499382 -619.078735 972.541504
-481.737396 -299.395782 1456.382202
-467.041443 -368.841797 1336.094116
-579.547791 -97.496979 1319.050171
-527.483276 -224.871872 1413.707275
-391.152252 -171.679276 1503.347656
-473.699860 -148.510300 1414.388916
-785.158752 -273.394684 1238.841675
-310.459442 -341.069519 982.223572
-689.586365 -198.273148 1301.643311
-384.661804 -209.277771 958.619141
-620.897461 -70.816566 1295.052246
-227.023071 -414.278412 1093.016724
-328.305817 -248.353989 1533.074219
-388.304321 -267.062927 928.997437
-737.616943 -205.760025 1236.866455
-155.344757 -649.969360 966.373901
-460.124634 -339.395844 1384.412720
-345.714996 -610.075806 1070.170776
-214.862717 -679.923340 919.273499
-389.004730 -626.572327 1606.582642
-506.458435 -420.623444 883.248596
-472.061584 -469.229065 900.948303
-691.702576 -332.550659 1299.326538
-611.408813 -113.048759 1316.673828
-246.579071 -542.878113 1127.274902
-503.283356 -332.820984 1447.258789
-521.194336 -346.653412 1409.114258
-328.630493 -538.354492 1039.140625
-211.409943 -731.468567 834.597229
-738.594849 -347.119598 1283.768066
-501.325897 -271.217041 1421.540039
-55.483765 -603.327454 1005.280334
-213.610306 -245.406616 1062.387329
-316.444916 -277.738678 977.041809
-96.009224 -633.108948 973.233948
-403.419922 -246.351456 1478.524536
-233.699539 -318.461243 1049.272827
-497.059937 -213.472839 1438.898193
-207.820160 -649.528503 992.861023
-366.613525 -602.726807 1031.738403
-637.272339 -415.925293 1334.479248
-264.082367 -318.686462 1028.906372
-237.443420 -367.215668 1067.521973
-97.337212 -753.845459 803.248352
-735.161133 -343.172424 1305.389160
-749.973450 -244.346451 1253.846069
-231.024750 -699.214050 888.308350
-180.071777 -645.986877 982.649719
-417.612427 -514.800903 977.800293
-96.760735 -598.970276 1082.986572
-314.496613 -379.365112 1002.087036
-431.420776 -354.997894 944.235779
-769.026611 -266.185364 1245.223511
-294.736511 -228.347137 1006.206848
-64.744362 -667.456848 911.216309
-490.516388 -366.441162 886.365540
-130.239487 -751.432434 824.240906
-217.800674 -244.768036 1075.763550
-378.355316 -283.118683 1459.446045
-419.794403 -402.324799 1503.482544
-785.905823 -463.202332 1251.620239
-421.423004 -356.573395 940.675232
-369.343781 -305.229858 1517.847900
-414.828278 -366.105499 911.989563
-209.367874 -660.204956 972.967407
-409.688293 -249.672287 928.892395
-377.755951 -247.924271 1478.211914
-640.896851 -476.136017 1364.478516
-43.775276 -635.888855 957.774841
-343.594666 -552.621155 1053.716187
-216.503464 -704.905212 888.022522
-505.993530 -372.982422 1375.353638
6.364411 -701.011292 849.807739
-645.661133 -373.040833 1358.671143
-518.530518 -152.805817 1410.758057
-526.241760 -306.083496 1411.152832
-503.982147 -409.960052 881.871704
-689.019714 -291.195251 1310.445068
-341.035645 -316.761841 969.662903
-281.481293 -264.726105 1022.844177
-56.008720 -648.780762 922.359741
-161.197952 -752.919739 799.061951
-229.838730 -289.594757 1030.287109
-287.460999 -599.427002 1094.491699
-461.053772 -143.532684 1417.973755
-510.829803 -359.629242 1458.671143
-470.889160 -539.152893 1508.602905
-449.786469 -249.035583 1463.753052
-68.341019 -668.434326 899.187378
-180.870636 -744.674988 802.510193
-667.232727 -303.772797 1336.743286
-189.877914 -662.266479 966.596069
-485.884216 -269.867706 1448.482666
-352.291534 -243.444748 1518.896729
-803.290344 -424.746460 1249.972046
-801.461060 -459.848022 1272.654785
-411.920135 -317.440094 1434.013916
-380.494934 -510.123199 981.221069
-278.821777 -706.510986 900.607910
-359.083771 -229.003265 1514.344727
-715.940125 -217.812943 1255.372192
-485.122681 -89.166634 1400.223877
-160.573807 -659.014709 960.433472
-426.518738 -218.326782 1461.541016
-188.914474 -461.979645 1115.162598
-226.892776 -694.086487 917.295837
-281.518066 -569.258118 1071.626953
-251.787369 -216.180054 1053.474243
-248.648361 -378.704620 1050.738037
-472.740234 -361.946259 1412.594360
-98.826599 -653.873779 961.184998
-596.280334 -159.057358 1331.154419
-763.588135 -293.657593 1262.583130
-192.472504 -682.814758 906.089905
-117.301903 -674.783447 914.341675
-402.812592 -277.754486 917.567566
-455.177032 -583.553162 969.006653
-387.774719 -560.118774 1551.809326
-701.501038 -391.086182 1324.363281
-449.027740 -383.631927 1484.565552
-59.647785 -634.760986 956.482544
-470.519196 -303.601349 901.286926
-661.290405 -386.616608 1367.833618
-345.139404 -177.102280 1505.476929
-227.271088 -345.415802 1068.550537
-156.982391 -703.130188 885.463928
-820.033508 -402.622192 1242.447876
-62.634087 -665.754089 900.369446
-240.172318 -230.866791 1051.059814
-469.233093 -289.826813 900.749939
-37.270054 -579.157654 1035.209473
-251.323135 -741.955688 853.524048
-443.905273 -544.360291 965.076599
-616.779297 -61.770859 1286.527344
-401.614319 -478.516815 968.952087
-228.057129 -636.073303 990.032043
-230.848068 -425.839142 1094.120361
-804.335266 -408.441864 1218.614258
-245.351593 -706.889587 910.573242
-706.744934 -128.794418 1258.787354
-87.449196 -593.901062 1049.371582
-525.950195 -297.929230 1288.606689
-424.925354 -458.517151 1526.398315
-417.612823 -488.997467 962.393250
-387.412476 -621.065918 1038.700562
-725.732117 -246.984772 1276.730957
-640.839172 -393.015778 1344.609741
-415.060120 -237.230988 946.404419
-304.041748 -721.918152 866.110413
-633.054077 -200.672684 1316.778809
-202.392014 -328.940277 1056.273438
-471.451752 -476.571686 1473.402100
-198.143265 -443.903687 1100.397583
-497.985138 -408.127502 1451.139038
-247.242950 -202.936813 1035.057251
-300.910706 -226.514420 985.044067
-290.017914 -221.608673 994.815186
-364.063232 -274.729858 1469.209961
-666.983765 -262.098267 1338.483887
-240.017319 -774.535583 792.241638
-269.685883 -657.796509 984.720886
-335.073669 -534.614990 1042.718140
-691.663086 -161.117172 1278.963501
-380.562225 -400.050476 967.566528
-808.644836 -475.544556 1270.703979
-565.871948 -150.575348 1369.242310
-237.220306 -351.952148 1035.532715
-631.067871 -346.692963 1365.800903
-118.615494 -581.447083 1051.490601
-393.775818 -572.746704 1596.527588
-450.057983 -339.805359 1430.149902
-27.986603 -612.976807 991.903809
-276.058044 -709.582703 894.327881
-626.086487 -565.648071 1381.048340
-413.952789 -150.559982 1465.174805
-88.120232 -656.442810 939.210388
-244.799133 -370.098145 1063.536499
-638.401001 -413.590576 1336.330688
-182.131607 -462.246582 1124.007446
-354.314056 -566.114624 1013.569153
-583.376221 -157.532898 1310.378662
-566.417114 -283.319092 1288.644897
-340.579285 -346.307922 981.920227
-502.681427 -309.939240 1425.097168
-424.422058 -234.358185 935.117126
-351.912720 -302.407471 1483.516602
-237.197495 -737.125122 839.862854
-284.789764 -430.600189 1027.093872
-625.940674 -204.347534 1325.656250
-795.459717 -498.321442 1285.375610
-241.846573 -401.017303 1051.406616
-702.429443 -197.049011 1274.018066
-79.204041 -586.967651 1027.698608
-748.829834 -304.901337 1272.970215
-774.096436 -271.180084 1265.353760
-828.618164 -368.137177 1221.746216
-345.930359 -247.719910 956.377502
-363.122223 -573.308044 1033.447144
-513.871887 -201.831131 1431.442627
-418.615967 -214.138504 1465.593994
-431.695343 -375.453369 943.042358
-153.353912 -325.038788 1062.197266
-78.791382 -594.849426 1026.624268
-186.281647 -721.520630 873.497986
-408.654663 -189.570923 1466.219727
-110.162254 -587.823853 1043.114380
-439.416321 -459.670776 940.052856
-63.830296 -644.898315 944.077454
-9.834811 -667.668762 897.609070
-331.865173 -695.849915 927.776489
-347.514893 -290.696350 1551.344116
-477.696167 -435.659363 1414.439453
-64.292953 -613.038208 976.155884
-657.676819 -251.276077 1320.978271
-643.140564 -116.977043 1293.447754
-622.968384 -69.946732 1298.508911
-28.110750 -627.162048 960.095947
-433.886230 -381.361237 922.140625
-593.173950 -89.253044 1301.370605
-757.895569 -491.981842 1296.585083
-49.712685 -648.542236 934.269653
-246.732513 -549.606384 1089.490112
-193.977356 -347.893738 1061.955322
-121.027901 -600.143433 1036.288208
-286.369171 -243.619278 1006.553406
-424.822174 -369.040405 928.948181
-372.740143 -233.699036 1472.605103
-426.157196 -397.754486 916.580566
-603.356750 -183.076080 1344.239746
-714.180481 -149.225723 1256.204590
-204.485962 -644.054626 990.601440
-523.982239 -386.782013 1406.123779
15.048253 -647.527527 924.691284
-641.214233 -143.242447 1294.241821
-73.087822 -631.646118 973.482239
-403.165802 -283.527283 1486.400757
-567.720276 -56.196411 1316.457031
-76.426132 -665.363953 937.228271
-561.723633 -276.604675 1382.764282
-539.424561 -198.707611 1376.347778
-523.072083 -329.560669 1435.432251
-272.988525 -231.213318 1013.153320
-293.100159 -527.898499 1092.081055
-253.618195 -637.994690 1004.946594
-387.957306 -469.834869 1001.279175
-374.864014 -465.325195 1004.213135
-150.456955 -652.644043 964.201477
-617.575134 -68.873306 1306.857422
-87.680511 -583.323792 1054.526367
-497.700134 -186.263748 1430.188232
-314.739044 -263.326202 968.467896
-765.098694 -286.170135 1273.859253
-579.655762 -252.854553 1365.555054
-390.660156 -643.793396 1622.580200
-459.030823 -480.504211 1540.295410
-258.594086 -315.579590 1013.800537
-150.047653 -728.528320 853.825806
-653.896729 -138.745605 1289.997192
-170.384033 -488.187653 1151.682861
-473.436005 -260.437927 1464.182739
-257.038361 -658.459106 980.469788
-219.643265 -298.254395 1036.939819
-714.991699 -270.517883 1288.989380
-308.157928 -366.300018 1006.573547
-384.656006 -203.122391 1494.382080
-285.940155 -245.778809 1019.107239
-579.954346 -62.398979 1332.239624
-574.615112 -234.543915 1391.679077
-776.350891 -350.405701 1258.618530
-490.342743 -468.018036 1487.120728
-344.465393 -487.616547 1027.740112
-656.023560 -247.395233 1340.718262
-412.147980 -224.843262 1466.712646
-328.356842 -563.771606 1052.152710
-461.095764 -304.386658 898.780640
-227.510315 -247.255478 1067.597900
-368.754883 -242.678345 1496.603027
-106.624535 -681.991394 909.986206
-303.319946 -213.079117 1002.718323
-3.367656 -677.606812 878.236450
-443.390594 -124.657440 1455.424316
-232.111343 -245.140305 1047.908203
-124.367668 -649.129517 953.841064
-261.029846 -445.346527 1051.697388
-638.754028 -54.194435 1280.286987
-174.931473 -645.562317 997.314270
-327.807953 -363.572662 975.460510
-367.470734 -255.727890 1502.277100
-522.454895 -93.577782 1362.675171
-164.018402 -635.201294 974.663330
-312.480743 -199.439072 1029.986450
-675.230835 -134.684692 1276.817261
-681.032959 -79.009521 1256.881592
-414.833313 -257.034973 1475.717896
-261.509308 -186.394119 1032.978638
-393.471802 -507.186462 1006.491028
-625.354919 -123.227577 1287.916626
-54.475418 -711.263611 838.531921
-266.340973 -233.737976 1018.599976
-444.420563 -300.371307 903.563843
-483.421143 -142.317841 1436.370239
-309.455719 -213.754761 984.522400
-461.156830 -279.608826 1456.178589
-551.795288 -325.592041 1370.055176
-496.977997 -489.908722 1493.418579
-204.415436 -283.406769 1058.394897
-164.181519 -714.338257 879.321838
-258.198120 -412.809296 1072.564819
-29.119139 -583.844055 1019.020691
-368.645935 -391.954132 957.649170
-358.532196 -357.551422 1536.880981
-306.235046 -713.574768 903.777893
-480.237579 -181.891083 1415.437866
-591.780640 -192.004105 1326.213013
-537.262268 -262.746124 1258.571899
-389.713165 -596.880371 1026.504883
-361.909149 -249.753281 958.403748
-703.332397 -339.027283 1307.158081
-245.180878 -478.851959 1097.541382
-487.913055 -386.193756 1402.465576
-84.626724 -707.996887 848.367615
-557.234497 -171.359528 1383.921021
-705.931885 -389.460938 1237.970703
-93.392357 -609.102112 1021.566895
-213.756607 -253.315994 1067.430298
-421.824127 -460.415741 1552.626953
-468.295349 -314.090393 1457.547607
-18.770262 -620.740662 992.385742
-481.562378 -317.134369 883.846375
-690.184204 -138.227112 1254.545410
-287.237396 -678.967834 969.894409
-193.706619 -662.185669 974.983032
-203.619568 -356.595306 1059.740479
-762.765625 -316.127991 1265.311890
-402.581757 -417.410858 948.804932
-279.012024 -413.443390 1065.101440
-756.145508 -270.229706 1252.997437
-675.587585 -353.648285 1353.069336
-513.082275 -99.228821 1387.757446
-34.530216 -738.455566 799.030579
-646.462463 -255.130905 1328.093750
-223.374344 -322.092804 1046.971924
-438.893219 -501.767883 1522.255981
-172.330994 -644.310242 990.564514
-153.101730 -742.558777 829.588928
-558.442688 -108.455154 1357.430786
-108.144844 -679.381165 929.798157
-666.778076 -97.853630 1269.409424
-350.628174 -199.242950 954.461182
-446.218262 -241.116348 1464.841919
-475.592773 -119.032158 1416.882568
-115.823792 -640.896729 950.824219
-434.688141 -577.722168 978.367371
-532.196838 -245.983047 1226.124878
-570.799561 -78.311249 1338.786011
-194.268906 -379.084625 1084.751221
-517.300232 -334.434509 871.996460
-739.049561 -241.417282 1258.757080
-333.029022 -218.258270 1473.924194
-230.960175 -719.142151 888.061035
-678.348694 -588.330627 1426.360596
-389.173920 -510.319580 1558.167969
-146.188034 -744.244812 807.598694
-422.788300 -582.748718 988.380005
-451.315369 -287.176147 912.112366
-140.483337 -692.451172 909.589844
-469.988495 -461.090393 1481.254272
-574.947937 -189.380417 1368.920044
-163.925934 -619.293701 1026.798340
-8.488569 -626.136353 991.043030
-664.749939 -396.440826 1333.388672
-709.493713 -213.286392 1303.647583
-480.001831 -572.228577 950.687805
-756.735596 -361.808319 1252.212769
-507.605835 -396.290161 879.153320
-382.104614 -240.367584 1502.121826
-355.018219 -560.254333 1028.111572
-404.583893 -494.903931 993.988770
-141.972900 -592.789246 1042.410522
-763.964233 -255.754883 1233.450317
-481.974243 -328.376740 906.584961
-433.814209 -249.437881 1487.528931
-134.194077 -653.309265 953.724365
-153.020172 -631.212158 1012.034241
-515.568665 -430.950928 874.069031
-558.284485 -179.470139 1369.300659
-416.343567 -245.198959 927.090759
-695.035156 -372.756836 1342.511230
-752.328796 -529.659058 1328.441528
-726.574524 -245.565094 1269.306885
-290.134155 -744.219971 831.919128
-535.887573 -206.165924 1268.404663
-251.701248 -473.060242 1074.969604
-478.871552 -233.834885 1435.504028
-372.158936 -283.983673 1434.824341
-322.308350 -223.431290 988.162476
-81.901413 -597.007751 1051.889282
-779.463501 -413.203217 1211.841064
-352.923645 -242.923294 959.031128
-625.365601 -169.700470 1293.083496
-225.792816 -705.041870 893.847595
-585.742920 -217.725418 1350.690308
-668.545471 -215.022339 1319.244507
-517.073181 -163.786591 1401.378052
-518.381165 -195.169128 1410.824585
-649.444336 -316.878784 1344.758545
-410.355713 -246.709061 939.166626
-25.830448 -673.552368 885.242371
-251.206329 -457.234650 1070.353760
-325.042603 -264.296387 982.867615
-333.912750 -435.077545 1002.292297
-615.088623 -271.914398 1299.942505
-27.346214 -615.116638 982.454895
-212.903397 -346.931732 1053.503296
-775.863708 -343.802460 1238.912842
-392.295502 -509.711914 1022.064453
-303.498291 -492.780731 1074.280884
-186.679337 -761.758057 784.903015
-523.193176 -318.586761 1449.323364
-527.738220 -320.156036 1435.659058
-49.347218 -658.050659 935.872437
-644.891663 -361.506348 1214.428833
-440.500916 -144.327057 1463.148804
-202.419006 -663.153381 990.437134
-136.906372 -706.389465 883.882446
-345.400116 -693.101624 940.285889
-296.436554 -535.371582 1070.370117
-680.652466 -313.788330 1343.049438
-481.450195 -203.940552 1452.114380
-383.439117 -543.559692 1026.272705
-319.570831 -375.586914 1011.824463
-443.815216 -174.284393 1435.448853
-385.685974 -260.019684 932.677490
-494.382202 -312.984344 1452.052246
-545.794250 -379.590454 1443.161255
-820.099182 -366.407715 1204.100586
-676.852295 -298.755890 1328.005493
-104.608749 -781.062500 764.407837
-212.752884 -700.055298 894.269775
-31.141275 -615.076599 1002.568115
-327.345642 -241.871933 963.270142
-427.916779 -489.760468 1530.225342
-543.183899 -83.955597 1375.234009
-280.814392 -248.793152 997.512390
-514.532104 -495.939301 1481.645752
-715.369873 -555.987488 1393.764160
-291.758240 -681.512939 962.865723
-396.972687 -597.312561 991.120911
-214.888641 -744.953247 837.018066
-531.915771 -368.308441 1401.169067
-739.272644 -409.205475 1268.289063
-516.665833 -189.939941 1426.419434
-451.352814 -367.749512 934.256287
-504.541016 -358.049957 871.117310
-4.385120 -657.595032 892.436035
-698.395508 -320.108002 1313.741821
-605.444885 -128.672668 1308.931641
-493.949768 -365.859192 870.630920
-465.146210 -460.347260 923.474915
-474.271698 -317.537872 1176.174194
-531.825378 -210.434921 1259.558716
-247.737152 -781.790466 777.093079
-755.030640 -523.898254 1320.313354
-622.215759 -97.412964 1300.060669
-221.936539 -711.396606 875.504700
-674.037231 -331.314056 1310.745972
-669.962097 -77.144478 1261.359131
-426.637512 -337.131195 1486.151245
-434.802917 -113.305138 1453.286621
-481.304108 -152.559952 1410.531616
-562.802429 -282.603821 1384.604858
-450.314636 -569.278015 1460.365723
-263.358765 -372.834137 1051.487305
-200.199600 -682.760254 946.258118
-773.086182 -317.273651 1263.394409
-399.065063 -534.678650 998.217346
-563.364990 -253.002213 1393.292725
-77.207001 -725.005310 832.333069
-591.859802 -67.006264 1320.038818
-379.075806 -306.820190 1525.065063
-465.032593 -373.407074 1342.048828
-275.420166 -430.438660 1058.316162
-731.506653 -313.141663 1303.711304
-363.165192 -648.649414 1622.471191
13.825237 -669.962646 895.655518
-661.962646 -410.816467 1266.906006
-255.053787 -329.681671 1027.505127
-679.642090 -264.900513 1296.665039
-297.621124 -401.861633 1033.948853
-543.345337 -310.541351 1418.113892
-172.881210 -707.213013 865.101868
-499.154633 -135.514297 1407.015747
-129.278976 -769.457825 785.965454
-316.904572 -392.590363 1007.610718
-226.883194 -219.739410 1045.641113
-310.170959 -202.249527 993.895813
-801.529236 -484.790436 1279.938232
-430.900757 -719.579651 1575.117676
-444.784180 -272.108521 916.768005
-347.382446 -175.784409 1500.713745
-342.306152 -336.354889 1534.015869
-404.650482 -588.094116 1554.783325
-443.521820 -230.918030 1465.984009
-169.492172 -694.453735 899.442139
-81.312172 -682.134827 900.363220
-271.460327 -208.269241 1029.631348
-706.886719 -152.564667 1258.533936
-51.978153 -641.728882 931.132202
-375.643097 -421.084320 989.134216
10.721623 -641.143555 926.694641
-782.689819 -289.598633 1242.286133
-341.735901 -405.975952 988.560364
-247.852936 -506.684601 1083.832275
-145.290558 -644.869873 954.820862
-676.924988 -282.517059 1322.359497
-318.509735 -253.115295 972.841614
-439.625793 -463.257660 1512.494507
-383.002777 -447.770325 992.721680
-624.474670 -84.340813 1318.991943
-524.128418 -154.066849 1404.817871
-319.702118 -295.728394 997.840820
-416.195770 -389.017151 932.281128
-340.977417 -482.512634 1021.168884
-262.166809 -330.247223 1014.006653
-434.074951 -333.346680 1443.899414
-713.809937 -226.107758 1279.813232
-146.970795 -708.265991 886.787048
-162.509750 -748.208313 847.274475
-624.224915 -382.604370 1366.763428
-507.408142 -366.745850 884.827576
-480.387451 -471.006500 1486.857300
-271.419312 -294.431793 1001.649048
-711.202515 -576.233276 1354.590332
-456.940094 -263.216339 1453.495117
-533.448242 -63.756283 1369.284668
-269.683014 -190.420242 1029.403198
-418.264160 -326.048004 913.598206
-788.458557 -388.721893 1228.380005
-702.787659 -343.778625 1295.264404
-229.863617 -538.807739 1098.568848
-22.809296 -715.968201 841.549011
-725.322510 -337.659210 1312.616577
-641.380066 -535.669861 1404.325684
-439.621002 -138.518066 1460.107178
-292.815674 -528.030701 1073.150635
-666.133118 -464.594849 1343.367920
-380.175262 -276.560150 926.974609
-68.937813 -589.239014 1022.429016
-253.375244 -701.273071 898.368042
-629.257690 -78.673019 1314.628540
-117.308083 -596.623169 1069.419556
-397.786133 -632.108032 1598.210571
-393.091705 -256.755920 939.998230
-578.304382 -273.110229 1367.594727
-405.793854 -355.735168 931.739014
-203.936691 -681.787170 946.276123
-555.132019 -245.839401 1375.208008
-4.906860 -656.475647 902.013550
-65.071342 -739.465027 816.118835
-248.821136 -763.013306 828.451294
-389.636780 -683.776306 1596.449341
-114.439980 -661.872864 929.395264
-398.975952 -525.330200 1542.437622
-464.540649 -152.612167 1434.861694
-142.549957 -689.009460 915.394714
-511.648987 -287.679504 1429.476929
-473.372498 -302.174347 1461.680786
-413.528076 -565.346008 1492.380249
-772.626587 -344.529114 1241.676392
-592.174866 -69.702049 1325.827637
-588.633423 -225.190704 1336.232666
-474.890961 -282.211151 909.105591
-220.419632 -336.324036 1063.638062
-609.840210 -201.015228 1342.685303
-497.442627 -366.470490 875.331238
-47.992527 -707.920776 862.500732
-517.112244 -169.354279 1403.887329
-719.304565 -160.186996 1251.154907
-161.684769 -362.140442 1091.781128
-596.685852 -99.218170 1297.971680
-839.190918 -369.360291 1222.023560
-499.800201 -378.717621 878.178284
-301.675690 -349.901184 1018.942932
-84.846237 -768.834534 780.758484
-522.807922 -357.186676 1451.081787
-185.617935 -717.012573 863.981873
-443.389923 -432.291229 944.345276
-397.407257 -197.997467 1487.336914
-455.470764 -464.095520 1482.811279
-294.886414 -746.776550 833.350159
-379.283203 -554.222290 1023.112671
-334.017670 -272.495575 1540.590210
-137.903152 -340.332336 1052.709229
-794.698303 -380.318268 1223.722412
-255.083664 -196.070831 1033.455200
-394.914917 -544.919312 1543.350708
-356.678406 -379.853333 978.896362
-285.316254 -418.851624 1034.534790
-495.769196 -167.052628 1418.170898
-557.034180 -214.277374 1388.487549
-140.204132 -692.736206 921.578064
-413.993469 -339.288605 1432.895996
-77.457458 -661.582458 913.289246
-767.578125 -316.421570 1274.897217
-564.035217 -234.574432 1350.470703
-736.516602 -168.938477 1230.489258
-570.867981 -57.867405 1353.321289
-649.848083 -108.505249 1272.557007
-237.816071 -690.963928 938.629883
-221.249283 -242.809540 1044.953125
-687.096741 -202.547394 1289.072388
-354.793823 -258.829071 1407.653076
-708.965637 -204.765900 1277.817261
-29.166391 -650.469971 916.261841
-672.440674 -376.859528 1357.473877
-400.076447 -198.672287 1489.393433
-256.495789 -739.153809 840.151978
-319.528381 -324.612030 971.752625
-734.492065 -352.255188 1290.242554
-409.054871 -650.925781 1033.969482
-31.437853 -663.137146 890.432739
-367.193176 -368.773865 961.675659
-324.330627 -729.303345 873.545837
-546.042358 -65.494850 1334.678589
-204.899689 -679.162415 942.698425
-396.506409 -232.639755 969.049561
-464.840027 -408.574951 1525.741333
-237.358902 -667.745483 941.630981
-492.785278 -165.705887 1402.661499
-427.438599 -541.078796 1520.780884
-152.390106 -764.272705 795.783508
-353.153564 -604.592407 1048.494385
-712.137695 -249.099991 1287.418335
-556.766541 -306.396393 1393.132813
-425.364807 -666.584045 1566.485596
-496.648773 -134.351044 1390.642700
-473.795319 -181.049957 1437.918213
-232.945923 -676.853210 929.272827
-340.211090 -247.328125 1532.965332
-665.811646 -293.743073 1326.939331
-488.840027 -139.359100 1431.687744
-674.640991 -156.388901 1281.871582
-493.543701 -77.297409 1404.405640
-70.198692 -635.114929 967.170532
-335.646759 -289.327972 986.522888
-291.766327 -407.503235 1028.615967
-315.552246 -275.305267 1001.422852
-329.127319 -219.289673 1555.995483
-400.144196 -346.824005 1456.199097
-60.370270 -719.595825 828.369141
-388.031433 -525.151123 1572.174561
-236.843521 -623.301758 1017.365967
-378.078827 -494.643951 976.400940
-282.835175 -397.721008 1014.152344
-307.440796 -741.955872 853.073059
-405.103424 -189.432770 1488.169189
-741.984192 -225.703781 1252.386108
-293.893829 -198.960693 1008.983459
-437.556824 -121.563553 1443.292114
-67.680916 -635.039917 952.022644
-751.640015 -320.757294 1253.644775
-440.560272 -237.154160 941.143860
-447.616974 -319.503235 1433.946045
-579.274292 -46.904575 1323.469971
-295.834351 -208.569016 1005.350708
-432.864288 -398.685883 1466.126465
-495.736420 -348.001465 1307.095703
-464.262695 -268.992767 1445.492920
-413.980286 -131.239914 1473.768188
-516.633911 -299.239716 1416.355103
-505.241943 -372.936890 1431.547363
-271.028259 -467.595276 1076.376343
-508.332489 -452.580536 1479.842163
-453.638000 -306.659698 1412.462646
-194.308685 -389.491364 1078.651367
-731.702271 -267.258331 1290.053467
-194.559586 -722.794800 853.342468
-388.418762 -159.422348 1500.923096
-123.033447 -673.360840 924.239319
-225.228851 -633.709778 1007.207520
-319.326172 -536.989136 1050.812012
-231.151169 -552.083252 1119.064331
-302.990356 -730.023987 856.940247
-358.670898 -502.201691 1028.503052
-448.622711 -473.121979 1486.413330
-123.963875 -637.690552 963.354309
-439.622955 -496.428680 950.382629
-262.127350 -257.970306 1013.066528
-489.574768 -114.408516 1416.332397
-190.678345 -680.776428 917.215332
-171.484192 -315.200562 1090.774536
-351.650909 -656.277527 1640.728638
-742.591797 -325.684845 1282.871704
-7.681595 -653.278748 898.328064
-403.892334 -563.372253 1550.698242
-680.690613 -175.266037 1288.631592
-541.398987 -297.613556 1425.073853
-706.316772 -434.378845 1294.548706
-353.758331 -218.499786 988.719238
-194.690094 -327.143890 1088.932983
-237.723297 -294.635895 1025.713379
-217.051025 -325.249084 1045.716064
-597.239014 -39.058102 1312.832764
-307.333984 -204.564957 1558.710449
-254.839905 -596.723755 1096.843872
-260.282745 -223.321259 1016.130981
-455.410156 -447.227783 926.160706
-127.959053 -639.201477 972.248474
-380.540741 -362.479767 954.761658
-134.176392 -681.727295 894.794006
-785.151001 -326.445343 1226.671265
-337.740356 -444.573853 1014.534973
-312.535858 -257.787262 973.730896
-416.002960 -420.668793 1522.402222
-551.373108 -143.359634 1369.571045
-275.641357 -521.221008 1074.259644
-103.685265 -703.491577 870.972351
-641.267761 -140.821411 1312.089600
-281.691895 -413.606384 1023.626465
-417.684326 -165.989441 1486.113770
-437.968842 -291.974030 907.167236
-589.348328 -161.137512 1324.739136
-64.707329 -714.799133 869.696533
-283.096313 -336.159607 1000.891418
-407.010742 -379.544220 936.289063
-208.414139 -700.926331 884.174866
-332.349884 -214.454391 981.427979
-484.985535 -321.025208 1456.116333
-442.486359 -419.513519 944.238220
-251.418701 -316.550934 1037.410645
-703.481506 -143.142288 1258.516724
-679.724426 -227.477402 1282.366211
-388.394897 -503.639740 971.988770
-791.296936 -414.739105 1193.221069
-370.217407 -612.942627 1011.191162
-752.315125 -399.264832 1186.231445
-708.067688 -466.557098 1306.480835
-378.520599 -305.221466 1484.418701
-290.183960 -689.716675 927.948669
-199.972855 -364.857117 1092.410156
-491.666534 -97.364563 1412.007690
-343.478058 -612.980347 1030.611816
-746.594604 -349.547607 1299.270996
-694.466187 -118.010628 1271.827759
-685.989258 -396.429413 1303.575317
-766.769592 -240.061783 1239.633911
-44.300495 -681.169983 883.132202
-409.004761 -314.932770 1441.170288
-226.150970 -337.916016 1077.883789
-175.180054 -656.510681 976.059753
-197.570801 -602.443909 1031.054688
-701.759338 -291.506439 1304.040039
-419.277100 -464.913635 963.493774
-600.223206 -92.529427 1317.136108
-277.309875 -208.834167 1021.432190
-244.943848 -766.121521 797.711304
-371.997833 -256.459625 1511.131592
-380.466644 -178.888046 1506.516602
-450.392517 -352.344574 1414.699707
-487.552277 -424.897278 883.315247
-554.638428 -203.644180 1388.034058
-181.845459 -687.616516 911.467590
-516.555359 -191.024872 1411.113770
-449.442474 -199.357010 1465.987061
-767.658325 -307.682983 1241.508911
-242.891663 -231.460678 1024.781494
-223.003204 -745.583252 834.975098
-514.530823 -266.701447 1430.647217
-195.997665 -461.857208 1110.571289
-290.803040 -175.393814 1028.244385
-481.467224 -380.671722 878.543701
-562.719971 -361.230530 1386.446899
2.922401 -714.140198 837.339355
-377.143036 -519.811218 1035.442749
-473.293335 -562.006042 950.914246
-676.068848 -414.284698 1299.770142
-64.189339 -638.535461 949.778687
-192.776947 -693.740540 907.375305
-310.470306 -707.244629 903.075195
-200.348251 -644.290955 999.434692
-318.673065 -235.637207 978.343384
-361.447601 -386.773560 971.578918
-752.747620 -475.305817 1307.489014
-96.676788 -243.199081 1008.717468
-202.888550 -768.475220 788.486450
-189.562225 -688.642334 921.341248
-157.538742 -378.010559 1100.056519
-39.368664 -616.760620 977.344604
-461.705994 -431.134430 917.782410
-366.799866 -387.666199 973.164673
-168.144928 -398.124054 1098.991821
-267.035065 -193.530228 1040.734619
-669.396179 -357.747955 1323.142456
-586.690247 -264.365936 1320.446899
-104.006500 -703.006409 852.517761
-644.655396 -181.279266 1306.943970
-382.156982 -286.023407 940.093445
-283.750702 -745.300354 836.721313
-349.846710 -378.542786 975.964355
-503.338959 -182.905640 1435.042236
-14.985397 -669.669922 890.347412
-141.403473 -693.476563 893.088562
-688.225708 -334.552582 1321.442871
-374.736053 -161.256271 1504.661255
-148.906052 -705.427246 887.356506
-486.297546 -289.371277 1455.598999
-440.080566 -328.845123 912.781921
-393.177551 -429.652100 965.261047
-673.920715 -147.619385 1294.773682
-804.501404 -402.350586 1215.813721
-323.750458 -573.444946 1058.161621
-461.226746 -509.620605 1518.948242
-716.664917 -177.605377 1261.208008
-632.763184 -297.376007 1371.546143
-716.670166 -216.801544 1272.962158
-361.575653 -523.458923 998.548584
-151.511673 -678.724670 901.487854
-571.224915 -143.953934 1359.272949
-790.905396 -345.833374 1232.806641
-224.307556 -690.506104 904.374084
-214.928574 -740.628235 832.339417
-458.282593 -98.631744 1407.311523
-240.422394 -695.609192 919.968567
-589.884521 -132.395691 1323.637573
-774.056458 -479.297699 1288.952759
-567.815735 -210.352249 1346.810059
-526.141418 -289.125275 1256.276123
-389.702301 -321.335571 1498.326782
-723.780396 -177.432434 1256.251343
-375.411469 -301.671875 954.631592
-666.237610 -267.419861 1325.912354
-594.274170 -167.394226 1308.609497
-315.084595 -683.656250 948.562439
-147.884247 -605.899475 1019.584900
-72.171974 -578.720642 1049.998291
-319.149658 -203.420532 1007.793335
-557.791931 -286.874329 1402.364258
-609.903198 -117.093842 1293.815430
-450.779053 -311.285309 1405.005371
-127.568741 -680.303162 901.720825
-744.460266 -372.164886 1270.199463
-101.272453 -623.359314 991.103088
-332.174774 -324.451080 976.954346
-419.009735 -408.037354 1526.508423
-424.942841 -290.968475 935.476135
-22.093094 -689.927917 887.540466
-363.752594 -363.796967 950.100403
-388.113770 -448.205383 973.559448
-718.615173 -342.890472 1295.698853
-221.438431 -290.388214 1043.909668
-385.302460 -613.579834 1033.652466
-639.239807 -260.768402 1338.725708
-774.431396 -357.681610 1204.921997
-41.970036 -619.224915 958.523071
-711.393921 -277.950562 1293.833984
-392.660461 -308.127136 1457.004150
-431.617340 -430.466614 1524.805420
-316.567322 -720.570068 869.398071
-305.197968 -263.770508 984.973816
-304.611877 -217.192963 991.317688
-742.686890 -385.430145 1293.075684
-642.430237 -74.482025 1282.053345
-189.793884 -662.602051 939.676636
-246.521957 -706.200684 881.523621
-549.409485 -330.272125 1399.000000
-355.344635 -242.244888 1529.080811
-386.725922 -561.860168 990.225525
-367.268311 -213.696579 1521.041626
-550.781372 -242.204407 1262.301514
-589.067139 -171.024918 1317.024170
-524.825867 -339.159271 883.508057
-452.108673 -477.025940 914.765991
-456.333710 -399.484283 905.887390
-483.667358 -172.189560 1444.438843
-355.486328 -290.213623 1530.960815
-214.027298 -294.214935 1056.415283
-249.912598 -516.512695 1086.366821
-302.486328 -195.669205 1005.417786
-203.757431 -298.636200 1083.663452
-673.475708 -236.708237 1325.503052
-766.990051 -398.769989 1267.507813
-112.567062 -650.255249 955.467041
-542.292053 -340.404999 1392.381592
-470.271637 -354.553986 1244.726563
-540.434692 -213.023209 1291.834106
-675.933594 -250.103775 1290.753174
-318.567047 -197.278473 1015.435669
-65.312004 -642.033752 943.388367
-67.091362 -603.063660 1009.900940
-438.382263 -321.233734 911.944824
-342.706024 -416.944550 1010.528381
-480.999146 -264.445374 1447.591797
-408.488556 -593.840088 1009.336731
-383.049927 -199.019226 1480.299805
-351.945801 -249.871506 1528.500488
-247.309814 -212.427261 1039.748413
-192.198898 -739.183105 817.100403
-481.651886 -418.361786 876.691895
-427.352936 -686.967957 1578.039673
-134.053497 -681.716431 891.565552
-758.930664 -340.333801 1262.090088
-270.241638 -741.836304 849.339539
-344.090332 -696.875549 935.103210
-169.650238 -671.199402 942.910278
-364.196991 -299.781311 970.825745
-419.426849 -143.853989 1461.900391
-482.350555 -380.116608 1397.084717
-782.959351 -277.576263 1224.651733
-414.752411 -291.894135 1511.706787
-796.538635 -490.572968 1296.255371
-664.291321 -267.044312 1323.316528
-498.657867 -308.948364 878.853271
-185.614288 -748.731201 830.963440
-275.268555 -257.371124 994.060608
-345.497406 -595.330627 1062.717163
-395.016571 -663.323364 1608.402466
-220.575439 -692.420898 907.807129
-172.285263 -699.294800 896.471375
-268.003510 -470.083099 1052.800415
-527.395935 -135.131851 1386.169922
-219.209015 -419.813904 1066.658203
-751.625122 -391.727020 1239.449097
-22.541737 -669.150635 899.140503
-404.570007 -241.299774 1468.050171
-644.159851 -129.585648 1301.076660
-434.769745 -540.511108 1522.055420
-390.483368 -281.329620 1442.418823
-554.934509 -297.869080 1404.593140
-806.609558 -369.522980 1235.011353
-752.648682 -364.415314 1247.315063
-364.060425 -349.911499 963.622314
-387.085754 -590.144775 996.866089
-477.823517 -95.819336 1414.117065
-571.921753 -258.764404 1393.325928
-532.741455 -327.210449 1408.744385
-176.679108 -785.611511 784.978821
-17.973211 -597.931641 977.771912
-311.022308 -320.201477 998.380737
-94.015152 -761.713501 822.871033
-284.607056 -681.770630 955.742676
38.930164 -647.880188 922.744629
-189.815903 -775.948181 792.041992
-156.918182 -650.888550 977.096558
-523.727356 -505.203613 1475.609741
-346.102203 -195.863205 988.135620
-76.613342 -633.164124 971.306152
-373.942719 -189.533401 1503.339966
-513.395325 -312.948090 894.006653
-605.480530 -217.364120 1337.619629
-359.382935 -471.202332 996.582092
-344.934082 -401.811676 994.281921
-92.752029 -590.522461 1049.625854
-354.853973 -235.440216 1446.095947
-728.452393 -233.530045 1266.546509
-165.301132 -637.954285 991.354980
-384.652100 -535.207336 1007.852173
-426.964294 -419.608765 1534.986328
-671.952759 -538.228821 1369.031006
-233.966354 -708.929871 889.792664
-372.169678 -268.022095 963.394592
-531.888184 -324.447052 1409.349976
-371.835724 -575.377441 1026.386230
-151.133392 -431.205292 1107.711060
-728.302673 -233.372528 1283.126709
-633.533936 -400.337799 1321.998535
-257.847229 -221.923019 1056.495117
-492.633209 -289.132324 1447.506714
-245.865738 -733.184937 846.854004
-506.057190 -139.150269 1385.745728
-115.736473 -670.471741 933.819824
-611.529663 -112.503113 1302.987061
-295.666412 -286.271362 993.850586
-311.301666 -578.487549 1066.456177
-213.876175 -702.341003 910.933228
-659.240479 -124.396790 1298.575439
-291.195648 -719.710022 893.444275
-42.135082 -643.101440 941.408813
-694.396790 -173.760193 1278.964111
-180.209152 -739.412415 829.194031
-568.989746 -130.143448 1358.825439
-416.589813 -348.671661 1460.064209
-629.288940 -166.724457 1327.776733
-43.251564 -744.380493 821.012512
-8.833717 -690.363892 871.931030
-762.827881 -501.060638 1311.342529
-233.784103 -301.509674 1063.429443
-465.747620 -381.775116 906.409607
-385.913605 -303.730469 936.976624
-231.766129 -242.938751 1059.535889
-283.423920 -697.972046 914.697632
-405.749756 -142.056915 1453.099487
-276.898956 -573.006348 1076.381470
-289.735199 -521.905273 1066.163086
-218.125183 -669.150452 936.855774
-272.266693 -208.679626 1026.187256
-530.635376 -179.512527 1416.666626
-637.683167 -224.876480 1317.033813
-203.580276 -258.641937 1085.660767
-208.637192 -239.903046 1068.876343
-381.761597 -537.739136 1586.313232
-224.497009 -278.157013 1066.087769
-323.384674 -287.093292 973.352600
-438.226135 -142.648956 1446.051147
-488.926208 -307.435516 901.483337
-267.243927 -552.698914 1096.723389
-781.064331 -321.208557 1246.396973
-441.841888 -116.673782 1447.040405
-275.428619 -367.501282 1027.283813
-469.033264 -302.798065 897.874878
-486.888977 -351.122894 881.210754
-322.419006 -239.635757 1512.417114
-594.142334 -160.226791 1326.279907
-362.383881 -589.496765 1012.571289
-276.201935 -275.887024 1004.652832
-406.642792 -348.525940 924.827393
-459.153870 -349.930450 882.251282
-327.618195 -274.556793 981.351868
-299.702759 -275.272217 1563.042114
-343.256378 -499.144409 1025.740234
-369.383545 -279.138367 1448.833496
-757.751709 -317.234894 1274.835815
-480.335358 -489.533478 1502.841675
-109.851189 -663.012939 912.694763
-305.988434 -530.134705 1056.046387
-394.002991 -291.925110 1377.482910
-22.230516 -721.944458 854.429871
-472.894501 -125.381592 1430.608765
-718.631409 -224.585938 1287.949097
-352.199554 -227.110886 1515.198975
-247.628540 -249.055740 1042.313599
-109.717751 -780.766541 797.818542
-236.551224 -435.489960 1058.643188
-217.035110 -734.702026 834.839722
-355.062469 -348.436798 964.903076
-445.269348 -362.690796 1433.142334
-175.435272 -730.563904 841.638794
-64.400192 -618.687134 994.076782
-236.315842 -746.705383 843.009949
-224.008728 -694.207031 913.275452
-14.669684 -446.561646 1027.682983
-345.475952 -244.174805 1527.852783
-696.630798 -199.270065 1279.520752
-585.910339 -102.325829 1323.802124
-143.937637 -630.693359 974.917175
-443.810333 -233.721252 1449.802124
-217.029419 -387.928894 1073.165771
-259.303894 -481.687408 1074.358643
-423.171051 -453.673676 1544.765747
-320.027222 -261.561157 971.905762
-112.766006 -609.667480 1035.504639
-448.056061 -145.379898 1458.460571
-329.531067 -726.574219 893.237122
-125.969055 -686.969360 898.715637
-441.329803 -440.449860 1520.712158
-240.792343 -476.039337 1102.856689
-297.896881 -489.949982 1047.008423
-95.140846 -759.349426 777.394226
-360.795898 -606.412537 1608.712769
-504.425201 -349.807770 1398.977783
-121.496483 -699.725159 889.202026
-277.907166 -720.739258 874.655151
-763.720459 -543.385193 1328.317627
-595.421326 -151.071625 1333.124023
-459.159973 -100.510124 1424.214111
-684.627686 -138.975601 1293.562500
-462.858337 -560.280457 930.515442
-539.980286 -279.313721 1430.854614
-311.929962 -230.721436 1545.024292
-263.527100 -584.884949 1091.213623
-528.582336 -209.155670 1407.938721
-87.197075 -707.072144 873.046631
-632.655334 -125.706329 1302.521362
-1.453253 -455.194702 1004.837402
-353.136414 -197.217270 1506.669312
-229.445740 -493.796143 1112.935059
-77.470253 -673.329041 894.442383
-721.667480 -194.768372 1263.486816
-583.209351 -81.105789 1337.734253
-176.506012 -430.422882 1106.320923
-319.326996 -443.522552 1002.560425
-310.309235 -352.268982 985.188904
-405.701141 -308.161163 1459.783936
-495.034332 -281.022675 904.136169
-692.276611 -180.390198 1278.911011
-166.453659 -656.042847 983.407349
-462.999054 -408.472076 1516.971313
-300.870789 -716.646912 884.938416
-449.197113 -387.397705 915.706421
-228.815979 -704.907471 888.526978
-680.403015 -216.265640 1300.669678
-146.834702 -753.917664 812.664856
-575.151367 -253.901245 1382.362915
-765.011353 -326.485931 1262.738525
-162.843536 -641.029846 985.108887
-157.147659 -407.955475 1136.997681
-458.831451 -529.227600 1500.323120
-385.111572 -507.861176 997.326111
-157.514236 -733.802612 825.021118
-423.942139 -288.821045 1453.043945
-627.369629 -367.984833 1369.136353
-581.409180 -188.736130 1328.384277
-679.446411 -224.046585 1300.261108
-33.872406 -615.155701 991.150940
-430.681763 -485.921234 936.337708
-663.682495 -347.833649 1346.993164
-351.928864 -202.278290 1528.098755
-292.308136 -406.909698 1035.377319
-467.819427 -277.832092 918.683472
