ply
format ascii 1.0
element vertex 1349
property float x
property float y
property float z
end_header
-688.833313 734.984070 -1174.424805
-780.529968 696.628845 -1183.931274
-318.331665 860.467529 -1228.845093
-334.815033 556.324280 -826.840027
-613.974243 641.141968 -1236.324463
-516.281677 669.347717 -737.042236
-381.250916 709.772278 -1254.202881
-462.950348 961.066467 -1218.355225
-415.892487 562.965332 -779.744080
-322.638763 673.460754 -1266.721436
-282.885040 1015.694214 -1222.599731
-659.479797 825.978210 -471.053558
-541.800354 666.413574 -1246.152832
-479.906219 933.779541 -551.644836
-475.018433 894.439148 -1199.474609
-576.504150 882.609619 -386.929382
-278.149872 892.267273 -1254.277222
-649.031799 819.296570 -444.306152
-372.127136 838.159058 -1253.226563
-364.977509 930.251099 -1205.712036
-420.795044 954.566223 -609.605286
-542.420776 538.530334 -1243.953491
-437.477997 950.537476 -505.152191
-273.088379 735.573914 -779.580200
-486.479309 927.553162 -743.233521
-486.866638 1039.970215 -1165.901245
-418.644379 723.893982 -1247.056519
-418.150238 852.780701 -1222.745605
-264.513275 643.989990 -845.650818
-333.940674 628.441406 -1282.509277
-759.170105 646.829407 -1193.681763
-576.009766 743.098877 -764.065857
-696.125793 668.171448 -1173.036865
-402.935425 887.663574 -1200.708008
-395.109375 620.057556 -1238.293823
-425.283447 953.405640 -477.497833
-535.616943 580.195740 -763.835632
-267.151001 704.041687 -785.474976
-345.657745 738.941040 -1270.821411
-353.451904 890.521240 -1220.452393
-550.332092 628.194885 -754.374634
-795.497620 805.463989 -1190.701782
-615.598328 860.637878 -608.425232
-377.565002 694.858826 -1242.512573
-628.678101 714.353088 -1190.347656
-592.541687 880.475037 -587.158936
-404.801086 569.774170 -783.354919
-323.251404 922.400208 -1234.277222
-622.348572 861.836609 -504.171112
-738.169067 605.990356 -1139.663330
-570.057556 712.225647 -755.558716
-343.119751 714.077393 -1258.236206
-594.783203 852.810303 -521.855042
-532.486206 627.675720 -755.943298
-562.305603 646.532654 -750.779724
-503.306152 917.779663 -501.285339
-302.472290 608.565125 -816.326172
-413.825958 651.968018 -1182.501343
-598.127014 770.830627 -1202.596069
-258.667236 887.562317 -1230.214478
-449.781311 722.038940 -1216.600220
-446.564331 662.960266 -1229.948975
-441.063232 728.161682 -1222.165527
-357.761047 578.074036 -790.391479
-591.600586 862.070862 -348.788971
-372.961243 613.444275 -1261.893677
-673.543335 617.278015 -1216.321899
-466.725067 956.821777 -361.636566
-537.957092 701.324158 -733.383667
-505.373169 932.864990 -623.385254
-309.841766 848.751892 -1246.625488
-610.678772 1245.138916 -1134.424072
-412.650543 865.027100 -1232.988647
-292.826996 899.805969 -1148.166260
-406.002655 966.837891 -582.588562
-474.486237 612.397400 -1247.815796
-461.769196 612.558838 -765.683533
-221.777008 686.647644 -834.353882
-553.995911 563.912598 -1228.115356
-538.310669 900.397217 -339.291016
-550.269714 1208.052124 -1152.259033
-311.893677 648.262939 -788.425781
-510.629517 939.388000 -634.814209
-347.090485 671.674561 -778.445435
-478.066315 583.913391 -1261.603394
-381.411316 740.199219 -1250.282837
-495.264496 1088.600708 -1146.743408
-599.540161 583.768188 -1218.114380
-484.724365 917.374817 -577.156250
-376.436096 711.140503 -1245.248657
-358.273987 633.693542 -789.132690
-323.692047 622.943054 -1279.671997
-346.802826 611.804993 -1272.613770
-431.309326 865.756470 -1145.459961
-343.137146 630.164734 -805.155518
-535.637512 1066.963257 -1178.381592
-363.779144 582.722595 -797.530396
-530.367798 704.759460 -752.935608
-426.445679 534.838989 -799.266418
-667.375732 812.462646 -570.988892
-627.859985 820.614685 -726.383667
-399.436676 976.396362 -399.701019
-556.430359 546.460083 -744.947144
-561.538879 646.011353 -744.388245
-447.261414 745.968750 -1211.303467
-696.884521 758.061584 -1161.472290
-518.177917 775.460388 -1061.016968
-614.214905 843.505798 -596.605103
-292.194611 729.111450 -783.469971
-535.703552 717.995361 -1223.084961
-465.007019 574.566895 -1238.931396
-535.514343 900.968140 -418.651123
-234.519775 678.017090 -846.345825
-343.833618 604.366272 -801.198547
-625.378174 741.283264 -1125.140137
-599.821106 872.807983 -364.801270
-364.916016 752.340820 -750.901367
-481.465759 841.860535 -737.562927
-550.670410 875.529968 -433.861847
-596.842163 607.253418 -1240.645264
-269.115021 867.616882 -773.074890
-674.946594 714.258545 -1187.725586
-432.956635 950.773254 -447.760651
-513.878845 656.158936 -1234.821167
-501.732574 917.825806 -412.679810
-618.134399 841.811523 -529.356628
-553.521851 886.296997 -379.843689
-507.222748 872.530823 -1176.707031
-639.051453 626.821899 -1219.015869
-485.607361 916.815063 -374.309509
-447.059937 841.196533 -736.413391
-291.847198 996.696716 -1218.004150
-565.817871 879.785767 -411.555359
-440.803955 898.699646 -1222.433838
-504.724060 901.893738 -472.644562
-530.595093 915.216980 -359.938599
-484.202454 927.760132 -609.389282
-686.650696 601.442505 -1152.785889
-475.415100 646.830383 -772.594604
-563.724854 874.078491 -482.415436
-430.755371 787.770508 -761.986389
-648.551025 825.839050 -493.199219
-439.115021 911.984314 -1166.273071
-322.319733 605.823425 -1286.773560
-473.749054 839.542419 -1139.149536
-647.092896 820.053345 -492.391937
-642.726013 1233.316528 -1118.408936
-331.169403 678.582458 -766.463135
-255.672882 906.210571 -1241.158569
-492.442352 938.190979 -622.161438
-621.948303 765.717712 -1203.167603
-502.858917 803.075745 -728.613953
-670.200500 784.160095 -1157.917603
-592.986023 849.673950 -723.552246
-379.274963 984.120728 -493.157623
-632.183899 842.859741 -533.887756
-353.290955 739.752258 -1244.546753
-328.141357 824.489563 -771.711426
-612.454163 856.512512 -452.685730
-483.285828 923.547668 -458.758423
-382.729401 922.590149 -1153.024780
-365.900360 949.772278 -1181.232056
-272.708374 710.096802 -784.805664
-499.199249 916.077271 -398.326782
-618.303040 843.063599 -581.351074
-429.741821 943.811584 -460.398132
-641.862244 655.407532 -1214.056763
-612.015137 697.854797 -741.449402
-244.314331 700.244934 -815.293335
-519.741577 892.088989 -415.449951
-301.467926 643.994263 -1270.775146
-394.565002 623.324402 -763.991394
-465.903320 949.937439 -378.630829
-365.111511 605.959839 -773.894531
-471.711456 990.994995 -1171.191772
-543.691772 885.986450 -377.987671
-388.387634 726.301514 -767.710999
-379.466949 712.525940 -755.947693
-292.956207 825.645874 -1235.512573
-541.992981 880.452942 -407.380432
-321.888428 830.592468 -1258.019287
-449.446869 644.209167 -1244.978760
-619.184875 783.659058 -709.957275
-585.470947 989.175537 -1167.009033
-550.164368 890.616272 -542.526672
-295.945251 681.783813 -785.391296
-619.487854 840.643433 -457.247223
-258.449249 641.664124 -809.348022
-267.441376 679.350403 -797.793945
-285.242310 662.004639 -792.592773
-478.211487 852.856262 -1122.059814
-496.474640 915.225464 -1137.717773
-438.252960 749.519653 -1247.868042
-589.521423 866.921265 -408.176514
-276.416016 907.167725 -1239.004028
-635.352966 849.291077 -370.406372
-695.044495 586.304199 -1188.744141
-358.937439 667.465515 -1260.952759
-539.936646 918.017822 -365.785278
-398.192169 972.562683 -514.252747
-595.094666 859.008911 -372.759674
-590.491882 560.509216 -762.069763
-438.315521 727.717651 -1230.550171
-341.967682 803.287964 -1233.595459
-578.273438 751.650452 -737.469055
-654.111816 668.460449 -1227.302246
-387.097168 613.234192 -776.622498
-526.940369 1035.235352 -1137.789185
-619.997314 840.039429 -448.656494
-305.484802 649.321838 -810.563477
-495.576630 909.498291 -349.946808
-408.965912 948.737366 -450.835999
-418.901306 638.322327 -772.729614
-680.609070 805.519836 -491.532776
-436.995117 622.980835 -767.256897
-272.491821 634.019104 -848.733215
-469.558716 560.973877 -1253.703003
-283.712036 701.843384 -799.767700
-635.960144 848.447510 -401.488708
-567.166809 829.063477 -1085.060303
-301.442383 714.484375 -1248.207764
-235.990280 710.118286 -808.440125
-449.065765 940.077515 -482.981415
-396.480804 690.291199 -1240.265869
-384.574829 539.638855 -806.912842
-439.247711 943.972168 -456.680634
-546.473999 1152.015259 -1158.793701
-411.431000 858.765442 -1221.068359
-392.859894 720.525146 -1252.308960
-214.691818 844.035950 -588.300415
-380.557892 569.778076 -1256.107178
-388.957581 766.524658 -1246.420410
-647.664673 829.134277 -489.454987
-283.285095 779.064270 -1259.119019
-527.498108 624.007690 -751.530518
-533.449158 768.053162 -725.134888
-603.346741 758.366882 -729.527954
-368.946533 995.484802 -1219.693359
-528.554382 914.981689 -420.835358
-421.477356 620.030090 -783.783569
-500.756439 912.920959 -592.131958
-419.397461 749.720703 -1254.942993
-613.592163 1031.743652 -1097.716797
-490.567749 714.862976 -763.313965
-407.323914 587.107971 -1263.175781
-465.492859 923.822388 -1150.959839
-379.161835 724.744019 -769.431763
-464.773010 606.296204 -1247.886597
-309.016083 764.691895 -1267.201782
-307.779694 669.096130 -1256.950073
-335.957062 638.304626 -784.279785
-393.715576 804.075562 -1252.348145
-577.130066 877.647827 -377.004974
-537.352905 637.854126 -1233.375000
-406.601227 954.792908 -421.094727
-589.154907 639.855286 -1240.208374
-281.458954 858.410889 -1247.980469
-658.225769 580.176025 -1224.955933
-351.637177 783.177124 -1249.257446
-639.378174 782.548462 -737.180725
-263.003815 652.648193 -805.309326
-554.143921 833.069580 -744.932983
-341.511139 859.127136 -750.881409
-364.313324 620.603394 -782.302673
-628.273560 844.390137 -424.657196
-443.533844 540.346008 -779.179443
-620.417908 742.920105 -1210.344116
-760.837830 540.848267 -1187.885254
-359.561188 953.139648 -1222.161255
-639.078796 833.355713 -385.055542
-480.757904 912.313904 -452.645264
-414.779053 727.882446 -757.207764
-469.770660 848.417480 -745.339600
-457.219360 925.048584 -462.578949
-477.914856 635.659363 -763.344849
-628.444397 723.306946 -1185.501953
-269.288055 863.018677 -1263.291016
-241.566345 993.946228 -1235.202393
-655.181274 822.139099 -438.530029
-633.241577 1233.076050 -1135.272583
-625.518250 726.628235 -1207.158447
-375.964081 612.859314 -1251.731812
-658.710815 695.979004 -1186.968018
-335.065460 612.117920 -791.725708
-415.435486 962.413696 -428.300751
-566.708984 646.004150 -749.128296
-630.517334 841.770081 -597.182617
-573.812683 886.602600 -596.346741
-467.087585 666.501892 -1233.520142
-432.923584 595.647095 -759.023376
-433.286865 629.504028 -766.855835
-420.866333 962.531860 -625.543762
-430.760529 952.033142 -546.670959
-265.498810 662.454590 -828.870911
-429.966736 862.295532 -756.612427
-360.350739 967.656982 -1216.390259
-447.599365 850.116211 -1206.378052
-569.208313 885.350769 -316.299225
-632.509766 839.958557 -424.678680
-473.122620 932.243591 -476.838379
-675.879517 554.971191 -1208.239624
-262.609741 813.953613 -740.714294
-643.436829 625.743042 -1233.151245
-278.553314 693.037842 -803.641724
-636.850586 846.816162 -428.649872
-562.873596 886.257080 -465.303894
-415.641815 593.308289 -1244.312012
-415.605194 891.102295 -746.002563
-580.156372 693.485291 -1200.824829
-775.172729 675.883484 -1183.588013
-595.268982 859.253601 -399.840607
-398.440002 921.519714 -1157.872192
-406.637878 865.464783 -1212.175659
-416.780853 931.222900 -1177.469604
-383.939880 789.217590 -749.617126
-365.533966 565.300110 -788.861145
-368.786163 648.781067 -1266.194336
-373.506622 851.980713 -760.524597
-737.453552 882.070557 -1153.048828
-574.042786 595.600464 -1238.007690
-436.988342 506.852936 -822.170593
-290.735291 825.756531 -1250.938721
-504.220825 905.429138 -380.810425
-661.822998 622.194153 -1199.754639
-506.551117 599.063354 -1247.695801
-437.833313 709.519958 -1068.161133
-360.125763 580.951599 -798.402771
-632.175659 846.304138 -522.302124
-308.738800 818.402039 -1256.318604
-421.991119 778.370178 -746.667603
-726.123535 577.286255 -1177.897095
-419.774597 970.754272 -398.442200
-429.258636 640.067749 -1138.674561
-273.637115 923.725281 -1227.774780
-448.486359 628.874817 -787.527588
-318.648834 632.455627 -811.514160
-477.893311 932.835083 -597.084412
-539.058167 586.686584 -756.069031
-591.528564 871.866394 -579.697205
-748.499390 564.312988 -1189.515747
-366.806488 704.636047 -768.733582
-464.574768 764.713318 -1197.311157
-384.276184 747.400391 -751.955811
-251.838470 696.817993 -804.476929
-598.763245 762.641724 -1222.501709
-552.870239 641.393494 -1244.533447
-605.336426 808.685913 -724.641235
-436.639160 944.924988 -561.302795
-648.820557 830.343201 -562.199463
-392.297272 565.736023 -779.768372
-496.620544 797.199524 -1211.328979
-454.096375 884.239380 -1135.372070
-546.486816 1004.650574 -1184.307617
-638.492859 596.278625 -1226.077515
-613.553101 848.796265 -727.028687
-747.115967 890.150513 -1171.012329
-575.534729 644.767334 -1213.887451
-480.504395 913.915527 -730.325928
-448.145935 508.635223 -1250.692383
-597.729858 856.316833 -462.627777
-530.109619 556.229614 -1230.678833
-549.823059 902.948608 -525.907349
-543.072571 910.091003 -355.755707
-571.934082 776.807434 -1226.830566
-368.399567 666.549255 -1246.276733
-312.947968 767.112671 -1255.758423
-507.010254 901.031311 -525.323364
-509.485565 1087.818726 -1179.925415
-430.841156 719.323547 -756.033752
-351.870911 918.110046 -1190.482056
-622.913025 984.775574 -1171.164673
-286.631409 1012.576782 -1225.378296
-310.728668 584.256165 -800.918518
-553.206604 962.269958 -1143.804199
-383.325287 945.520752 -750.453308
-453.076233 654.658936 -1209.267578
-500.556183 933.859070 -615.358704
-443.834656 862.609253 -740.091858
-632.048889 626.859985 -1223.406738
-596.248657 856.656921 -727.433838
-513.586548 648.314392 -1237.379028
-310.206573 646.585938 -787.245300
-581.150269 1127.228516 -1131.061401
-376.278809 809.001648 -1243.091797
-481.068329 877.834595 -1154.719727
-368.879486 786.074524 -1246.364990
-549.682556 899.222168 -372.685333
-407.407043 815.478638 -1226.355347
-255.424896 864.788574 -1262.947632
-704.302002 888.747803 -1149.397949
-490.879456 626.892578 -763.412537
-502.281677 811.931091 -1216.583496
-428.867645 689.640015 -1127.486450
-513.397461 906.699707 -392.377136
-475.079102 919.176819 -417.847595
-402.061554 966.416565 -494.104828
-272.728851 650.410339 -811.658264
-352.009949 574.567322 -1287.390503
-339.543854 640.111755 -1263.787354
-563.381042 880.202454 -427.170227
-589.852478 771.200684 -746.076782
-507.147095 597.395325 -765.463806
-778.999390 909.087097 -1186.387207
-498.124939 917.844116 -476.203461
-409.415100 682.422668 -1180.250122
-661.529297 809.357849 -398.891907
-378.924591 856.546448 -1230.784302
-410.946198 755.528320 -753.415283
-465.966156 939.688599 -333.170929
-650.528320 721.054443 -1176.409546
-257.789337 854.746216 -1264.580322
-626.120667 843.086243 -489.718353
-642.143799 741.409424 -1204.608276
-282.340179 740.578491 -1277.407227
-318.410065 1015.738770 -1223.402222
-435.043091 618.609253 -782.128967
-500.429199 920.034973 -460.894287
-559.993469 870.868713 -440.830719
-299.156494 797.319824 -1251.503296
-277.464966 755.079163 -788.125122
-387.738953 688.892883 -1241.581177
-512.956482 569.869324 -1259.567993
-670.778320 814.227417 -1162.333130
-513.104370 727.046631 -743.297241
-445.149323 957.316406 -372.487640
-645.849487 664.024475 -1182.780640
-592.013306 715.839417 -764.852051
-477.299500 750.438782 -758.130127
-555.390808 639.538696 -1256.631104
-415.142365 893.609680 -737.104919
-391.683655 572.621399 -776.384460
-273.515961 688.722046 -792.708191
-553.354797 859.022705 -727.336182
-365.009796 756.511230 -763.074402
-357.805511 553.458130 -1274.027588
-501.061676 1074.088257 -1170.195068
-425.307953 765.873047 -753.687683
-522.034546 497.517548 -783.946045
-519.834900 898.108337 -405.294067
-385.470703 750.089233 -1262.577026
-535.982422 723.056885 -747.362000
-629.156494 828.702942 -457.042206
-479.804321 855.871460 -1134.348755
-518.452698 824.760864 -1165.086548
-517.148865 834.688782 -719.151978
-422.095581 742.666687 -753.347961
-627.731567 778.573181 -723.909546
-258.783752 963.142029 -1238.207153
-247.543472 951.072632 -1238.032471
-330.509827 887.268921 -1225.619141
-455.594910 515.826599 -806.314087
-490.846466 965.779114 -1164.726929
-787.198364 652.449341 -1180.633179
-351.468048 551.718140 -823.334839
-403.792847 763.053711 -761.772095
-432.467896 950.726379 -536.662537
-475.874847 554.146912 -793.159912
-575.080322 1200.502930 -1135.997559
-426.859528 959.466064 -531.378784
-627.048645 785.702087 -733.329651
-403.828705 559.323181 -1260.648560
-296.024384 567.600769 -815.171326
-351.329163 626.519897 -1269.274414
-514.812439 506.510803 -778.414246
-259.353790 670.914612 -816.822083
-660.437866 812.240601 -498.628784
-535.852600 1030.309204 -1150.232056
-399.786591 972.735962 -556.135315
-507.877350 910.509460 -364.690826
-550.562561 600.293823 -769.067932
-253.260620 635.514771 -829.232544
-446.691589 546.942993 -784.263428
-528.327942 584.669678 -756.258118
-267.866058 788.730591 -751.330505
-505.033813 926.118408 -416.982422
-358.952118 735.365967 -1253.702148
-390.303009 926.370117 -1183.200562
-389.511383 554.523254 -789.979248
-590.890869 851.408386 -384.573212
-330.567871 630.559204 -777.527222
-267.485352 729.105652 -779.311523
-716.692139 1145.137329 -1132.281982
-468.146790 723.132019 -1069.260986
-318.573059 963.577209 -1174.175171
-444.788025 943.946716 -549.840149
-577.393188 650.225464 -1213.029541
-514.529480 907.767029 -447.623688
-587.383301 752.867554 -1218.601318
-398.259674 555.771851 -1277.903931
-547.775513 1086.918213 -1153.632202
-584.216553 836.064087 -736.762329
-666.256653 821.503357 -540.315979
-513.215332 559.166992 -1247.888306
-531.116394 593.654541 -781.011414
-598.711670 729.992004 -1129.206299
-339.589203 621.732422 -1266.513672
-318.847778 598.177612 -802.550415
-502.572296 820.371704 -1104.819336
-493.036774 814.304138 -754.511902
-307.148468 799.050964 -1265.082153
-310.627045 559.214661 -826.350342
-484.251373 739.113037 -1103.912598
-421.509857 557.531738 -779.983887
-257.972839 656.694153 -846.739319
-444.782349 774.672913 -1235.739746
-427.247925 957.072388 -484.876007
-444.705383 556.416321 -1255.626221
-814.420227 822.096313 -1174.646606
-501.400909 920.160889 -729.547058
-794.491943 708.648560 -1192.482056
-469.767212 680.229370 -754.415649
-448.619904 608.300903 -1245.646729
-672.522339 686.485535 -1222.089233
-499.856201 907.540894 -421.173035
-573.450500 1215.556152 -1148.868530
-638.322327 825.980713 -465.581238
-625.564819 836.974976 -465.349396
-412.867584 546.487000 -799.257813
-487.719360 835.469971 -1227.078613
-781.961975 711.769592 -1164.569336
-494.123779 762.502563 -742.873474
-646.938904 557.771118 -1226.817749
-425.342987 971.697693 -594.868713
-453.409973 948.455933 -630.689331
-466.098022 844.826233 -1204.061890
-435.123077 755.063843 -1040.757080
-459.170563 929.238037 -448.013641
-465.627472 926.219238 -378.699066
-550.672729 900.084351 -727.262756
-682.936646 803.122742 -532.249268
-626.984131 697.727539 -1212.019775
-440.077209 595.393311 -783.825806
-465.553833 512.836548 -811.028198
-296.876129 885.641968 -1237.409302
-412.543823 778.653870 -759.324768
-475.788147 607.369263 -1248.344360
-491.992950 925.545715 -340.772400
-526.722046 797.771729 -722.751831
-467.061218 595.002869 -1239.235596
-453.986176 623.798889 -767.659973
-255.423065 707.355957 -813.731934
-486.940521 841.559387 -1160.717407
-411.022003 775.916931 -752.525879
-422.702576 951.200012 -609.915771
-480.070282 919.443787 -427.690704
-331.019470 855.843689 -747.478455
-517.755737 671.008118 -754.481812
-590.261597 1071.907715 -1096.994385
-424.111908 529.924133 -805.489746
-490.232727 881.154541 -1147.321289
-626.770630 823.435913 -717.772522
-575.555542 872.766968 -617.901611
-464.290863 690.615479 -1096.927856
-591.735535 852.501038 -375.942810
-460.196472 871.544556 -1224.227905
-527.823547 913.179443 -1136.001221
-472.954193 916.095093 -470.945160
-661.964722 720.125549 -1177.708252
-708.665344 1164.516357 -1138.579346
-474.455627 919.294373 -435.663330
-256.108643 636.849670 -823.274719
-684.904846 593.204895 -1213.357788
-605.811218 845.121521 -624.872009
-691.971802 555.296631 -1213.987061
-581.635437 878.326843 -492.880219
-385.749115 651.200500 -1243.693848
-535.409973 562.273682 -1231.854126
-401.263062 729.248962 -1233.541992
-416.362671 875.830627 -1226.416016
-362.986206 682.618896 -1263.071655
-447.250671 638.367310 -763.230103
-346.863037 610.636658 -786.748352
-563.812256 877.594910 -480.057861
-558.966919 895.197632 -367.257172
-400.064453 971.816895 -496.905243
-691.700867 800.305054 -520.900330
-654.441772 620.676331 -1208.451294
-496.011658 560.948608 -792.409119
-460.593262 926.191895 -423.070770
-316.253326 880.919067 -1248.591675
-263.501190 946.357422 -1229.336548
-365.617065 836.073547 -752.844116
-364.067078 609.302002 -1268.391235
-512.679016 585.043884 -762.140320
-495.273163 806.991211 -755.461121
-582.568054 876.963501 -491.847443
-609.309021 850.281250 -376.436951
-571.045593 651.047913 -770.687012
-450.358612 542.593750 -782.204407
-309.759430 736.024963 -793.413940
-354.921295 844.530762 -1240.169800
-616.363281 657.262451 -1221.445190
-561.315002 698.035034 -728.573303
-393.157532 629.527405 -763.190430
-319.181976 801.849976 -1234.682983
-267.206085 794.184692 -735.429382
-617.148315 740.485046 -1132.794434
-651.958252 659.649353 -1186.541504
-405.731506 699.218994 -1252.267700
-424.864716 558.890930 -793.472412
-477.715790 701.655090 -1184.562622
-440.835144 556.910706 -1271.898071
-239.004913 716.100037 -789.577087
-463.541290 937.770081 -404.458710
-518.475281 777.108398 -1165.951172
-413.371124 601.460571 -1247.706787
-279.854858 753.586365 -778.547180
-514.690430 652.955688 -1240.969971
-551.193604 1017.704773 -1188.801636
-429.673950 584.953125 -1260.072510
-586.505920 618.588562 -1247.451904
-447.915497 767.242371 -1246.963501
-379.102081 638.660217 -1233.857666
-323.861908 957.993774 -1221.210693
-470.780029 934.317871 -568.721375
-426.536560 724.554016 -1229.222290
-391.203827 776.228088 -1255.584229
-687.184021 676.399658 -1137.733887
-759.523682 624.176636 -1191.204834
-610.019226 844.578308 -513.594727
-753.114380 629.408264 -1206.093994
-553.413818 875.649719 -393.022308
-505.748169 920.380127 -741.840637
-579.265869 622.611877 -733.363586
-302.841858 643.197021 -783.998779
-481.673431 798.095520 -732.607666
-536.378174 856.091675 -1203.373657
-457.614563 934.575867 -469.874603
-417.291107 809.168457 -1240.746216
-608.828552 844.671265 -475.227753
-498.105621 923.891479 -315.644043
-510.488556 907.205933 -470.629395
-181.486755 741.086060 -727.503601
-577.397034 892.506104 -599.793274
-316.874969 842.814392 -1258.677246
-466.158905 950.570801 -631.651794
-624.408081 733.222412 -1144.210938
-429.966583 578.469727 -799.002686
-451.177246 822.021179 -1211.786133
-318.645721 561.281555 -830.582520
-645.978088 643.984497 -1202.543213
-507.402313 924.841919 -552.411011
-434.227173 766.800781 -742.973511
-596.509949 631.282654 -744.504761
-553.033264 838.159973 -742.559631
-414.091187 973.968323 -584.565247
-583.696289 1257.497925 -1139.507446
-756.443298 869.199158 -1179.391113
-557.690186 889.272522 -438.076477
-509.006500 913.786438 -568.332275
-651.880615 580.719788 -1235.507568
-406.219513 991.015503 -629.683960
-464.175110 931.834778 -402.498016
-659.080261 814.847473 -428.658142
-571.849731 642.995605 -1230.908691
-402.353088 868.010193 -1220.083374
-511.511536 681.370605 -1238.159302
-728.110107 638.015747 -1180.336060
-273.806091 630.095032 -824.534851
-512.505371 913.151245 -497.202271
-535.166443 1078.467773 -1159.939209
-478.041107 976.556763 -1180.785767
-672.031921 809.490601 -589.620850
-563.344543 887.613037 -462.293732
-355.653381 648.821777 -1266.747925
-288.600128 782.015198 -772.214050
-586.309875 681.250610 -1223.929077
-660.955627 638.460815 -1160.406616
-342.738312 982.338257 -1194.311401
-583.037537 1065.114136 -1155.905884
-587.604492 872.923096 -410.322021
-279.551880 628.620239 -845.888855
-253.983475 901.157288 -1244.557251
-304.462830 618.378906 -1264.177979
-497.725494 885.059265 -732.614258
-685.298767 630.995728 -1201.570557
-259.240326 670.811829 -812.440308
-435.412445 966.406189 -366.877228
-266.237579 696.215942 -804.124207
-589.558838 1227.853027 -1142.930054
-597.824707 871.218628 -561.203491
-454.776367 866.684937 -743.916931
-670.813171 752.096313 -732.330444
-505.725525 946.815002 -661.619141
-376.604584 857.407288 -1241.099609
-667.872192 596.460815 -1228.922485
-392.573547 577.566833 -1255.422607
-599.164551 854.915833 -373.225189
-469.790314 690.156311 -1224.332031
-302.515564 787.072937 -1241.522705
-601.752747 561.718933 -1235.769653
-591.005371 768.447937 -1196.508789
-558.433411 1007.895142 -1186.051514
-312.155121 609.782166 -1272.468872
-391.543518 605.235962 -790.686340
-429.882660 951.229370 -572.417236
-339.830200 758.375183 -1254.589722
-478.864655 923.161499 -476.454010
-249.470474 838.346985 -761.016296
-419.552429 881.169373 -735.396362
-497.499420 606.449402 -1245.385742
-560.603516 829.461304 -729.848267
-301.278473 1011.942871 -1211.427734
-558.785217 1245.548584 -1131.337280
-230.625931 835.187195 -637.569031
-665.545044 813.676819 -395.174103
-504.877258 610.807617 -760.922913
-266.061920 804.291443 -1256.745728
-372.404968 633.989990 -779.904480
-322.419525 704.998962 -1246.245117
-409.479340 960.329224 -524.576538
-456.802032 577.378784 -1242.168945
-282.482422 795.957642 -784.210083
-483.241241 933.296204 -575.588684
-396.052032 608.117920 -1236.089600
-364.366638 661.411560 -1246.147949
-459.939026 929.884155 -533.985107
-601.392273 636.375061 -1225.115845
-544.335449 632.077087 -767.342896
-299.882660 781.316528 -755.459290
-485.197083 917.497070 -361.300049
-442.953369 765.935303 -1236.567383
-650.785645 661.907410 -1193.872559
-446.679077 929.452942 -420.365295
-412.969025 871.427795 -741.141357
-279.746887 674.884949 -785.624634
-432.221436 956.666870 -593.989319
-756.815796 902.652832 -1167.509033
-607.110413 855.510376 -452.488251
-549.356018 876.699097 -389.260162
-260.181122 737.226501 -803.660950
-614.271545 595.291626 -1216.162354
-309.379303 882.154358 -1222.462524
-624.039063 664.967407 -744.750854
-263.422028 782.116760 -1272.063721
-341.675537 716.583801 -791.115540
-283.485138 780.186523 -780.726868
-545.447388 886.355164 -462.640259
-424.296356 597.269043 -767.901001
-314.211609 837.806458 -761.207275
-572.871582 904.118835 -333.970795
-650.221497 623.818176 -1202.594360
-342.916779 687.846619 -785.933167
-452.657562 614.766846 -766.420654
-371.833740 614.735046 -783.302063
-363.204529 617.519714 -780.875000
-506.476959 915.373474 -340.829071
-438.991455 948.780579 -638.775635
-623.332520 851.988892 -575.479614
-697.949768 607.901428 -1173.952515
-395.813721 905.180603 -753.676270
-612.980774 686.082642 -1219.769287
-314.907837 618.433044 -794.347656
-499.414734 906.510559 -556.822510
-550.863892 626.007263 -1236.233276
-250.999069 708.564697 -796.180481
-357.578705 568.564453 -1266.819336
-585.478210 864.252686 -435.681030
-248.350784 810.360657 -789.090454
-577.619141 741.976257 -1193.082397
-382.355255 560.472778 -804.067444
-521.747803 536.832336 -791.803406
-308.135193 708.946350 -1265.471436
-589.792725 575.338867 -730.582825
-506.930389 504.398560 -782.546143
-369.843323 969.162964 -475.403900
-512.965149 798.286987 -738.262268
-359.964630 671.417175 -1264.102539
-360.042358 823.767334 -1250.379150
-488.003876 667.277283 -1220.568115
-367.632996 861.356873 -1241.094849
-437.792847 539.019958 -794.057190
-610.095093 725.104126 -751.467041
-468.478851 647.459351 -758.474304
-478.605682 819.323303 -730.727539
-324.712921 912.717224 -1225.083618
-432.158325 949.549316 -417.224365
-341.993713 835.199768 -1232.325562
-412.935638 532.374451 -1253.230957
-682.720337 812.580444 -577.067627
-590.102112 883.072021 -439.144501
-595.723328 551.982056 -1222.081787
-388.438934 651.328430 -770.875916
-643.511536 564.619568 -1228.382080
-527.326843 976.693359 -1143.441040
-553.747803 884.563232 -642.229004
-608.522034 1185.225464 -1132.221191
-582.612427 869.467773 -463.867706
-553.783997 884.464844 -340.439697
-501.849701 901.303345 -391.301880
-655.725647 540.367065 -1215.251953
-549.218933 586.673645 -1226.374268
-423.103546 634.196289 -773.979004
-602.106873 854.511414 -402.842468
-639.178528 1244.117554 -1151.156372
-335.349457 575.780212 -1272.841309
-426.996460 821.170349 -740.207581
-438.288635 682.963806 -778.253601
-389.384186 640.026428 -1264.006958
-376.307922 552.256226 -838.754578
-250.832184 866.028931 -1238.029785
-517.198425 598.790649 -1229.841919
-353.311646 924.876038 -1205.214478
-612.472778 605.601807 -1248.994263
-288.338623 845.469421 -1236.603638
-677.630310 841.951965 -1155.554443
-433.914459 971.773804 -615.255371
-384.337402 967.152649 -427.208618
-508.816010 907.171875 -508.183868
-474.912659 531.417236 -803.245117
-495.381805 677.951477 -1187.066406
-480.805359 764.283508 -1231.774414
-272.424622 888.183472 -1256.758789
-341.077911 827.665161 -1244.011597
-520.160522 907.660400 -536.952881
-515.234070 905.423828 -364.243988
-542.611877 550.351013 -753.595520
-633.701294 716.215210 -1219.492310
-281.941681 633.486145 -798.176392
-455.724152 940.682800 -505.396271
-313.373810 750.149536 -1270.428223
-503.763550 539.987549 -762.115784
-325.783966 667.075623 -1266.256470
-543.023010 880.020386 -396.868164
-587.235535 858.592346 -720.839844
-302.508759 905.754883 -1208.741333
-693.150391 828.390320 -395.815247
-552.112305 901.811279 -500.496124
-417.013214 827.355774 -1217.073364
-401.000092 671.762329 -753.271545
-555.728027 539.548950 -1241.276367
-490.146210 887.177917 -1173.780396
-397.313477 988.733276 -1198.118042
-484.346893 813.064880 -1224.986084
-498.982788 914.779053 -441.932068
-542.515686 725.359253 -743.357361
-373.064423 929.953613 -1173.678589
-675.875916 735.401184 -1002.773254
-442.655396 619.350647 -1223.497803
-567.361633 906.847961 -1099.052490
-584.611084 876.576416 -428.120392
-278.461060 973.920654 -1238.714233
-360.277496 581.716553 -785.947327
-367.820831 844.504333 -742.576721
-662.935120 633.028687 -1146.895874
-505.556244 904.770691 -491.296265
-443.452118 867.054688 -1138.603760
-279.254456 651.653931 -822.868103
-456.887848 965.029175 -1166.409546
-283.325775 756.516113 -772.462952
-495.148804 600.779480 -766.671326
-413.136932 835.108215 -1244.390015
-294.620087 1046.985718 -1199.659058
-477.955353 734.742615 -1220.547607
-269.202393 720.024902 -786.276672
-452.510559 702.718872 -1224.615845
-461.441010 939.825256 -606.171265
-482.995148 744.691345 -1204.395264
-545.640930 849.854614 -1165.199341
-567.655151 697.667725 -1191.319458
-521.172119 945.223999 -1143.890991
-416.400269 748.929993 -753.301331
-383.541626 849.528687 -751.928589
-655.143799 819.642395 -455.779022
-589.393005 943.790833 -1166.406738
-580.927734 538.422729 -771.533325
-614.617554 844.213562 -598.665283
-371.939575 672.775696 -782.881958
-673.497742 804.775269 -543.982178
-411.727722 847.247314 -1239.862427
-415.836365 950.141541 -440.454346
-499.927643 569.043091 -771.324036
-416.154938 912.792419 -1189.587646
-476.250580 920.002930 -488.790375
-610.526428 759.090210 -714.451782
-444.695313 583.422485 -1241.383789
-692.923828 694.250977 -1168.613281
-393.999603 729.041931 -1245.708618
-450.511200 929.657776 -416.816345
-660.168030 594.033630 -1214.866577
-485.606628 570.593262 -764.915833
-535.116821 767.033569 -1186.853149
-561.184814 882.533081 -382.379944
-355.866669 582.888977 -1272.689575
-429.432068 947.802673 -511.506775
-554.506409 882.710815 -363.083038
-472.671875 925.983521 -466.870209
-557.526306 518.286438 -752.476624
-317.460297 697.431396 -797.394043
-314.902313 730.334167 -1270.428955
-698.330383 658.885437 -1174.909058
-723.798584 593.230896 -1221.325928
-390.233795 792.904175 -1226.173950
-331.582031 749.274231 -1255.724731
-649.316650 823.119568 -376.155975
-628.593933 662.542114 -1202.284302
-415.532745 958.758728 -531.062927
-477.876404 927.926208 -575.201599
-547.250244 912.232422 -659.018555
-417.231049 849.013306 -751.686951
-561.644348 630.561035 -747.801208
-569.012085 592.487610 -778.432007
-347.646027 675.167175 -1249.526489
-680.495605 571.913025 -1212.615601
-669.410645 820.157532 -723.740417
-294.396149 906.318481 -1222.989380
-387.011688 771.711304 -756.519775
-497.011597 593.817749 -1249.583130
-523.292847 581.481384 -749.973755
-670.666382 707.191711 -1175.663452
-485.561035 896.427063 -1179.441284
-305.286194 720.837280 -1262.732666
-262.071014 917.030518 -1231.516846
-526.810242 604.658752 -1226.299561
-417.162476 871.534363 -749.515015
-611.125916 847.657837 -392.460052
-383.162292 803.750977 -754.457092
-501.703918 1002.874329 -1163.077515
-562.439880 950.704102 -1181.273926
-420.567535 557.662598 -1261.924927
-446.661957 938.510864 -417.294342
-386.732971 620.232605 -778.368958
-443.039154 954.668335 -547.869019
-302.836365 649.420288 -803.020569
-254.419312 796.624146 -757.935791
-395.556183 606.662048 -1212.778442
-394.135742 634.110596 -772.499939
-584.596985 692.826294 -1088.736328
-437.187988 970.709473 -371.207062
-406.077942 568.682922 -772.719910
-449.067474 735.065796 -1241.085693
-526.101685 918.885071 -621.965454
-279.917419 719.674316 -781.485962
-395.019318 735.988403 -750.816040
-344.691742 623.605042 -1267.476440
-597.155579 729.212524 -733.253784
-327.076172 591.553894 -809.070679
-442.216339 935.808044 -436.632629
-643.750488 707.917969 -1156.062622
-356.449158 873.748901 -1236.492310
-777.031738 859.906067 -1195.367920
-539.455505 721.892517 -1224.053955
-293.504730 889.183289 -1250.943604
-478.433624 923.569031 -367.825684
-612.300903 852.772888 -485.611176
-643.717957 704.782104 -1200.646484
-549.988464 654.388367 -1235.736938
-634.625305 845.663513 -591.386902
-551.075562 880.470642 -390.627869
-503.125397 847.488159 -1171.500244
-653.993347 666.008850 -1203.951538
-593.165771 660.153625 -1225.295044
-286.828766 714.347839 -1274.228027
-406.370361 832.136536 -1236.148193
-668.572815 757.108765 -1177.867310
-502.362518 908.522522 -601.842834
-398.253448 648.724426 -774.620911
-565.412537 892.160645 -570.945679
-436.776306 958.557068 -367.384430
-289.871002 1014.748962 -1213.811035
-499.536011 781.775574 -748.632813
-454.308960 722.403503 -1098.815918
-600.016357 856.681335 -490.753967
-488.159821 627.113708 -1241.871948
-314.437744 988.074951 -1225.594116
-364.002991 840.290466 -1239.296265
-363.614227 651.970581 -1242.495605
-352.307190 623.662476 -774.034119
-472.521454 920.817505 -508.270813
-656.599670 739.015991 -729.383423
-317.229767 854.721802 -1243.835083
-639.224792 847.913757 -369.408783
-547.069946 895.461182 -722.013245
-511.668335 735.435242 -769.196655
-562.250977 852.621887 -732.013550
-540.780701 617.858704 -1248.626831
-499.526520 695.911743 -1198.224365
-610.007751 860.154785 -450.054993
-585.542664 670.462158 -745.937073
-645.239136 870.119690 -1093.116821
-686.354980 796.459595 -507.612549
-469.849762 939.618347 -571.169556
-508.424774 909.703491 -493.443909
-341.438110 669.224060 -797.362671
-517.317871 921.155273 -727.197021
-473.318634 929.611633 -357.204132
-726.638489 817.228821 -1176.485596
-501.123199 563.343933 -1239.234497
-559.379883 556.607483 -1230.466553
-447.628113 945.154907 -556.618530
-651.747498 834.751953 -597.052979
-476.131958 923.464905 -562.654663
-263.237213 790.102234 -794.235046
-312.574982 596.285034 -841.313049
-526.763672 889.955139 -546.891418
-516.649658 569.690613 -1231.958984
-456.630524 539.342590 -769.279114
-661.960815 822.258728 -531.811035
-613.221191 836.819641 -393.662720
-567.867310 1236.529785 -1140.668579
-593.662476 1199.665649 -1132.965088
-511.498932 674.191772 -748.910461
-422.151001 770.832520 -1252.969971
-456.871521 951.098572 -619.626038
-294.299225 626.018555 -806.419678
-773.183838 888.905029 -1188.610107
-534.719788 904.510620 -502.708740
-457.308197 806.742615 -1214.271484
-583.671265 882.136963 -591.351074
-517.324341 850.624451 -1150.913818
-528.678772 894.077148 -375.799164
-399.568634 722.388977 -747.820190
-734.126160 705.862427 -1159.704712
-539.482605 1116.065918 -1138.831787
-281.570282 849.119568 -1246.671753
-532.214111 494.731506 -792.075806
-486.271179 1020.019836 -1168.268188
-404.229767 582.263916 -775.302856
-416.634583 779.447876 -1241.480347
-399.835602 545.696594 -786.084656
-450.671906 869.967957 -1219.397339
-510.578308 535.861694 -774.859070
-333.446533 716.511047 -764.030884
-545.195801 606.925110 -749.896545
-288.276581 938.750854 -1235.151123
-250.086639 755.614624 -802.454712
-653.972839 805.019531 -1170.366211
-334.740906 713.395569 -1270.465332
-370.283325 978.516663 -470.633545
-420.447968 704.713867 -765.223083
-400.125824 630.860107 -1242.471313
-631.182068 629.276611 -1234.198242
-471.863739 928.677673 -471.162872
-366.724518 598.649780 -1266.552979
-418.464294 643.865051 -1196.061279
-510.693573 865.107849 -716.939453
-626.160645 670.720520 -1201.608765
-603.776794 863.599548 -504.191742
-374.207916 737.128357 -1267.996094
-483.379944 513.731262 -791.734192
-373.665070 644.393005 -787.754456
-430.787445 655.808350 -765.669556
-438.413757 952.052917 -538.622681
-420.714600 513.727539 -828.782166
-513.855042 908.866638 -562.206909
-462.093109 536.498718 -786.963135
-324.001495 778.238220 -1252.325317
-486.547882 911.745422 -1163.845337
-614.587891 833.508667 -719.940735
-550.456543 889.956604 -490.766113
-537.923645 700.312988 -752.552917
-451.520172 541.428162 -786.103394
-571.472778 885.996704 -601.307983
-291.843872 668.202576 -787.954468
-601.232300 855.561218 -442.315552
-632.636536 843.197327 -507.418884
-494.558197 865.368164 -1201.846191
-511.030579 1043.843872 -1161.460693
-288.652252 637.747559 -813.278625
-589.564697 875.143250 -517.739380
-473.391083 692.437683 -759.145874
-724.884949 583.275635 -1201.807983
-329.579163 898.137634 -1213.328979
-679.943176 820.207031 -386.582184
-430.121002 764.979675 -1238.878662
-333.276367 752.012756 -1270.569946
-504.022644 1058.895020 -1193.847168
-489.984650 619.023438 -755.140259
-585.601501 776.131470 -750.154907
-586.316650 1047.835571 -1184.615845
-479.577087 616.775024 -1251.029785
-394.281219 917.387329 -1168.346191
-488.477386 827.965576 -1098.609985
-579.152832 888.455627 -591.457947
-485.171112 711.932129 -748.521362
-594.725952 856.115662 -575.506958
-355.566437 747.905518 -1236.541504
-529.207153 622.547241 -769.397522
-676.744446 678.432922 -1222.873413
-513.734070 1079.760864 -1163.895386
-441.841888 942.019714 -386.481323
-472.268768 929.945740 -509.985321
-427.683594 587.344666 -773.677551
-327.177185 863.520874 -1251.787476
-381.495544 866.549255 -757.812134
-460.134369 610.134644 -1263.109985
-632.121338 836.622559 -498.308929
-494.274109 577.020325 -766.067993
-474.744202 539.355103 -1257.779785
-621.451782 626.877197 -1224.194214
-676.677490 738.428345 -730.273132
-419.117584 668.329346 -1237.178711
-403.713562 964.335205 -506.777496
-464.722931 935.159668 -495.292023
-402.009369 716.761658 -760.982422
-372.352600 697.816711 -758.721069
-277.811493 751.862488 -1249.642456
-705.971985 791.327515 -541.393677
-242.026306 646.053772 -832.284485
-799.267517 752.039551 -1185.046143
-511.600586 906.384033 -740.162476
-323.758209 909.374146 -1218.444702
-584.271423 857.035645 -466.890778
-444.686920 678.876099 -1156.424805
-476.913116 930.134399 -565.946106
-534.459351 616.350891 -1237.388184
-399.052765 728.160461 -1247.689331
-389.677582 693.407043 -766.594666
-282.540955 630.321899 -815.735413
-526.403137 590.214294 -1231.786377
-329.812866 679.814209 -1251.958862
-567.250610 876.770691 -452.874146
-389.601685 780.606018 -772.105469
-207.649963 810.291077 -562.244324
-408.126282 956.482300 -436.033997
-502.997253 915.942017 -504.281586
-514.821106 847.909729 -1156.591919
-440.846161 891.129761 -1161.944336
-410.447266 725.991638 -780.790649
-457.014862 926.359436 -511.469025
-623.209900 558.285767 -1213.927979
-525.088806 892.544434 -1110.667603
-481.305939 541.330750 -795.610291
-560.309265 871.274048 -437.799377
-392.868103 536.186584 -837.625427
-691.295715 655.096802 -1205.759277
-469.330170 935.349365 -569.787109
-438.539368 611.140076 -755.343262
-604.724792 861.075073 -567.241760
-534.839539 1053.760010 -1171.325195
-571.590637 648.755249 -1232.009521
-471.801788 790.085449 -1114.922241
-447.751404 955.430420 -624.955872
-452.568756 827.213196 -1226.499268
-295.868713 698.851379 -1256.760742
-364.062622 937.585999 -1153.854492
-478.145538 744.061890 -1220.679810
-666.359619 832.350708 -520.702576
-476.683563 928.427307 -463.613586
-577.160889 848.129028 -724.147583
-532.035034 902.745117 -481.634369
-352.954468 927.899414 -1169.843018
-535.828735 766.221252 -1123.625732
-492.373230 1070.418701 -1172.253906
-588.650330 727.068054 -1190.357666
-519.922302 667.580811 -1232.604980
-271.754547 915.390686 -1246.122192
-556.402771 631.343384 -1256.648682
-463.989166 874.180420 -757.446777
-583.471313 590.695190 -1235.390015
-312.008698 1034.303345 -1185.267700
-474.702698 940.962891 -599.377075
-723.641663 854.560303 -1159.823486
-679.071838 808.481201 -380.967682
-609.648682 625.036133 -742.832214
-418.560181 975.264282 -610.850342
-463.802826 533.682251 -778.319580
-382.046753 590.134583 -1257.832520
-523.782043 734.383118 -1145.014893
-517.909790 909.119690 -442.464783
-416.714294 579.135315 -780.325073
-474.978912 680.006592 -773.693420
-574.696655 871.692688 -383.935028
-550.692078 752.658203 -1214.262695
-520.372803 730.577637 -1173.262207
-521.633911 674.935669 -1251.438843
-641.809204 763.972168 -1162.002563
-265.056854 941.959656 -1228.635132
-617.060852 732.459229 -1211.376953
-285.773590 897.064819 -1251.360474
-376.222534 585.315552 -1269.434204
-433.709839 558.040222 -787.125305
-504.948608 515.066345 -777.046082
-519.273376 601.123108 -747.497192
-309.442261 856.955017 -1243.189697
-239.288116 829.068726 -594.028137
-340.551727 698.075073 -775.960693
-249.790924 897.965210 -1243.474365
-613.312134 849.445251 -512.400635
-283.083893 732.350830 -1262.288208
-606.716370 803.399597 -725.633728
-524.984619 743.590820 -741.445496
-280.538574 836.398621 -1239.406006
-456.674164 746.245361 -1239.156982
-483.574707 929.799500 -520.019287
-486.487610 923.923218 -541.777832
-610.572510 649.304443 -1236.168091
-667.565857 674.524719 -1137.694336
-515.039490 821.251770 -1087.358643
-663.048279 821.198975 -1073.354492
-625.569702 769.746460 -1199.640259
-470.047882 932.405701 -554.753235
-427.010437 528.891602 -1264.030151
-506.187866 915.295593 -345.131500
-593.808105 608.913757 -1230.882690
-512.070496 691.267212 -750.500366
-423.985779 698.983154 -1209.686646
-540.291992 653.130859 -754.898499
-590.183655 602.020569 -1215.507324
-457.451630 926.461487 -530.109985
-461.355988 648.184143 -774.403320
-361.298065 710.884033 -1256.028198
-418.828094 726.992737 -1247.847290
-324.220001 859.807922 -745.268494
-494.548523 916.068665 -499.928406
-524.327759 808.097534 -724.414429
-393.936615 971.190063 -479.969086
-293.487183 698.101135 -797.730286
-401.997833 559.994690 -788.161011
-593.957031 871.808960 -458.227234
-537.850586 883.593872 -517.065063
-434.152344 982.889343 -360.985504
-431.165833 869.432861 -1177.264526
-350.398956 808.514648 -769.532776
-288.118164 726.454163 -771.088684
-487.794250 713.098328 -1167.840942
-293.323059 706.846497 -778.771118
-702.538513 590.277161 -1183.731934
-519.731567 902.167542 -467.677399
-486.073395 549.887939 -1256.556519
-333.077087 723.403381 -776.905090
-690.902527 806.721741 -546.141541
-641.655945 820.630432 -724.729309
-265.297791 798.968628 -1242.969971
-567.043518 860.885315 -722.453552
-431.735718 776.886414 -1222.724609
-518.675537 909.101746 -433.998169
-446.572510 947.662903 -549.170166
-412.011200 598.497742 -1246.597900
-580.184265 1224.072754 -1131.134521
-663.945374 784.657471 -732.572937
-494.207062 1029.845093 -1195.542603
-465.864319 844.951965 -1132.366333
-264.740662 893.108582 -571.991882
-330.766968 776.051514 -785.482483
-603.942993 853.243042 -557.512878
-544.466309 836.711426 -727.402710
-501.601746 647.732666 -1253.782227
-546.075806 605.596130 -757.193665
-486.285431 920.503967 -509.696808
-651.000366 843.760193 -1102.982422
-340.720856 607.620056 -1278.951416
-546.320496 695.160217 -748.596863
-644.917419 827.455444 -551.200989
-622.704712 703.303284 -747.477844
-693.304626 584.150879 -1173.699951
-466.412933 517.658508 -813.835388
-647.755005 832.916504 -444.283844
-662.036438 627.324951 -1182.386353
-588.534729 863.768066 -466.613007
-525.938232 618.542725 -1238.122559
-621.663574 842.912048 -421.346985
-468.520081 857.348999 -743.273621
-555.151855 1058.127930 -1194.656982
-443.262543 935.610901 -389.728668
-450.465118 940.382141 -344.855042
-626.612610 709.648254 -737.782471
-589.843872 587.466431 -757.504150
-349.527008 622.958557 -1266.419922
-560.290955 902.664551 -616.745850
-435.125153 706.236267 -756.556030
-585.041565 766.072693 -748.461182
-586.301697 656.136902 -739.587830
-591.082764 723.326782 -764.227112
-580.056763 743.248230 -1229.363892
-406.087372 946.101074 -1196.491699
-423.521729 582.445862 -776.591797
-552.452026 907.229065 -577.445862
-587.182678 799.831299 -737.737244
-472.712585 760.086426 -1108.022217
-473.561584 795.148193 -757.013306
-506.213837 856.581909 -1219.633545
-252.003403 655.014709 -819.324402
-472.745361 603.438782 -1272.373657
-688.368286 809.469666 -596.316467
-345.213379 840.059143 -745.791687
-559.196045 871.763977 -510.726715
-671.920044 814.010498 -428.139832
-318.003174 801.739563 -1239.701172
-659.562195 824.412231 -566.078186
-546.565369 897.437561 -580.125671
-481.753082 651.603577 -776.222473
-477.451508 975.123413 -1173.910522
-707.358887 643.290344 -1158.776733
-305.345856 618.216614 -824.932800
-249.886139 961.511963 -1225.291016
-319.830872 790.154663 -775.109131
-449.561249 736.285645 -750.783325
-488.201599 933.375549 -422.354187
-479.091705 936.892456 -503.882843
-389.610443 816.904846 -1250.696655
-770.675354 814.616882 -1161.913208
-509.218445 557.638794 -752.281860
-252.489014 976.006348 -1234.434204
-736.425232 911.876526 -1193.490723
-593.508606 869.799927 -476.666199
-541.263855 1088.079712 -1138.705933
-454.887573 940.909973 -339.653290
-300.830322 642.228088 -814.742859
-287.042175 623.943481 -817.592224
-317.441437 856.560852 -1249.476807
-342.546692 637.844177 -1267.229492
-495.976135 918.191101 -528.949585
-377.127197 537.776794 -815.001221
-559.283142 565.384399 -747.125549
-625.138733 640.830139 -1241.118042
-350.396912 908.860535 -1192.114380
-363.192627 649.494873 -1264.447998
-670.093872 622.905640 -1195.819336
-486.065735 923.673462 -508.481232
-374.069153 900.303894 -1224.050171
-635.525452 829.874939 -539.104065
-353.890167 583.623047 -788.381348
-569.749390 755.457825 -1194.919678
-406.633667 774.813721 -1249.708008
-275.143494 744.942871 -1273.443237
-427.875397 652.227722 -1163.760986
-299.972534 788.142517 -1254.869019
-567.112244 885.938477 -439.398956
-452.426270 936.395752 -561.853210
-338.526184 869.161438 -1250.222900
-413.468170 524.100647 -836.076660
-685.894592 583.289734 -1194.802979
-267.551697 744.147095 -1264.012085
-349.065948 717.693176 -768.526245
-540.903870 918.707458 -622.610962
-544.646423 653.642395 -746.352112
-268.665283 606.076538 -818.062134
-430.212341 952.332764 -629.184509
-327.065063 585.046997 -811.850952
-606.536987 844.848816 -449.225311
-579.525269 648.332031 -751.362610
-371.416870 732.247131 -1252.697021
-380.886658 853.655212 -1243.413940
-747.859680 694.427979 -1163.648926
-309.621216 803.534119 -761.075684
-321.517090 724.825989 -1258.306274
-592.193359 816.591370 -740.711060
-455.100159 629.875061 -750.006531
-391.920624 858.780884 -1230.423218
-493.787079 645.763611 -1226.943604
-376.801636 715.538391 -767.072205
-552.829773 911.261963 -621.211548
-402.474792 965.364624 -524.049927
-566.133667 867.134888 -424.125549
-605.113220 578.249634 -1242.246216
-545.152344 885.000183 -373.051453
-327.529907 691.427734 -765.261719
-537.459106 886.917358 -473.899902
