ply
format ascii 1.0
element vertex 1384
property float x
property float y
property float z
end_header
1057.840576 179.458389 -1053.003906
711.835632 235.390335 -1289.025269
1122.635742 739.409241 -1201.652466
536.369568 304.756226 -893.620667
650.452087 697.697266 -655.923706
729.690613 355.743042 -764.849060
922.955383 48.078255 -1120.520630
526.090149 761.105774 -643.741638
512.305481 295.503052 -888.125854
903.247986 202.629852 -1116.755371
747.500549 272.822693 -1282.183838
1148.646851 342.196960 -1051.470093
1038.858521 444.744843 -1152.599854
750.762573 515.507446 -820.544678
675.302917 276.590332 -766.273132
502.365479 721.242981 -790.545654
1154.284424 366.765106 -1055.815552
829.776794 422.538116 -1137.814453
624.972778 330.005463 -796.464905
690.735535 466.881134 -811.286499
669.543884 712.546631 -595.656250
759.518372 203.814911 -1267.829712
509.790741 728.526062 -718.051636
715.571899 202.446564 -752.540955
718.500000 312.464050 -750.010559
876.204102 124.177437 -1132.738647
858.328430 169.404526 -1207.411743
926.293396 317.133636 -1177.033569
439.661957 766.657959 -719.788879
1017.150146 313.774872 -1150.065796
587.344727 568.136353 -912.731689
826.680542 241.599243 -1235.761963
1065.345093 479.023102 -1142.274780
480.545624 777.575562 -684.221680
996.293823 457.500977 -1205.710693
677.351318 614.555237 -884.835632
757.686951 389.664246 -754.167358
807.183411 564.960205 -767.292664
741.026306 246.850494 -1274.935181
795.301941 246.347717 -1259.626221
813.752441 335.473816 -704.453491
846.316101 216.036331 -1171.398315
991.046082 251.349380 -1156.551880
822.055725 50.854324 -1176.639282
673.069275 693.288391 -661.956360
591.052246 221.987137 -815.995422
600.376892 769.529541 -506.625153
919.397827 155.110703 -1149.135010
769.123596 517.472473 -779.283203
879.238770 125.228798 -1162.203369
631.111267 268.229340 -797.747437
831.170776 127.122032 -1217.472534
661.817078 468.475006 -821.398071
1120.050659 560.486450 -1130.183838
505.099701 728.003296 -740.169556
887.046387 36.496109 -1145.380371
731.213806 238.023361 -1297.622314
1168.296387 662.711609 -1128.561523
1172.080322 249.353592 -1029.928589
653.619141 704.174377 -598.436707
692.496277 678.546692 -746.549866
866.744263 119.916229 -1187.709229
540.391174 412.415466 -910.006165
549.541138 782.254761 -599.944702
477.374542 829.269714 -612.863525
664.775696 356.878296 -793.820801
1068.015869 154.615845 -1054.504395
1054.698242 230.626907 -1092.150635
782.366333 341.425354 -1292.501343
864.509949 341.358917 -1240.210449
937.155823 91.724220 -1117.517944
902.285400 206.127975 -1139.164673
1145.848633 666.590149 -1144.507935
829.471069 374.834198 -708.115417
671.243652 270.532593 -779.305969
782.822205 203.548096 -1236.060425
846.111145 227.243713 -1056.216797
661.382141 551.700378 -847.264832
640.273010 272.226593 -787.552979
898.380737 152.649506 -1146.807983
666.596741 721.522400 -559.801086
786.550720 238.791260 -743.522339
654.196289 270.149811 -778.382935
749.611938 285.342163 -1273.065186
847.547180 493.009094 -677.949219
874.866882 121.766296 -1107.508911
801.497986 427.467438 -1287.207275
950.118591 201.734665 -1146.219482
701.117615 700.758423 -531.860291
682.652893 684.491272 -678.334167
802.088196 132.470367 -1218.899902
771.149963 333.291229 -1217.084839
731.354797 303.825378 -759.008179
941.806946 355.172150 -1136.809204
673.760254 718.116699 -543.986023
686.043945 473.037262 -812.422913
568.719299 239.257523 -844.443909
559.387451 359.241730 -861.747681
657.750244 280.722015 -777.630554
1000.083496 113.114029 -1087.125000
767.849365 224.438721 -1251.564819
1159.147461 367.313263 -1051.220093
776.923462 447.535583 -1331.244385
797.402283 358.769012 -695.678772
679.303589 482.442627 -848.801758
655.547302 300.860474 -781.468018
664.470947 284.115967 -775.796631
733.657959 254.774811 -731.849304
536.764954 700.197144 -806.561401
551.908691 730.445374 -673.175598
759.750916 305.103333 -1286.165283
896.633789 68.309158 -1119.545166
942.576233 159.086838 -1141.601563
913.512268 72.463615 -1141.755371
792.220154 354.964050 -1289.944458
511.323792 766.684753 -644.633728
628.521484 736.864685 -564.742004
876.083801 285.539032 -1215.195068
1069.345459 179.756927 -1080.301636
485.584015 770.502258 -623.992981
1089.330200 314.654541 -1033.889893
729.104797 218.364685 -767.939941
466.954834 757.592346 -702.876221
744.790955 341.745056 -1289.654053
1014.386169 306.752838 -1143.766602
737.733215 285.958405 -1274.398682
904.704224 36.487720 -1126.259644
735.331970 672.864197 -633.738831
705.168091 214.165359 -777.208313
739.542053 520.254761 -786.929688
1070.672485 213.675232 -1091.415527
656.195435 734.568848 -562.505737
579.826843 405.202606 -846.020630
863.975891 49.539551 -1144.085571
990.490051 209.117401 -1146.259155
635.629333 733.689331 -563.458496
949.532166 53.370682 -1105.859985
523.717957 760.105225 -630.686096
633.510254 637.755859 -932.844055
713.995483 678.279236 -691.365112
808.472839 345.376556 -1262.318237
944.852417 189.865112 -1133.342896
765.410278 664.556946 -615.621765
778.114075 333.388824 -704.286133
811.046814 522.301025 -750.776978
1109.411011 336.848022 -1061.578613
1122.547729 527.499268 -1144.433228
669.840210 470.049255 -832.817810
787.490173 445.931366 -497.058716
817.906677 192.055389 -1226.034180
525.392273 749.512207 -679.364685
681.256958 677.712463 -719.737732
592.186401 765.476990 -513.953186
860.270325 151.691498 -1133.895386
1030.271362 503.734070 -1183.276001
580.780396 350.792908 -843.756042
589.193054 491.669006 -910.020691
945.252869 104.616707 -1128.788330
637.109497 418.305237 -827.830444
1122.369995 697.465088 -1191.418457
803.112549 102.887260 -1211.601440
825.585754 194.242096 -1079.756348
802.408081 386.077606 -726.417969
662.140625 696.954102 -645.028198
747.279907 374.861969 -1303.972046
838.395874 115.924576 -1173.483765
539.342712 734.633911 -689.669434
631.833191 697.966858 -732.143616
737.333862 693.973877 -528.673828
765.542725 516.288757 -811.509949
692.184631 229.128113 -765.942383
519.224915 746.934387 -658.613892
838.975342 327.520752 -1246.067505
782.280945 655.010193 -661.540405
603.550476 696.456665 -761.175415
1007.478882 387.541016 -1142.846924
764.688843 262.808258 -1276.240967
493.462463 734.270874 -730.167664
567.299438 698.505249 -787.282104
535.290771 718.452637 -728.464355
1047.475464 169.202011 -1074.028564
799.573730 244.259521 -1256.733765
704.849304 357.138977 -755.360657
1138.386475 625.369507 -1137.816895
565.041016 303.725403 -866.670532
805.131104 634.971680 -666.691833
809.715088 303.977386 -705.779236
1091.336914 518.847168 -1151.609009
826.184082 402.685364 -706.148926
813.467102 576.485840 -794.286987
932.118530 186.602402 -1119.003174
697.916443 474.271210 -796.719360
810.281067 223.213181 -1257.803711
492.688507 722.856384 -761.028503
659.998718 238.191101 -784.304993
1087.309570 250.339432 -1075.173706
602.991516 694.565491 -780.339050
515.482483 787.100342 -572.164490
1122.154053 206.019638 -1053.215210
926.806274 267.814484 -1141.698608
559.845581 300.265564 -870.080200
719.398987 308.668121 -1309.918335
729.528748 375.540955 -765.879395
999.608459 306.995148 -1144.943237
869.045166 112.159393 -1130.311768
616.233337 448.865784 -860.959045
1056.149170 280.942657 -1100.476074
591.879089 406.985229 -861.935181
544.389832 721.005188 -743.287231
810.884338 309.645447 -706.420654
469.544952 744.226440 -759.077759
531.306519 264.693634 -879.256348
487.602600 362.923553 -906.996155
584.393188 728.603027 -674.528870
679.981445 733.118286 -517.394775
923.176086 32.608467 -1118.573975
1070.913208 528.132507 -1143.131958
629.078857 263.915070 -819.083191
881.044983 215.952774 -1089.973633
654.069580 648.955688 -766.158813
727.625977 209.803009 -777.309082
557.639587 501.422729 -922.047791
627.364807 682.335571 -722.125000
621.037781 232.738419 -819.164978
514.497437 762.031494 -621.193848
604.947998 386.835632 -840.529968
968.795593 322.365112 -1137.166138
560.224854 715.308105 -745.628113
525.777649 794.995605 -552.692993
632.320984 710.585327 -628.812683
757.484680 657.815186 -639.505188
577.850281 466.548309 -892.958374
1045.744995 540.020935 -1180.711304
571.443665 701.492859 -772.836731
589.110535 709.610718 -722.588013
629.981567 746.663574 -571.971375
856.860168 241.754547 -1224.416016
666.309631 329.137421 -781.833435
659.814636 328.781921 -1354.796509
612.932861 708.948853 -708.231934
643.400574 684.921936 -767.385986
639.675659 686.748840 -684.331482
1026.310425 309.733246 -1120.023682
745.799927 328.885406 -731.537598
656.577881 622.710510 -873.298706
1188.201416 287.354462 -1007.699646
725.943604 682.673279 -594.053650
654.939087 258.783508 -771.272583
576.356506 267.437988 -845.673096
988.558228 570.351257 -1154.847656
830.463989 364.204224 -681.089417
787.699585 314.851807 -1259.546021
1061.439941 326.117188 -1044.746582
1031.361816 366.983337 -1096.389648
970.391541 386.457458 -1114.494873
1194.208130 350.803406 -1021.963135
576.080322 252.855392 -865.532166
732.388062 634.455017 -731.850281
848.484863 355.851044 -1254.012085
457.764221 790.019775 -637.021606
750.705627 369.242218 -1220.533936
644.598572 445.611908 -834.463501
865.968018 347.052734 -1224.307983
608.709534 390.850403 -823.028748
620.850586 364.524200 -806.488037
800.438538 497.441864 -1274.191406
979.262024 189.454483 -1130.252197
1128.673218 193.799408 -1047.220947
832.152527 132.464233 -1199.374146
570.911011 731.350464 -636.059387
813.317139 290.016266 -1260.522583
1109.270142 205.740860 -1029.033081
881.057251 60.281574 -1147.041870
984.849915 415.515503 -1111.424438
996.563721 506.025116 -1183.358765
576.611572 724.093506 -674.109131
668.860474 292.146667 -777.255127
662.448669 559.801758 -900.597046
1039.121582 172.535873 -1083.090820
766.328003 341.660461 -1278.747192
479.748383 755.703613 -685.146179
725.092346 298.957367 -738.867798
762.976440 161.209030 -1232.431396
974.424866 176.045731 -1145.681885
762.835083 494.920868 -780.418396
486.782928 421.412750 -908.062683
607.792725 343.626221 -840.510315
735.299072 428.932373 -762.131104
957.227051 219.459518 -1153.700439
559.685303 255.544617 -849.114746
1085.976807 317.693787 -1053.155396
979.835876 151.089218 -1127.705688
1103.099976 213.211655 -1067.160645
867.406616 95.824265 -1149.688599
812.306641 340.874786 -583.946533
621.308594 233.556946 -819.003784
645.401917 225.638885 -831.076660
985.305481 131.515732 -1101.771362
1038.213135 140.105270 -1077.637939
920.015198 69.003006 -1121.094482
1100.895142 276.914398 -1078.642700
787.228638 688.469910 -777.563843
999.832275 334.974701 -1093.407104
1024.323730 193.871262 -1113.409180
1050.551514 359.247314 -1088.712524
1003.460754 170.855682 -1106.729858
791.691895 322.862091 -706.553162
770.750610 377.096863 -749.207886
1035.557739 354.804199 -1059.190186
639.340149 447.571472 -837.890808
523.864990 747.215942 -644.490723
1040.420288 153.508286 -1058.962158
465.738770 800.046265 -611.716919
523.359680 772.885315 -615.215088
706.712769 685.442871 -631.960449
641.440491 316.640167 -787.377380
728.735474 264.937897 -1297.829590
757.302063 269.294220 -1270.358398
1024.565552 378.608124 -1107.599731
971.957031 263.295319 -1163.185791
1173.266846 278.500061 -1030.052002
680.167419 317.445160 -1324.317871
805.449585 300.845917 -720.446106
515.474731 748.283630 -687.483337
564.902710 313.741943 -846.421265
798.965149 374.293945 -634.157166
552.627991 707.016174 -791.774475
669.945740 706.276733 -588.408020
798.821838 205.708130 -1258.668335
818.488220 348.224487 -706.715088
788.676880 332.205292 -1285.224365
603.960022 359.987518 -829.918945
636.688599 707.885437 -607.940247
682.444214 298.520935 -754.479309
1115.344238 282.709137 -1047.716064
670.854797 554.192627 -857.048706
1071.148315 260.933685 -1070.997559
755.964478 214.681656 -1255.937012
548.886963 555.222595 -950.496704
610.013367 739.910034 -595.978516
763.505371 393.067505 -735.472961
641.521240 732.530945 -550.641541
551.826477 448.477295 -879.092529
961.945679 235.447342 -1153.766479
593.529968 564.254822 -911.754578
642.849487 320.630280 -797.285950
992.305664 284.849792 -1155.207153
1018.286377 431.461304 -1196.832520
654.213623 748.919739 -492.935181
1213.521240 304.204773 -1004.817383
615.644531 240.979263 -813.773621
588.843994 741.418823 -588.017578
778.845276 247.108719 -1271.729614
573.405212 422.765961 -877.630981
764.420166 376.536346 -1211.807495
784.211853 479.972595 -750.798584
605.628235 370.514832 -858.070618
754.333496 361.412720 -1231.597168
782.776611 168.596863 -1242.099487
690.714783 680.112976 -677.171997
800.135559 538.078125 -788.108215
1111.304932 207.309174 -1059.702637
773.434082 186.572571 -1265.368896
860.795715 352.310394 -1252.082275
807.649414 95.282013 -1197.467407
863.050659 100.427971 -1148.288940
759.255737 229.344788 -739.735901
771.963379 675.417542 -612.209961
1211.317749 320.308960 -1012.557922
781.139221 240.926590 -750.819763
720.452454 686.585571 -574.276978
984.322571 82.169632 -1093.301270
949.618469 500.590820 -1195.044434
889.479248 126.289917 -1141.968628
775.981384 235.943954 -748.775146
499.751740 383.547119 -909.677734
669.603210 757.044922 -501.573029
599.732239 718.456116 -644.940552
679.884277 433.126282 -805.008789
619.104675 274.597717 -796.323975
534.824097 309.821106 -891.889587
707.190125 402.018036 -779.567871
1062.316162 229.566376 -1066.463257
539.533081 524.160461 -910.836792
1045.632080 338.421417 -1135.093994
784.325562 416.224762 -548.638123
637.002625 312.363068 -804.917358
510.533051 803.724182 -582.279907
944.991699 351.539032 -1100.155518
773.780701 359.550964 -727.011353
711.795959 723.584167 -528.724548
1150.018311 273.023987 -1034.709473
737.805786 682.317139 -597.508911
633.768677 230.937042 -812.012451
564.460205 290.618347 -869.704529
819.316711 301.994965 -1253.144775
949.353882 162.991364 -1138.976440
592.219238 760.522949 -522.105530
1017.175232 493.362915 -1177.310913
1023.978699 166.693771 -1097.352905
584.293030 234.634476 -849.152649
637.965881 434.209351 -825.905823
599.700317 737.781738 -580.875305
954.133728 278.330078 -1179.188721
541.181519 335.251831 -869.982056
489.761719 339.809174 -894.835327
516.460693 286.673431 -872.066833
704.841248 686.026489 -579.196167
909.437744 297.292206 -1159.274170
695.260803 697.114685 -608.995178
860.153625 526.938354 -729.779236
674.932373 259.346191 -1332.349976
785.987671 646.378113 -639.831970
800.626648 426.891998 -743.667847
686.248962 550.342896 -864.293091
1063.555420 372.431366 -1051.923950
1051.687866 198.072891 -1083.635742
886.131897 190.570847 -1157.360229
548.590698 279.145569 -862.574280
493.797607 748.750671 -677.639709
612.204041 286.141357 -833.531311
922.983032 295.624176 -1174.428467
755.279297 592.570435 -821.625366
1023.701416 140.430374 -1065.387207
509.161194 749.998169 -642.205750
583.372986 762.352417 -536.842896
747.194763 288.722809 -736.822632
1147.752808 594.153992 -1127.199463
1111.180786 288.974854 -1050.209595
599.712341 771.679688 -531.321350
714.549866 266.066498 -741.262878
859.602844 93.001633 -1145.651978
617.307495 734.165527 -606.139587
602.213623 438.208984 -847.545227
607.298096 661.017639 -809.388733
729.061157 280.960205 -734.794678
1155.442139 655.119568 -1149.538818
513.140381 711.903625 -815.017517
1079.141357 254.916077 -1079.224976
1183.157593 357.603485 -1048.395630
1124.177490 364.544250 -1029.130859
1104.940674 304.361908 -1074.614380
768.904480 247.485748 -1290.411621
751.528198 440.676086 -780.158325
1123.230103 196.432617 -1033.560425
721.320251 427.292694 -769.325256
957.436768 80.013939 -1103.367920
610.792419 737.129883 -580.294983
673.827637 219.921967 -1303.075317
1073.434692 307.105682 -1072.840332
651.787170 684.648987 -724.035950
1048.089600 345.845856 -1120.351807
528.584961 307.794891 -874.136780
873.786621 100.816277 -1152.587646
765.530396 340.841187 -1302.489624
692.270569 406.381714 -794.001831
748.639587 393.478973 -777.630493
535.988464 465.500671 -894.028687
545.159485 745.333923 -667.569824
807.851257 328.605255 -701.575134
656.779053 424.139587 -843.134644
625.757996 744.837402 -522.502930
1172.391602 373.194153 -1059.169067
763.329651 538.819580 -800.799561
622.317505 479.206085 -846.732910
542.557983 738.673096 -700.151611
1057.640625 123.654320 -1067.400757
793.972229 341.932190 -719.295105
560.254822 689.828491 -795.249634
1200.497681 355.138367 -1018.884583
1096.836792 527.346680 -1151.809814
1036.651245 317.634979 -997.262573
726.897827 417.292908 -1363.440552
495.789948 746.695435 -686.273010
661.340698 581.925293 -878.159668
1030.632935 333.343140 -1046.105835
715.165222 254.325485 -760.710205
748.527832 470.709778 -798.565674
548.707031 244.160782 -856.147705
852.373230 74.050499 -1169.114990
612.280090 725.175903 -643.220520
658.868713 694.857056 -714.963745
943.786682 145.948425 -1117.213623
833.205139 92.483414 -1209.484131
612.061218 324.377228 -800.868958
625.511475 343.049286 -804.323914
847.610107 324.814423 -1264.294067
526.464233 393.242310 -892.756287
792.565613 351.777466 -1260.040405
830.572632 398.784821 -668.253174
611.230347 217.187500 -843.753052
867.547729 362.593353 -1098.630615
801.336670 474.252350 -746.873779
917.662598 182.293869 -1143.569946
686.937500 277.373901 -1317.604614
696.284973 572.664368 -858.751648
510.165894 789.495728 -613.558594
548.145142 348.903503 -885.577148
711.111023 224.834854 -756.536072
813.687805 183.812759 -1228.995239
633.580078 696.829224 -758.386475
785.795105 341.570160 -1272.281250
1057.108765 296.192108 -1112.376465
661.118958 723.752502 -537.730286
1138.597290 248.471893 -1046.452759
609.035645 725.617249 -611.370178
734.058655 474.100342 -778.919006
609.510071 576.452026 -913.493469
712.393677 529.274231 -831.501953
671.219116 545.641174 -838.817505
564.557678 754.980591 -576.319153
647.262146 682.088867 -748.676941
838.979248 362.243317 -1196.150391
1112.644653 353.866699 -1021.967285
558.299072 758.238159 -608.827148
671.156555 663.726685 -752.902466
730.262451 362.752228 -1302.805298
1030.898071 345.298920 -1140.975098
583.128113 408.492981 -878.829651
967.284729 231.655823 -1149.701172
562.428955 823.304565 -559.971130
1085.891235 190.140823 -1064.409912
588.116577 230.356628 -857.982422
751.991516 152.752045 -1257.106201
599.444519 802.668030 -534.152527
836.830627 330.644379 -1066.475098
776.427612 330.374451 -711.379700
673.570801 324.670074 -1322.994019
721.713440 176.654831 -1277.953613
542.658203 408.302521 -874.446167
884.053528 66.030388 -1138.363525
622.746155 357.153534 -824.884644
634.906799 730.472290 -574.503601
917.928589 50.958858 -1120.648438
1071.779419 200.848114 -1082.599731
762.062927 413.107727 -1324.954102
660.623779 682.962769 -754.196167
713.949829 230.304291 -765.756897
533.798523 307.878479 -867.494019
627.735352 246.123627 -826.347046
567.409363 714.962341 -745.593201
659.945435 654.440857 -778.156860
683.622314 349.339752 -785.609070
857.001587 269.693329 -1225.931152
844.905151 225.869720 -1243.801147
842.091675 488.365997 -1190.412842
806.607056 372.788605 -687.200073
556.118896 734.672913 -727.530945
760.692627 275.433960 -1292.332397
1013.036438 110.449867 -1066.051270
1058.383423 149.933777 -1046.210083
632.770508 492.214996 -847.203552
468.751587 775.376404 -678.209045
996.622070 342.164093 -1071.800171
574.901123 255.747131 -849.102295
712.260742 508.673676 -822.910583
852.978943 84.090538 -1169.647949
667.032104 305.417999 -1342.621582
734.026184 199.270554 -1285.177246
561.561768 247.787155 -878.375671
748.246643 290.015289 -723.016907
842.913513 411.964081 -697.679626
699.103394 286.158936 -1279.170654
1085.191162 173.338806 -1053.236572
563.383179 468.970978 -897.553589
642.127441 701.946533 -628.918457
890.757324 178.946289 -1159.476563
690.448608 508.561371 -830.934814
1062.738770 517.807068 -1146.060913
544.850708 690.887390 -821.331604
1134.022461 200.115005 -1040.473999
758.990967 439.045654 -751.153076
548.374207 755.677002 -615.619812
619.348206 288.613678 -808.014709
502.916229 776.884094 -603.670410
568.938293 320.417358 -850.018127
978.764221 169.538986 -1123.151367
825.117493 71.982758 -1169.104370
738.204224 224.127823 -1291.030151
724.296631 269.664581 -729.036133
687.855103 721.656921 -504.545868
942.988098 155.516464 -1134.610229
710.470032 242.022400 -759.366699
564.885193 799.552979 -558.946716
895.684692 85.891754 -1125.837036
687.133667 407.354645 -793.245300
543.170471 771.104797 -607.857422
522.227051 716.705505 -770.478455
800.784790 201.200714 -1239.005493
682.424011 314.370392 -773.897156
1071.337646 175.355270 -1047.970459
890.175049 340.001892 -1215.055420
791.916138 349.153015 -1257.469116
710.015137 603.477722 -831.727051
578.941711 755.184204 -606.031372
792.462891 147.450516 -1243.301147
526.911316 724.252014 -714.223999
647.792603 419.131714 -822.397278
994.857727 105.137428 -1088.117554
746.046204 676.871094 -578.383118
625.519287 688.361267 -695.640930
510.321442 758.353394 -680.947937
552.549255 366.091797 -874.282654
695.910950 315.178589 -1349.165771
922.804016 58.154217 -1129.416504
966.018860 74.358879 -1103.304077
815.962646 300.940643 -679.285522
1089.391235 172.428207 -1049.632080
679.762695 591.268677 -869.029236
642.955750 431.405792 -849.457825
772.423462 276.820190 -718.098450
964.055359 101.584236 -1114.284302
910.319458 105.338615 -1123.746460
747.011963 564.148438 -819.454041
636.705383 518.350403 -852.024231
917.344727 34.468197 -1116.582153
1083.567993 234.680008 -1054.105103
978.071472 298.482178 -1172.668091
1068.599487 154.433075 -1055.787964
824.259827 73.282219 -1186.203125
1053.351318 139.495758 -1071.455688
474.221588 762.909973 -671.649475
650.217468 275.329468 -792.001099
1016.317200 419.203125 -1097.168823
1018.589844 428.074524 -1144.694946
609.161377 673.567322 -815.945374
806.446838 484.773651 -758.928101
989.279236 140.320877 -1106.467896
933.926514 395.424469 -1142.227295
713.809326 313.527557 -1308.654053
738.812561 539.314148 -797.903564
680.770630 355.924530 -808.139709
740.032104 668.132813 -569.450989
997.636230 245.135223 -1142.621460
848.816345 92.890083 -1172.958740
576.055054 574.199036 -905.839111
529.446228 331.107178 -857.517944
930.631897 411.951660 -1111.207520
884.278076 296.947876 -1219.426392
1008.113220 361.974091 -1109.584229
664.975159 258.733276 -781.744995
992.373352 364.140930 -1154.648315
779.852478 349.030121 -731.831665
725.536804 316.727631 -743.836243
859.885742 557.647522 -1343.070435
836.401306 240.966873 -1230.049805
839.096252 255.381989 -1091.537231
1036.406372 346.271118 -1065.429932
905.869385 34.528805 -1117.336304
621.527405 731.093933 -560.260193
717.690430 709.998413 -541.033142
922.117249 348.076630 -1172.749878
781.944397 374.519958 -730.231079
609.944824 312.096619 -830.848999
721.887451 212.094254 -1291.596313
768.748108 234.353592 -1274.837036
1056.056152 408.378906 -1106.337402
1027.776245 509.639282 -1178.121704
1025.204102 217.823746 -1106.643433
672.494324 606.322876 -879.759644
682.059143 288.877563 -753.648743
547.441895 775.857483 -555.885132
1159.114990 354.679901 -1041.936768
647.303894 212.352707 -800.911865
1163.041016 392.725586 -1049.665771
809.170654 109.258591 -1202.805176
531.309631 803.262024 -596.191589
1034.778564 110.461784 -1081.500488
697.787659 667.002686 -750.746826
787.897278 337.815430 -707.268372
565.219543 697.924988 -777.012451
566.651733 732.047302 -661.782959
1003.608765 160.519745 -1081.587646
976.062805 220.258484 -1143.751709
1037.153198 493.702026 -1171.745117
928.921509 99.735390 -1110.031494
631.321960 740.558105 -523.641479
1102.572998 517.148682 -1124.412964
576.285645 490.684601 -894.491028
791.716614 321.260864 -1273.397217
735.956299 277.172424 -746.334595
600.174988 259.928467 -816.584717
713.353394 157.513321 -1263.644165
744.514709 329.439056 -748.485046
675.708862 659.285339 -718.051941
562.481140 756.320068 -625.958313
634.090637 697.300171 -710.092285
483.433075 748.236267 -691.679199
611.273560 417.832428 -831.059875
720.276306 216.322784 -1297.416260
630.169800 543.921387 -890.076721
535.842407 719.355530 -728.206543
958.495667 159.483597 -1126.670410
1052.200562 213.874924 -1100.837769
737.525757 220.190430 -765.216614
1044.476807 344.478729 -1093.377075
1043.282349 501.700653 -1142.730591
759.389465 659.458801 -611.357239
524.442749 359.756470 -881.036072
555.290466 734.248108 -642.449829
1088.926270 172.606705 -1048.710205
703.785034 233.006927 -764.467529
841.054688 399.482330 -1238.151367
1022.005371 485.852478 -1158.928223
844.803040 72.290276 -1151.513550
507.452515 722.491882 -750.586609
731.979919 674.791077 -654.976379
906.410278 208.908157 -1161.976074
1060.795288 298.279968 -1113.037109
754.751953 340.959259 -733.933228
722.372070 329.108246 -750.578003
673.542908 477.762238 -850.880554
1141.748657 316.889923 -1043.156250
643.801697 723.682556 -547.231018
625.287109 721.739929 -614.393005
1049.338135 319.990997 -1094.242432
618.594360 712.559021 -625.763672
1022.045105 244.626419 -1134.460571
1027.359009 185.933548 -1082.462891
574.629700 368.916840 -883.635071
631.960083 716.833191 -633.236877
645.936523 342.690186 -790.193481
1090.089478 307.088989 -1063.025879
468.122375 797.657532 -644.929871
704.725403 704.786438 -525.040222
967.451965 122.979744 -1112.049683
990.504639 154.383530 -1117.624390
653.293762 299.386902 -782.794983
572.243347 740.133728 -633.755737
984.967896 117.567093 -1108.498901
667.250549 274.688812 -760.834412
718.489746 568.151672 -842.291138
999.528320 178.896378 -1120.407227
629.978210 234.118164 -800.034363
971.891052 201.643204 -1119.985840
590.125732 738.003906 -596.523987
625.726868 686.158081 -805.192688
863.511108 289.810699 -1163.573242
577.397644 272.793488 -832.695618
553.794434 760.795959 -576.841553
981.984314 139.499985 -1124.146851
470.846649 801.848938 -633.925781
870.585876 360.609314 -1132.130493
993.282227 282.529358 -1143.619263
1023.648376 225.552994 -1127.895508
508.386597 796.648071 -609.685669
813.633667 224.796555 -1241.731689
530.375061 768.760620 -589.219116
554.861816 309.335419 -867.721069
1057.680298 430.642181 -1134.561401
604.169556 495.361694 -901.924500
567.912292 741.001526 -640.404602
613.423340 730.022644 -594.866333
573.129700 698.600403 -775.071777
1041.357422 110.918335 -1061.510986
858.969238 146.449905 -1146.511597
1173.724487 276.438293 -1031.448608
646.181152 311.330963 -1307.523193
681.329163 540.367920 -853.897949
1046.631470 298.330811 -1121.646362
778.817566 285.030487 -709.395752
1170.226807 338.406860 -1050.290405
792.906189 95.575333 -1207.313110
604.149048 290.998291 -821.902954
991.546326 123.738144 -1098.824219
656.250244 712.669495 -609.102600
571.658447 753.593567 -571.089233
962.410645 121.010597 -1123.971924
855.137268 224.944046 -1150.093628
884.981201 373.016052 -1092.190063
1057.657959 265.565796 -1108.215210
904.274475 533.613708 -1201.393921
554.076172 786.475647 -541.331543
990.620239 486.847534 -1176.699707
622.623108 367.215179 -839.711121
755.420776 405.344818 -760.021057
856.237427 124.514221 -1154.342285
665.304260 682.910034 -703.793579
578.235901 759.927246 -543.688904
909.945862 104.372566 -1110.981934
1191.190063 258.778870 -1024.771729
757.178833 477.261322 -1359.203125
818.415771 379.096619 -702.279297
485.047577 336.264801 -913.161987
648.693359 727.576904 -538.573181
988.383423 315.702667 -1144.086304
1031.375732 304.112396 -1138.137451
832.558472 115.275108 -1188.909424
646.641418 541.403503 -877.543884
702.765137 385.533020 -1328.623169
650.837952 720.540649 -580.720886
568.738220 696.124512 -799.339294
705.219055 680.242371 -661.208923
769.428284 645.250977 -625.243225
811.342834 158.865128 -1225.548462
962.175232 259.512573 -1178.635376
775.578491 155.917664 -1244.877075
773.518005 175.164200 -1261.701416
1041.237061 182.065552 -1097.721802
647.521729 364.299713 -809.721375
490.836304 325.051208 -905.543274
691.796936 683.479187 -735.551575
593.237854 745.607849 -612.788269
829.026184 156.056503 -1209.947021
1205.344604 309.499878 -1001.195496
763.225586 560.559326 -818.077332
596.684753 398.704132 -853.601624
463.303314 732.851440 -745.457703
760.968567 221.862381 -749.217285
965.281494 230.635803 -1148.937378
1116.013306 203.674545 -1041.389160
814.118164 436.708252 -570.672852
989.379944 140.471649 -1103.853027
1044.684814 320.582214 -1116.315918
710.667542 485.299652 -825.360291
826.851868 336.214233 -1241.374268
817.178467 215.812378 -1233.310913
660.856018 684.158752 -783.459106
701.779480 612.196106 -861.989929
895.338928 231.417664 -1151.213745
707.787781 360.412323 -769.364075
830.467651 280.017120 -1250.214355
555.214478 734.351013 -668.044739
723.290771 663.014221 -645.926270
725.283569 223.953278 -1308.614380
1133.937500 291.275299 -1031.828735
766.300110 384.288025 -1302.273438
715.008850 670.440735 -625.220886
816.046265 242.720184 -1225.647095
739.392639 655.185242 -632.325317
841.279907 505.703430 -730.071167
584.105774 741.988647 -632.581726
871.679077 353.114929 -1255.381958
558.494263 343.547211 -859.404541
665.693115 717.467346 -534.344116
643.184082 663.035522 -763.181213
1199.590210 314.878784 -1008.289001
701.106995 650.843323 -721.225159
1069.838379 309.913452 -1103.031616
763.933716 274.633942 -736.727051
516.438171 730.429810 -753.410645
1115.482666 295.185028 -1024.069092
1077.734009 527.127991 -1186.672974
1008.939148 388.210144 -1119.695557
785.805725 91.470833 -1200.686523
760.090393 327.959045 -1235.031982
536.749512 704.164429 -781.106262
645.808472 739.604675 -540.592957
648.691101 298.995789 -1321.947998
1058.286377 484.214905 -1150.906372
654.033691 685.598450 -699.403870
1204.946899 338.338867 -1010.467407
512.060913 787.896729 -581.020813
726.377991 223.484238 -1286.205566
562.845764 749.927002 -615.207275
838.088684 27.893270 -1142.870605
717.511963 701.414673 -566.452087
604.334290 731.577026 -595.799072
1024.796753 230.251175 -1112.709717
1108.209961 339.345612 -1039.820557
823.954590 308.211121 -715.824280
630.284668 695.777832 -671.473694
1141.439331 225.357834 -1039.013550
543.104858 408.649658 -886.758362
656.314819 270.151031 -776.903748
949.929260 93.263107 -1121.628296
749.790039 300.835449 -1276.138916
713.347900 303.243896 -744.636719
675.564209 705.966248 -602.790955
1108.580200 310.937592 -999.348572
871.164490 156.030975 -1098.928223
720.067383 616.047485 -854.176941
682.672241 249.321182 -1323.186890
749.621277 340.681244 -1277.390991
960.504639 373.771423 -1096.096069
1038.108521 110.007629 -1066.676147
934.086426 368.834930 -1171.464233
763.334900 454.952911 -1338.844116
955.458862 197.381439 -1147.341309
793.771912 270.451996 -1281.525146
811.843140 360.906006 -527.117920
644.765686 402.818207 -823.992737
916.491394 111.653313 -1125.551636
758.474487 703.604492 -860.280334
555.112244 738.475342 -664.987488
580.197937 735.197693 -624.253845
891.477173 65.752533 -1146.370483
995.300232 106.032463 -1093.062012
1047.835938 561.720764 -1161.051880
697.162292 341.491577 -1279.604004
812.774109 385.393829 -709.405457
812.180847 349.002380 -1269.786377
567.352844 693.364502 -812.687073
616.281372 280.661987 -798.370483
671.029968 703.235229 -612.887512
908.878296 74.774223 -1132.502686
1155.101196 274.758057 -1022.427490
721.437073 319.585724 -1183.079956
692.828064 709.137085 -549.487671
831.576843 29.599659 -1160.393555
1196.718140 283.135437 -1015.271851
703.347839 599.776123 -858.774231
993.079651 284.703156 -1167.427002
701.068787 673.546021 -687.119812
1028.078003 339.749512 -1134.093750
752.105164 308.266144 -716.982788
638.388672 234.646881 -814.314392
658.412476 742.198364 -527.929871
1068.484009 175.458862 -1048.322144
724.292969 618.697083 -834.699585
897.113831 42.487999 -1146.404175
627.112427 567.912354 -902.950073
873.849060 207.721497 -1197.769653
1009.005249 375.719086 -1137.358765
786.628235 440.447571 -742.276489
1115.900146 205.212692 -1025.955078
1071.790771 474.063721 -1140.534912
662.982117 353.763794 -814.841858
649.476624 272.190735 -783.526001
511.594421 722.936951 -752.659668
1002.959290 208.467300 -1126.748779
1030.534302 114.638779 -1082.829956
664.493896 709.602783 -605.306152
588.031860 747.626282 -564.320923
1083.641113 362.480316 -1082.435425
612.345703 745.047485 -547.974731
737.741272 396.556274 -1334.410034
766.846130 264.718018 -725.187439
796.138550 73.219780 -1184.492554
966.913879 128.346710 -1124.605225
1168.461060 255.757599 -1007.818848
681.370056 344.984283 -792.021851
957.985962 291.568390 -1152.216797
852.542175 182.157227 -1168.955200
1015.506958 315.981445 -1137.332886
1110.782227 388.449219 -1079.758179
862.693970 266.060455 -1225.027222
1105.898682 484.064301 -1117.394653
506.152985 269.710541 -912.491760
696.368713 538.509949 -820.429016
519.271606 342.302338 -889.423584
667.505432 682.806641 -661.334717
716.433655 272.976929 -733.465454
709.310730 695.318726 -586.208679
881.808533 244.467422 -1194.834961
620.931519 557.529724 -898.657104
952.070496 109.436600 -1133.662231
1087.178223 270.639374 -1073.389404
891.366455 78.097504 -1135.810425
734.646057 185.594711 -1262.422852
1026.255493 360.166595 -1123.971924
575.640930 677.678711 -814.386353
740.842346 562.841309 -816.991577
767.338806 410.104919 -763.824890
681.317383 315.610138 -1325.127808
879.673523 163.938980 -1139.156860
677.895691 294.716797 -756.552185
829.823608 365.293091 -1236.092896
745.205322 524.639465 -784.683228
948.789856 114.987045 -1132.072021
915.621460 34.185360 -1135.456055
585.792114 453.816559 -882.349121
653.034729 212.632599 -795.987000
654.503357 694.928833 -740.209473
572.434631 753.918640 -590.575989
575.398743 739.458679 -594.927856
1006.001953 336.756378 -1089.846436
883.746765 379.702271 -1156.013306
1028.536621 551.864441 -1110.648193
1069.116089 497.698822 -1182.552246
771.251343 292.466858 -1283.235229
863.856934 60.673618 -1134.894043
807.497925 374.992188 -720.859497
746.411377 226.614288 -744.756775
796.550842 191.800629 -1242.912598
564.374207 483.919250 -908.768738
566.676392 410.700073 -875.294617
485.387726 813.579163 -607.418701
586.440613 692.280090 -795.738220
593.635620 546.458008 -931.256348
700.685120 218.745514 -793.598633
635.053772 287.808197 -796.321899
748.433655 229.383972 -733.106995
743.400208 688.493713 -569.848083
741.064758 479.839355 -784.425232
545.647888 756.686523 -645.511169
790.426758 360.329742 -700.803162
1056.400879 242.430603 -1097.169678
1024.605347 346.811157 -1122.115723
582.356079 288.105164 -835.005432
539.115173 693.069092 -812.966064
611.304688 271.446198 -811.270996
857.579224 128.918549 -1147.265869
568.885498 756.766541 -619.015198
595.687073 756.268372 -535.689697
643.477295 686.472290 -680.050964
871.301758 149.468414 -1167.164917
614.666687 771.332031 -498.681671
1094.570923 230.086105 -1072.645874
714.390625 211.097946 -1298.810425
1016.974854 243.702972 -1109.324707
1101.396851 246.832428 -1044.179565
775.339905 183.773834 -1252.081299
755.179871 182.373383 -1264.701782
1036.077637 412.391998 -1123.452881
446.304596 795.212952 -654.707214
793.915833 419.006256 -716.707825
667.919128 722.290100 -554.304932
535.928955 289.829285 -853.911865
979.586365 306.085907 -1176.726318
686.091431 698.520508 -593.474487
722.313843 237.615799 -1300.327393
633.857910 230.681702 -810.011536
519.632385 760.847534 -617.115845
824.455444 557.690796 -1343.182007
966.283142 426.821442 -1153.440308
567.055725 756.354187 -567.174011
513.323608 800.517944 -591.259338
1158.793945 729.171631 -1164.224976
452.474243 787.272583 -692.022461
676.179810 711.246399 -545.675903
815.919861 248.048477 -1248.646851
753.977112 351.393646 -1227.961670
486.174591 774.742737 -675.127258
1061.559326 486.798462 -1170.028076
927.301880 155.243607 -1130.729004
787.069885 641.251953 -658.837585
689.311707 717.211975 -534.486816
828.144958 83.332108 -1199.182861
781.449036 91.651115 -1215.457520
820.322815 367.318695 -1260.128418
790.793518 649.775330 -672.370300
1074.351196 233.490417 -1094.307983
893.747864 306.717438 -1182.864380
492.429260 763.136230 -682.739624
613.250061 720.327148 -675.525452
766.687988 423.257751 -747.529480
736.247681 441.190338 -766.012878
830.951172 318.318665 -1259.561035
810.461304 215.007431 -1242.615845
824.610229 458.616211 -1299.874634
739.841187 360.387756 -756.060669
1044.690796 378.833954 -1065.609619
452.661133 764.186707 -718.010132
661.950073 744.372864 -513.588562
1038.308472 197.590790 -1109.635986
879.475647 541.087463 -1293.106689
621.658447 740.082581 -533.475769
749.839844 251.567383 -1291.843628
630.911255 372.048065 -821.702576
798.410461 144.432999 -1205.298462
947.977051 213.154419 -1147.059692
841.100464 238.567871 -1051.994507
575.278137 520.421753 -906.719910
1022.362000 162.550690 -1103.397461
612.891602 694.838684 -764.371948
817.968079 385.506805 -719.180481
559.570740 770.459595 -590.666321
601.063843 299.455200 -816.925659
594.825745 778.214172 -499.448456
890.873230 209.116913 -1174.069092
592.353088 391.947479 -837.243164
783.948730 406.939209 -736.622375
588.390564 686.721008 -806.129883
692.513550 717.265015 -530.234741
716.335388 660.391113 -711.481445
471.649109 781.699036 -636.749268
844.354614 334.976990 -1268.264160
1000.151550 206.731003 -1138.638550
1124.631348 307.572205 -1068.167114
535.335754 694.262512 -813.343262
604.451050 718.290894 -623.057129
1119.187622 258.946198 -1034.107666
859.328674 219.607635 -1233.258301
701.161377 680.689880 -687.731812
863.799255 159.603027 -1200.118652
947.080322 172.247803 -1126.013062
773.267944 645.397095 -738.199646
691.713257 200.236694 -770.557983
1029.551758 188.876099 -1106.623779
1113.193970 706.549683 -1214.737793
666.733398 685.976807 -710.712891
1017.866211 238.131607 -1100.415649
719.689941 417.194916 -764.283875
601.906311 248.688110 -829.374268
777.786743 383.024536 -1201.474609
860.788208 210.866882 -1197.129150
714.235413 697.947388 -561.187378
701.518982 293.077393 -1290.356567
805.912659 525.706116 -1337.408813
745.107666 697.748352 -536.020691
606.278076 259.547119 -819.141541
526.246826 470.208099 -930.132080
611.098206 529.260681 -897.884583
828.602966 369.346100 -695.213257
1133.204224 244.130081 -1044.757202
548.267578 736.666260 -667.028076
804.519104 336.265289 -1265.524048
799.741089 93.469513 -1192.066650
1033.517212 402.973633 -1136.868164
1122.360718 187.808563 -1043.893677
817.545410 293.371307 -682.673218
865.390747 322.084808 -1252.425415
616.286865 710.114624 -702.576843
551.462646 745.358521 -668.187805
876.461304 262.967926 -1143.726807
728.311584 405.907288 -1339.809814
739.630676 512.723999 -797.985840
1033.235352 321.268097 -1116.148926
863.348450 158.092163 -1156.992188
833.667236 336.885559 -1249.497681
848.216064 425.291962 -1248.903809
660.339111 240.953201 -789.631409
1103.456055 383.422577 -1051.018311
572.927246 530.753845 -932.084778
807.414551 174.073273 -1228.181396
1062.550415 469.419647 -1119.589966
670.693176 226.828049 -776.801514
794.810852 250.266159 -1242.384155
1194.870850 376.276520 -1036.095215
695.588196 306.068665 -763.801636
1090.353271 338.040802 -1076.895386
602.839905 289.129578 -840.931030
1029.142456 345.247192 -1144.944336
657.059509 204.267090 -775.488770
583.617310 739.171509 -677.193298
607.451843 256.203796 -809.006042
784.767273 271.396423 -1267.212646
1067.931030 695.810730 -1236.677856
573.084473 589.180237 -954.294556
594.679749 405.006836 -851.282837
832.840027 398.503387 -1257.060181
1144.087402 324.906616 -1038.784424
673.088501 561.798767 -878.404175
993.017151 441.294952 -1195.278442
694.419556 353.545319 -772.117615
760.481262 415.761566 -537.963928
799.164185 412.168762 -1255.636108
514.524597 256.199402 -875.497314
570.588440 702.849182 -784.035034
567.617920 746.715759 -618.655029
1083.223999 307.020660 -1022.455444
976.099792 186.791718 -1130.173828
546.019470 718.122131 -710.926086
626.505859 746.543884 -516.211609
649.773376 310.862885 -1339.572632
869.490479 446.810364 -1145.489258
1125.832397 239.462357 -1034.916748
1186.024902 320.148804 -1018.128357
833.352051 131.856262 -1195.624390
645.497009 735.576294 -519.040649
668.113281 204.051361 -765.144165
586.975525 515.760986 -882.968994
937.428772 146.011719 -1151.160767
905.024109 83.404549 -1132.396606
660.293213 392.980621 -813.622986
633.626831 700.124817 -734.637634
795.822937 283.862213 -1282.906372
543.455627 723.613037 -717.553589
1115.960205 537.870300 -1135.573730
584.284363 330.405243 -841.965515
542.659973 752.439575 -617.968628
741.865906 658.270264 -652.383789
616.843994 785.621582 -522.133423
707.331482 540.426697 -829.764038
857.667603 320.794159 -1246.734375
733.702087 346.874420 -1292.049927
600.540955 685.409363 -738.335022
766.739746 343.394958 -1244.206177
1107.093018 556.712769 -1133.524536
741.990906 203.637573 -1290.552368
565.504700 531.707458 -937.151672
587.976196 692.438843 -786.546326
670.299561 673.348694 -689.042847
636.776489 578.753235 -910.075867
1093.910278 224.031540 -1064.761597
644.075928 680.091858 -773.520630
794.251038 265.967773 -728.965454
920.801514 153.578186 -1132.779663
495.610962 777.978577 -608.223511
666.469360 384.135132 -803.882263
728.725098 547.924316 -821.508301
620.672668 209.253708 -828.529541
853.069397 317.542267 -1259.106689
712.551880 534.308960 -854.504639
738.633972 286.258698 -743.098022
718.760132 473.277710 -801.587585
490.791473 345.887421 -905.668152
755.754944 214.568527 -754.597595
779.656189 301.313965 -1005.352722
780.384644 239.276428 -745.313477
596.459229 708.299438 -673.546326
724.463318 682.975159 -597.913696
853.873230 204.175568 -1153.953491
790.768433 299.928528 -701.351013
812.569336 453.622620 -1304.285522
802.502075 298.997223 -706.129700
626.023438 374.073547 -846.093872
521.648865 484.234741 -929.781433
539.469421 692.273926 -834.302429
596.612549 500.606079 -909.688416
665.157837 690.909668 -677.107849
1166.237305 365.487061 -1062.974487
738.977417 211.987671 -1265.836914
1066.703003 351.396942 -1038.369751
598.004395 382.427948 -826.899902
833.454102 233.436386 -1235.346436
1205.385986 334.105377 -1020.699219
597.049988 261.761841 -826.214661
726.934387 580.689392 -820.498108
858.055115 384.045990 -1191.063110
700.902527 703.100281 -598.423340
994.757385 283.105560 -1147.518066
828.509521 222.014786 -1230.553223
795.312988 283.280762 -716.155579
847.346985 168.153091 -1178.492065
775.529602 149.269699 -1254.000854
685.819885 505.599182 -840.141968
486.529236 754.201904 -672.920471
1038.121094 268.201965 -1115.834229
639.303833 510.424408 -898.383789
868.704285 188.038452 -1196.371460
537.679016 741.705444 -653.142090
1087.105835 273.404449 -1058.836914
676.711853 588.900269 -869.299316
848.967773 265.821381 -1200.291382
698.043274 703.723572 -545.129700
639.773804 679.168213 -767.510376
634.489136 226.520889 -807.481628
809.481995 227.591995 -1241.724609
636.228699 782.034424 -504.834778
804.471375 241.680420 -1254.834717
787.002563 79.813416 -1207.427002
867.634460 113.610100 -1100.155029
884.963562 61.409000 -1133.596802
666.363708 704.685425 -586.263489
1060.381714 393.065247 -1126.083984
555.861633 328.772797 -857.471375
1131.496582 379.204224 -1072.442505
555.475952 276.874664 -836.423096
589.901184 320.873016 -829.899231
807.055603 468.406494 -722.344666
748.568970 670.617371 -598.050293
680.155090 731.298218 -515.893738
838.467468 399.341492 -1224.032349
1000.664795 257.577057 -1134.122681
864.659973 153.628098 -1083.276245
902.908020 45.060120 -1132.221069
877.413391 363.885742 -1202.321167
830.280640 327.875824 -1251.859375
569.222290 707.269897 -714.281738
660.307495 688.129700 -726.860229
634.504944 693.802612 -742.518677
659.419678 703.234802 -682.626221
604.089905 256.679901 -819.002991
1068.054810 482.835846 -1146.259155
530.445129 759.338806 -602.577515
792.956055 323.832916 -1272.463623
853.508972 397.390106 -1190.910767
510.260406 757.094299 -673.141785
607.623718 748.315430 -544.189575
699.417419 286.202515 -755.369141
542.470764 744.159546 -657.202515
540.187622 736.176819 -704.074463
568.121887 768.084961 -556.338806
750.353821 674.593018 -552.107849
774.968201 167.310623 -1247.718506
1166.468628 676.152466 -1138.338745
1121.113159 313.309814 -1035.880737
759.447205 217.607895 -775.927734
623.481934 745.514893 -590.414185
732.610352 690.692749 -582.767212
716.165833 609.166626 -830.903931
784.347534 294.943878 -1259.233398
587.053162 349.086456 -838.603210
828.720276 426.570892 -1264.292969
625.215576 713.408264 -606.643677
874.875977 252.163330 -1152.371216
736.970093 284.577606 -1298.777954
1091.763184 204.980011 -1073.465210
1083.895508 218.390320 -1068.462646
563.845703 697.214050 -773.312561
814.077454 254.843399 -1264.070190
757.335449 326.911194 -724.913269
697.562561 700.830017 -556.570557
1094.885498 276.473602 -1070.703857
606.010925 682.242249 -745.780518
1001.680359 488.420288 -1127.067993
725.739685 400.069000 -753.071411
942.499451 367.734314 -1077.519165
1139.964966 698.852417 -1178.881714
675.157715 708.219788 -590.504639
771.276489 285.464844 -711.628174
854.226074 21.495581 -1135.395996
808.962219 361.618591 -1250.289551
835.197876 450.762726 -676.273499
544.729187 729.498352 -690.924805
554.406189 375.291809 -897.894653
742.184387 670.545166 -639.577209
501.849640 762.206726 -632.857788
1111.108154 299.729828 -1043.117920
1039.163330 358.539185 -1065.271851
578.055786 685.148560 -833.448120
1022.853577 330.712280 -1091.023438
723.599915 666.000366 -624.636597
674.583740 690.543030 -714.026855
891.758423 159.600372 -1152.394165
1086.230103 315.900696 -1069.239746
539.822327 744.835449 -650.339783
1169.404541 284.968445 -1034.083130
1081.366089 236.901352 -1092.303223
1057.247314 327.490723 -1054.361084
1110.656372 217.893799 -1064.714478
1106.424927 370.625488 -1089.044434
649.471130 719.524597 -589.391052
939.469604 198.846619 -1158.498901
658.513977 707.923340 -600.952515
684.461182 669.004150 -703.664063
546.422974 430.165405 -893.895508
877.190491 162.545761 -1098.318970
804.202698 414.919342 -721.210815
707.593201 251.298965 -1292.800415
588.999756 592.455444 -903.379761
921.713867 171.384964 -1141.135010
848.258728 309.098053 -1247.627686
756.718079 205.853409 -1283.475098
695.158264 277.127350 -760.426453
593.279114 722.878479 -695.683228
904.948853 294.950500 -1104.841797
1167.414063 632.598083 -1156.328735
708.767334 266.639465 -744.280457
988.333374 219.592392 -1133.565918
571.768677 753.984619 -571.676819
743.307861 283.251801 -1296.929321
732.441467 473.853333 -817.771667
511.367676 733.735535 -747.893433
548.496155 388.195984 -896.322021
843.816895 333.724396 -1173.818848
601.564087 584.368958 -921.559692
540.059753 348.826263 -869.252197
645.769958 613.544922 -878.761902
718.896057 684.044250 -589.747681
661.733459 688.074097 -755.215393
595.910645 269.252930 -826.452454
712.262817 430.472351 -775.904907
612.265808 727.523926 -630.574585
562.268066 708.087280 -716.138977
1090.483276 537.119080 -1131.166992
680.327576 696.105286 -627.326111
788.217346 179.277527 -1223.342285
1083.268555 552.636536 -1114.258057
791.038696 359.548096 -713.081726
726.156677 304.119171 -745.357544
713.570007 698.913452 -555.762756
641.986328 380.760529 -798.187378
765.795349 142.328186 -1242.204102
723.840698 668.292175 -686.222229
990.203491 344.185730 -1093.139771
662.485168 732.562683 -531.006409
563.183716 727.017456 -704.496826
646.860168 261.685516 -787.596436
864.252258 347.157349 -1238.339966
959.450439 72.976639 -1089.526489
846.913818 111.931839 -1176.680908
801.998901 574.794739 -781.445007
787.801025 587.051392 -789.840149
494.444489 738.674500 -698.152893
805.877563 304.704468 -1267.959839
851.893494 426.448975 -681.818359
525.783936 333.282990 -905.514221
540.275024 290.472015 -863.662170
867.412354 70.364983 -1174.889893
763.732361 119.646019 -1224.165527
608.063843 576.790833 -888.492554
1026.215088 151.556519 -1093.763916
568.648376 443.580658 -903.292725
564.500671 312.728607 -874.157471
1016.720276 331.017944 -1109.015015
722.275635 187.527634 -1283.552612
1152.804321 326.655487 -1048.066528
935.874146 375.465118 -1090.649414
769.522217 659.229492 -675.018677
924.040466 91.320099 -1116.022705
589.742859 777.364075 -533.653748
