ply
format ascii 1.0
element vertex 1406
property float x
property float y
property float z
end_header
307.761505 702.527161 905.986206
-68.587685 385.340729 957.550293
-284.910980 712.043335 1394.665161
-261.137115 1026.679565 1122.669678
-203.362488 586.748230 883.465271
-31.877581 530.716919 1025.621704
390.245575 690.345398 840.852112
282.725922 723.809143 906.987366
408.669067 637.453735 820.055420
396.797302 564.965454 865.372864
-190.994766 1072.179199 1164.859741
-430.773346 951.435303 1022.671631
-405.095154 951.053284 1028.275391
-350.934692 793.228821 1255.427368
52.131779 724.520630 937.191711
223.342667 619.116821 1015.008972
-164.459518 1048.306152 1100.855713
349.331390 499.138031 950.881592
-111.188087 767.709045 780.421387
343.637329 572.946350 913.480774
352.670715 525.981995 942.517090
363.248138 705.373230 851.909302
373.119446 687.238525 833.112366
-55.899155 549.573364 980.520081
-141.766998 760.823486 755.624878
-102.098923 707.439514 777.630737
-95.640816 540.221497 966.117554
-318.501190 859.009827 1249.264282
97.428520 1053.277832 1430.644043
-179.504532 616.520752 849.318909
-490.917572 827.857056 1073.224121
-128.694519 682.848572 789.974060
396.874481 542.993469 908.025085
-325.788086 684.212341 1301.216553
353.285645 522.967224 931.128052
304.249054 687.470764 904.447815
307.995819 615.709045 921.473755
434.142609 586.118652 828.430847
170.442535 754.217529 664.532349
-68.285538 503.840698 1012.363159
-442.681824 913.323425 1035.784912
49.353897 1079.679077 1357.658203
231.533417 689.408936 997.539490
-27.014557 591.242065 962.433838
355.882721 562.319519 905.610657
38.769905 747.329102 909.653381
-354.813110 1037.460815 1016.950134
249.898239 758.018616 1001.193604
-94.505081 676.671387 845.877502
292.901001 558.021423 995.478699
-287.761993 835.200928 1265.568604
-180.465408 1168.128784 1069.149414
309.251709 691.541443 897.965027
-89.739510 1007.668640 1292.968140
-475.652588 915.330078 1013.338379
260.834839 765.430359 888.681641
-132.723511 474.947906 964.144714
-360.127350 919.867920 1047.083008
314.450867 569.916443 954.553284
-273.864441 1011.173401 1150.324097
-22.831615 785.660461 801.747742
-368.269196 954.248108 1075.963501
-242.767685 873.922729 1249.514648
19.689003 705.045288 882.416260
260.767334 601.531250 994.773193
-48.331062 560.690247 976.385803
248.891495 669.216797 997.323425
-368.121918 851.595032 1159.163452
377.329742 604.543823 860.885620
-341.889008 642.071899 1318.291382
-9.564172 622.637634 949.168152
-71.381943 1089.754517 1264.604492
-383.254303 942.188965 1080.186768
-144.671326 736.505493 777.720276
-392.219940 850.165405 1112.740845
-474.851593 806.409546 1119.421631
48.635529 1015.377502 1320.326538
28.530655 803.778198 787.778870
291.740845 553.018005 966.094666
-192.002823 627.718628 826.723328
-279.802917 1121.321045 1009.322754
-344.652130 918.774170 1122.708496
373.683411 567.842102 901.492920
359.671204 675.048828 845.180115
443.440582 628.944458 829.063293
-335.528931 887.583374 1171.271118
365.134003 494.391205 933.352539
419.961456 564.493286 845.262390
54.614048 811.197144 823.475464
-376.311920 781.151855 1235.446289
-330.366730 774.011108 1287.781250
-245.063278 1088.584839 1060.182739
285.284576 708.884888 926.394958
-104.575638 624.221069 882.479736
-169.018539 544.828308 876.185181
268.853516 746.081726 897.053223
-123.388535 1086.561035 1190.285889
-218.918732 847.163574 1194.325439
280.301086 700.964172 932.395813
285.495667 592.555847 988.005005
-356.315369 888.697754 1144.550659
-236.972931 1077.133301 1106.064453
-382.431641 824.354736 1195.247314
-272.384857 824.970703 1046.317139
346.814941 675.052673 866.446472
-91.384186 667.842834 827.037781
65.145836 1140.040161 1342.608765
-133.636978 692.854919 775.977844
368.331604 449.444489 949.239197
290.255249 573.484985 984.046814
-85.281815 660.513428 837.547241
-58.741344 536.982178 1029.726318
-476.030243 901.956360 1032.450684
-324.332336 745.935120 1287.893433
17.509897 625.253113 988.511658
-237.035187 776.388184 1166.087891
-313.817627 714.601501 1234.364990
-30.286272 566.702454 991.592224
-427.127563 747.051819 1237.351196
-179.803986 648.445251 804.631104
62.154057 682.653198 956.487244
258.119507 720.712219 953.266907
329.201752 651.525330 900.366272
-468.308807 813.871094 1107.356567
88.008751 686.377991 1003.465027
-343.103241 1046.142090 1004.030273
367.744843 655.412842 856.759949
242.463959 620.971924 1010.811279
-185.100479 835.363586 1362.265015
-454.640869 764.930115 1179.570557
-359.436462 1063.638184 1007.181274
56.163811 747.009399 896.382751
-447.896912 937.722961 1030.289795
20.922890 660.951782 952.676331
-295.525940 717.906433 1376.040283
-207.508224 1184.177124 1028.509888
-371.997131 998.533875 1068.135742
-136.446167 505.367004 944.173828
-335.426727 671.934753 1269.274902
82.202278 681.586670 1041.907959
245.639893 672.399414 994.769775
-190.394150 512.917053 906.737061
-112.045174 585.614502 888.658325
-289.814789 1133.897583 1013.160217
344.718933 528.269470 943.647034
-211.338379 1185.103027 1036.163086
-295.642853 794.543701 1286.169800
-319.961639 1084.017212 1010.249023
238.355469 649.396973 1012.696472
366.912994 666.537354 861.789063
242.956467 492.751740 1036.779419
91.378777 1145.244141 1363.557251
-144.601135 720.660889 779.310120
-388.578552 893.662781 1136.880615
316.690002 604.233398 941.745178
-103.199005 684.756470 804.695068
-245.753662 1145.296265 1034.401001
60.278984 1067.120361 1417.615356
-269.784027 730.290344 1376.458130
252.136322 765.320801 976.003296
363.831055 479.006104 951.537720
305.544769 467.037994 995.792236
-426.807159 961.087036 1014.381226
-199.538666 1193.022095 1020.181580
-186.531250 586.946289 829.051941
152.374268 818.737976 958.943237
-321.592407 1048.915649 1019.890320
-395.227966 984.858215 1047.817261
297.662292 711.496094 908.616699
-28.602245 590.566467 959.641541
347.966644 471.514038 959.099915
-196.146103 1183.612915 1056.116211
-28.241877 520.342712 1037.055908
98.963676 805.940002 872.111755
360.343414 677.412292 852.743774
-367.448822 686.444763 1299.621094
297.739105 653.489807 918.642273
-162.801712 532.528076 923.170593
-354.725861 740.861267 1266.833740
339.392426 714.583374 862.639954
-56.557247 1099.300171 1260.711548
-466.907501 828.941589 1096.267090
-120.219849 990.783142 1226.047485
-244.306763 739.202026 1338.452271
-415.153778 915.403320 1081.627930
61.478626 670.745544 985.965210
-33.520420 713.611877 846.091553
64.646729 701.568787 940.597412
129.099640 624.589478 1080.756836
81.172485 742.709473 936.862000
-64.859077 756.754211 773.334106
-131.709625 538.349854 919.030579
-264.424683 812.595398 1225.256592
-143.647415 532.266418 935.597534
-410.313629 702.704468 1275.000122
-177.388565 524.984558 910.802795
-431.914734 774.509705 1193.892578
-408.667419 915.202087 1053.015869
-134.625809 609.790100 858.328674
-54.307076 558.259705 991.290649
-217.440399 1104.499146 1107.194336
294.122162 523.512695 995.667297
-70.795158 642.887390 853.112305
-91.950325 546.720215 962.860535
-407.040588 963.305725 1041.379150
-253.817520 1073.237793 1065.401733
120.887787 624.292175 1098.735229
-37.478798 792.034729 784.101257
-27.911369 631.496521 925.168518
-161.994751 1089.043335 1080.304199
-411.285095 874.445557 1077.269287
303.111664 725.177124 869.528015
-292.159515 914.432007 1132.866699
-257.635406 1131.542114 1021.629700
442.927460 639.406982 828.261230
-100.589478 670.115723 832.282654
351.695374 642.363586 870.949097
-287.477631 1035.490234 1114.988647
-116.947495 1068.032837 1214.546997
-323.256104 928.284912 1102.478882
-436.814911 849.768982 1108.361328
264.828003 629.175964 975.144958
-147.317383 544.111877 924.063354
-376.460663 695.359741 1254.511108
286.097473 473.226929 1012.740417
-94.959404 1054.155884 1244.569458
242.113907 635.840332 993.453918
361.879578 432.995056 974.057251
38.259090 569.925476 1035.669922
-282.265015 876.617432 1145.338013
-41.079048 650.220947 888.529785
-61.132412 678.764648 853.572083
-31.720280 1111.290405 1271.638428
290.850128 684.718567 920.451111
-312.891327 701.134766 1375.609497
-165.701874 1046.107422 1106.318481
224.821686 558.747192 1031.436523
-192.359863 857.786377 1280.086670
-218.978333 1080.894043 1110.175781
450.524719 578.875305 855.011169
-106.407532 534.075989 944.238770
99.649055 671.768799 1031.719238
-360.681244 727.470520 1268.533813
-189.457870 775.593201 1443.996338
-155.122818 842.554932 1292.788208
-47.667328 700.862976 842.570313
-464.024445 939.465942 1011.481506
364.906311 688.370239 840.824951
276.007507 504.461823 1020.355103
385.955780 462.821014 927.098267
-419.588928 759.156311 1217.960938
-65.303627 1044.732178 1296.290405
223.207001 772.958435 703.837036
-238.105759 829.107117 1221.566406
368.021759 609.607605 879.172424
-459.482452 890.159607 1024.805908
98.522514 669.708252 1002.573669
237.836731 536.062866 1032.928833
389.449524 661.973450 820.430176
-472.585938 835.253906 1115.801392
-376.086517 842.178711 1207.047852
-68.170845 740.857544 784.012024
-463.820099 757.029480 1148.312866
227.438873 706.642273 1009.414185
64.167953 782.706116 874.957153
-431.680084 880.417297 1055.955322
-114.729584 1028.838135 1258.406494
-271.068481 721.261230 1275.006104
-290.645050 985.919373 1137.049072
-77.224167 639.454895 862.010437
-184.354324 1010.966492 1153.538208
231.420807 601.675476 1030.691895
334.416718 509.455841 945.429321
-203.450516 893.972412 1139.379395
260.601837 651.926636 954.185364
-272.873871 847.943604 1272.287598
-113.132622 595.029541 890.733948
-408.985687 880.535950 1128.886475
-487.104004 876.510437 1060.110229
355.230255 643.745056 869.104492
-113.650070 1085.139160 1227.548218
113.716339 782.767090 722.120850
-299.789978 1084.321533 1026.426636
-507.060669 816.372620 1048.955444
56.236809 1097.915283 1349.793579
250.845383 743.006714 925.134705
287.052246 683.640503 908.946167
-372.340637 813.404785 1219.295288
-34.208286 604.829712 928.179443
-311.404144 698.013428 1215.745850
207.432480 504.451630 1077.397705
-386.395050 721.281311 1291.582642
-427.022552 825.313232 1183.035889
249.593323 695.712708 959.287842
-30.453527 817.875061 765.241699
-350.006317 956.506104 1102.966797
297.716797 517.650696 1010.799805
40.161026 817.177856 813.903442
-70.290344 1070.801392 1273.878784
382.310211 485.932251 917.222290
-14.103959 658.463013 943.443604
399.539978 565.298706 892.630188
338.733307 678.112366 859.591980
96.613373 575.428284 1145.173828
-479.037323 793.636597 1122.471436
384.735962 598.629700 865.938110
228.852463 619.149780 989.845581
-387.727081 878.310852 1156.607544
248.984131 746.743591 945.476013
-263.138245 1087.754272 1082.568359
208.987640 588.136230 1046.914917
-57.070465 582.503418 920.447815
-425.944366 806.356689 1145.037598
-334.410828 982.683777 1098.134155
-389.946716 752.747559 1256.349609
-321.062012 807.351990 1264.695068
-115.105652 1074.536987 1222.302246
-357.989777 958.503662 1071.284180
273.142273 433.066040 1037.763428
-30.901995 662.402283 885.371338
-136.814468 734.530273 777.925720
-303.492493 1075.428345 1035.831177
77.174530 652.873779 1000.633118
461.279907 531.040161 880.552917
-143.822067 1186.138672 1070.185425
-171.617096 849.733032 1398.588989
-244.991470 1108.293457 1035.372192
-411.620880 857.260925 1123.970459
229.447144 631.713562 1003.405884
-193.224762 535.507568 926.855225
-170.387604 685.420471 798.804443
-327.066345 801.450623 1264.794678
-289.920929 799.876526 1269.578247
-145.845261 598.771057 854.874817
-450.861389 946.037048 1016.959839
-89.843376 605.529419 881.602966
354.138519 681.025452 840.891968
-357.243927 744.573181 1284.233276
250.010239 617.862427 991.036072
-160.369873 942.646301 1149.320801
246.856766 469.532959 1044.227295
-160.453049 1120.905762 1108.522217
322.942596 565.581055 935.890991
320.655029 505.011749 971.614380
344.709412 705.415527 873.199402
-374.973358 800.325867 1247.665405
-94.163704 646.805664 844.238220
-383.697174 878.837585 1099.108521
276.361725 671.827393 944.657166
258.465790 746.037720 945.975769
392.744293 508.297363 896.167847
-347.596039 1063.101440 1015.156616
-55.280640 730.612488 797.916565
251.886292 563.533752 1020.512695
-183.148773 639.953003 789.864807
-52.010406 674.606750 865.309204
-303.589783 1016.611267 1097.523804
2.474444 824.866821 791.610474
-130.348251 1003.576233 1188.649780
-74.803703 773.272095 770.920349
404.420654 609.161316 846.352783
5.344018 769.445801 832.384644
400.671539 423.053894 940.992676
-127.330902 612.198181 831.306702
-128.910431 676.081238 784.835327
22.399548 836.542480 814.936829
-232.563614 931.641113 1217.103760
-320.333160 697.697144 1371.825317
-348.397125 826.114746 1197.526245
-154.148972 1075.427002 1027.371094
-100.800430 650.199341 843.976746
80.550430 743.122620 930.919800
36.016891 693.257202 949.454224
-281.896271 1140.691650 1013.654297
4.610074 1009.082520 1310.951294
249.416046 521.788635 1031.046265
94.485001 630.669189 1089.150024
19.392839 738.919250 879.202698
270.280609 785.139648 878.100098
-71.437347 632.827637 872.310608
344.904053 420.565247 982.079529
-342.230560 694.737366 1288.721802
-135.446350 991.577942 1263.220947
355.425812 487.323364 960.080139
-479.028320 926.782043 992.686646
-63.740299 1049.723633 1285.897705
436.680542 511.725342 889.146973
210.447372 592.765259 1051.131958
204.763092 581.838257 1069.079224
-421.562927 999.275818 1006.077332
-420.702393 913.634888 1049.564087
-185.792648 540.192871 869.593567
356.611633 579.298035 925.795532
-176.773819 1045.282104 1155.530029
-380.402283 879.263123 1163.115356
413.517639 455.689392 912.798584
102.544312 625.016418 1091.566040
271.721069 713.852051 938.091064
105.340538 657.589722 1049.879639
-203.011536 572.658997 839.309509
355.234802 551.630432 931.492493
-169.740829 1103.883301 1067.024780
-236.262192 1141.024780 1015.354187
-208.945724 956.789734 1207.644287
-414.033234 867.418579 1110.253052
-174.229706 1073.730225 1120.748779
-233.254517 819.006714 1339.962646
-166.027084 1153.454224 1079.385010
-86.030220 743.602905 777.304688
35.928104 703.888000 944.584473
-101.805176 621.616760 858.451904
349.498749 582.967041 904.125183
-120.936455 779.622070 747.531311
138.452820 824.850586 849.389038
29.645098 677.125488 937.623901
-4.122751 701.596802 864.300415
-259.897766 1127.999023 1029.856567
-111.176155 673.065796 808.846191
-6.029893 678.162659 900.747681
283.580933 746.591553 894.889954
-334.770294 991.637390 1099.220947
329.830414 508.225433 959.749817
-321.185669 1053.437378 1051.836304
-159.334595 1167.231567 1096.514282
-250.640411 1039.969116 1132.792358
-352.975800 969.957275 1086.637329
93.901062 749.453979 932.769287
-451.083130 799.735596 1143.506714
-96.725677 477.401398 973.783203
-156.680954 528.909058 901.090332
-396.586273 915.161316 1061.533691
-218.362762 945.406982 1178.373779
401.404449 504.844055 913.700684
-120.289299 1038.980347 1196.511475
244.485138 597.603516 995.965210
-412.145996 869.311279 1108.709595
-172.205261 1097.716553 1071.205811
-64.504509 730.542542 808.768982
-257.059692 1057.711182 1074.286011
-46.818127 1033.758057 1300.709229
293.757538 566.552063 959.055115
-182.039383 871.424377 1217.319580
375.682556 582.961548 882.082397
-113.516594 674.279480 816.790222
165.161285 735.369873 1012.835083
-168.852951 810.851440 1414.964478
-40.617264 709.103149 830.708313
-201.256866 824.247009 1198.452026
385.161987 500.492676 915.328674
389.210419 539.983276 894.851135
-156.736160 1027.802490 1214.550049
-188.908218 584.767944 857.504944
-265.217133 910.002747 1193.155640
318.855377 469.026733 986.651917
149.723572 751.481384 1011.003479
-501.748413 822.643799 1067.114014
394.403748 486.618622 942.870667
-168.206116 1185.328003 1060.206055
-339.340118 1023.617126 1020.559814
-109.099953 1081.733643 1222.248047
360.205475 646.028809 873.025513
-210.027573 534.049805 899.750916
-119.170982 739.936035 771.173523
-318.193634 1023.555298 1076.662842
-160.396912 1201.949097 1060.824829
341.776459 723.994385 842.806763
23.100367 1079.249023 1328.621704
-277.085907 940.719727 1153.031006
-406.323547 792.523804 1171.893433
75.812546 619.067871 1102.332642
-140.524689 539.381958 898.562561
-126.383469 955.360291 1301.447021
-161.717148 547.335754 889.609497
-185.752319 848.061157 1268.961548
239.575623 472.302551 1049.867676
394.645111 496.719604 905.080322
374.000000 458.076111 937.717651
-174.303131 998.864807 1162.390503
-414.367950 1004.390686 1006.783936
-420.359772 893.466675 1100.205444
-111.347855 739.772705 768.480042
-95.955223 767.628601 753.129822
-344.143372 870.410339 1033.406128
-308.478394 1008.835571 1111.534424
-132.135605 550.872986 926.862000
-41.304459 1071.309448 1282.557983
-192.559738 1155.928589 1053.497803
-129.655289 556.673950 894.904907
409.814056 571.507751 859.172668
-362.228424 885.491272 1141.458862
-68.853622 729.278076 820.173279
101.034004 644.912231 1059.214844
68.906242 831.936707 819.853394
366.296448 633.623291 873.238037
-118.285820 496.678467 971.487793
-207.458984 987.752197 1193.896973
-73.973633 729.303345 792.326477
356.462219 629.866577 878.762878
29.076109 754.408264 847.385193
262.347595 748.036072 936.443481
-279.912262 1141.455444 1018.339050
-83.558060 780.173584 774.410889
-265.727325 1126.606201 1044.764282
-15.644858 1111.910156 1287.572510
-258.572632 836.421875 1288.780151
321.257935 555.905701 938.537354
-360.227051 889.342957 1164.952759
-182.840378 1131.000732 1065.551758
-161.140182 974.008423 1125.593018
-9.236165 708.889832 905.180115
-181.438461 775.033691 1039.642822
224.437943 610.459167 1047.824707
340.046600 709.725586 873.429138
-336.742645 1028.964722 1049.139893
-194.673996 1046.373901 1159.548706
-423.278595 787.384888 1222.481812
-311.212524 929.825745 1148.089844
-214.317810 808.643311 1225.787476
316.292358 659.152954 909.909729
-180.153900 642.238403 818.735718
-184.968185 1083.701050 1072.279663
449.506256 540.419067 844.723328
378.724762 547.796875 892.445862
370.993652 557.849487 923.974121
-195.893555 792.861633 1409.399414
-27.791754 761.514954 793.847473
-267.836884 994.360229 1162.697876
331.173126 718.883728 858.774597
-499.555328 844.486938 1030.044189
-360.850159 994.270142 1055.889526
299.440460 724.405273 888.513123
-422.480164 706.492737 1236.318604
-303.998077 789.230835 1290.601318
260.293121 540.431213 1003.998657
-175.933578 1009.947205 1189.655273
-82.189957 500.638245 995.559570
-208.559189 1161.037109 1031.899658
-297.992279 786.255005 1273.439453
-80.052834 1043.110352 1276.101074
53.185234 1084.530762 1411.738770
193.349030 523.293640 1070.641479
412.768280 584.793945 842.785645
394.289917 467.383423 938.143799
-188.733398 1176.245361 1049.442383
77.621651 761.715393 914.045593
284.554382 759.402466 910.518188
-349.707794 824.038086 1232.723145
-98.190208 627.854675 835.852722
-112.458374 687.366272 801.704956
88.949249 589.694458 1113.823608
-355.413116 1057.042969 1018.068848
-163.997955 646.151855 816.569580
-359.143494 808.328796 1252.271484
-240.545654 773.458923 1385.643677
-351.802307 670.604187 1337.415405
-313.587463 1047.552612 1076.124512
1.840876 706.074524 884.200562
53.663605 714.710205 927.091309
394.815186 602.763123 854.536072
-479.739105 932.430115 982.618286
-453.410797 855.005005 1127.245483
296.658752 469.194397 1001.566040
93.050934 664.326477 1001.880676
-205.464905 1064.046997 1143.050903
-168.949982 1148.387939 1040.364746
-430.866730 773.176331 1167.250977
-103.206650 1066.808838 1260.540405
-59.894382 642.751099 879.540955
402.339905 623.161621 840.904419
-331.921967 877.677979 1038.006592
-119.013863 1008.022766 1276.646851
-0.113806 592.198975 974.130249
447.038147 599.595093 837.834106
310.667969 408.769989 1015.422241
35.431660 859.885925 768.663940
277.130310 461.907013 1021.520325
-430.000702 963.516663 985.166931
-298.131592 711.952637 1385.744263
-166.100082 532.449585 905.301392
83.287544 1059.286987 1409.543823
401.928894 563.291809 857.472839
385.963135 582.313599 864.064209
-92.628700 1046.067993 1274.856689
22.267061 710.561890 883.985901
-162.291702 1056.970825 1108.220947
-353.351837 769.802429 1267.089966
348.420685 619.349121 901.037537
-36.973560 557.721130 1016.049927
-83.540779 550.596130 924.333496
-350.477692 760.328125 1269.833252
-20.818129 552.745544 1042.318359
-16.213381 790.723267 801.727112
-424.972198 933.141541 1028.918701
-161.537842 828.955750 1384.554932
-19.835594 672.638367 891.743042
-89.678429 484.421631 1011.984375
96.103065 690.087341 1029.803711
420.145996 459.361145 909.380676
-209.746918 814.497559 1218.432251
-360.764313 1001.399658 1049.024292
142.383469 723.013977 999.964355
-161.208038 645.816467 818.840149
409.442780 538.004578 876.680115
341.108612 515.846558 959.164490
81.380524 650.645935 1053.706299
76.136536 797.704102 870.449951
-358.908844 859.542358 1134.027954
459.502228 598.594055 835.681519
-377.598236 844.138306 1181.110718
-95.365974 621.029724 862.779541
-51.195099 589.200806 935.552002
-326.361969 1057.574585 1026.837646
-486.532806 803.940186 1099.169189
370.802765 637.159973 853.386597
-237.898483 1151.894531 1041.176025
356.475311 668.389160 855.745117
-372.904449 771.806946 1254.634888
-422.331024 693.988342 1267.661987
-96.654495 673.100952 807.934998
268.069794 534.116211 999.303833
-79.952667 639.523193 891.788452
56.005375 630.862122 1049.072632
-433.868103 729.411133 1203.981567
64.905380 625.136963 1069.856934
-206.584259 1175.862915 1038.937134
369.919952 639.777283 874.738342
-69.211678 471.452301 1057.476196
-416.557648 998.494751 988.572510
300.517822 683.518433 896.766357
-348.262848 990.983154 1075.810547
-124.282173 655.357239 824.522949
88.474655 643.298523 1046.754272
350.456207 644.345398 867.508850
-333.422943 640.832886 1310.529297
335.056396 408.862244 1002.471741
252.852585 567.531372 1020.908447
-308.074829 715.318665 1331.127930
-322.558533 856.117065 1120.046875
-62.231464 735.711121 808.292358
-255.886887 992.172058 1156.296021
-152.790405 877.301880 1341.419678
-465.108856 841.148376 1082.000854
266.516296 467.337250 1030.032227
-478.299835 937.527893 996.661743
-270.178253 1103.571533 1052.919434
-465.421631 813.713989 1113.187256
98.867516 755.684814 697.537598
-302.482849 858.793091 1261.796509
371.162933 505.174133 934.830750
-363.394745 1042.792480 1024.526855
43.070213 1120.970459 1341.745605
-270.745056 1054.469971 1091.516479
-360.939301 1022.511047 999.023682
-95.517052 526.739380 982.293213
302.431702 695.894226 909.997742
412.938263 505.696381 919.423584
411.038208 612.125610 843.441589
-308.527649 808.796387 1268.046021
-415.061676 807.888672 1173.293091
249.294434 522.108032 1031.527710
-83.288445 543.646790 953.255249
50.611523 598.847229 1078.965454
-317.584900 1021.522766 1095.407715
-172.707184 1007.710022 1170.837769
312.627747 624.473267 919.217590
-351.240509 785.180237 1287.413330
-155.182098 520.771484 932.319885
-453.342377 870.111328 1112.459473
199.275223 581.158081 1052.414429
-355.150848 694.552368 1264.036865
-495.119202 884.571960 997.186890
-99.636986 1025.671875 1276.904297
-91.754936 610.393860 875.340088
445.637024 613.383606 834.489685
-92.677544 613.268860 881.975342
-231.842896 1065.418701 1121.301758
-334.568420 1078.291626 1016.969177
-159.552200 1098.425171 1102.783691
-201.309662 778.326477 1401.244995
428.465851 589.389343 855.479736
-67.904442 625.498657 894.005798
-327.863678 717.244690 1292.308716
42.438057 600.946472 1031.494507
-284.275208 988.370789 1163.330200
37.650455 1079.972168 1317.338379
-76.158112 488.160583 1029.657227
399.084839 533.988525 884.598511
246.991852 641.493164 1007.800354
-77.446045 693.437805 838.942505
-331.701996 1022.889099 1085.827148
-454.769440 924.765320 1001.656189
-287.499512 758.760559 1292.661377
300.885345 500.252502 1000.792236
-411.207184 789.389160 1198.951782
-164.724579 1096.233032 1039.222778
-177.484024 604.151917 831.321411
-173.619598 880.960571 1144.105103
-204.473541 1120.945923 1062.286499
309.654510 738.693054 896.511353
-156.438004 926.434204 1132.958008
27.686691 800.770569 793.843689
-353.262604 897.819763 1125.293701
-355.005310 919.741577 1075.887695
-313.078094 977.636963 1112.639526
-315.803253 841.616394 1058.037964
371.511566 603.043335 885.357483
7.213720 630.830322 995.797729
349.511993 664.938721 865.128235
-414.908081 718.006042 1258.092896
-189.812805 539.613831 894.625061
-355.624603 963.243042 1082.760010
-227.234390 1164.259888 1037.232056
366.461487 521.576050 910.262024
275.222382 490.217102 1025.992798
-375.833252 680.306152 1341.546753
-209.976883 1181.439941 1022.034668
-48.012070 639.439148 888.607178
-155.930267 1072.958496 1136.938110
-16.953943 1081.323120 1262.476074
143.744492 683.265442 1035.645996
-64.100189 558.975952 998.767334
-63.972290 642.390076 881.074402
129.379684 813.937866 832.442322
-280.531342 1103.402100 1010.445740
-428.532166 987.719482 993.327026
354.191589 696.642517 845.489685
-5.323728 720.271729 853.466187
-54.400345 597.698608 952.233215
-200.790634 1176.548706 1041.508911
447.694489 560.584045 856.116272
-8.800001 553.693237 1073.492920
-188.017487 619.729492 834.282593
370.618042 593.679810 869.774048
320.651947 638.067688 910.299255
-443.288330 933.374756 1017.480591
-70.888161 766.458496 767.722595
353.278839 445.337067 958.429321
-73.532684 579.997437 932.189453
-115.399376 694.370972 784.567627
-92.526039 689.487671 805.851318
-418.728943 830.727844 1123.057617
-204.640076 834.919067 1036.761108
-272.424774 766.636108 1286.531372
-163.778534 1058.405762 1095.194336
-157.856140 1022.761169 1092.780151
40.118690 637.459961 1022.274719
269.908600 727.509399 923.607483
435.250214 593.710632 843.259644
3.595422 766.955261 860.879456
97.850006 686.361389 1013.227295
336.308929 576.351624 911.984436
-78.647171 782.894409 772.398865
-429.216980 787.736145 1174.236938
151.810867 706.685547 1057.074951
-36.124397 626.427002 939.862366
-25.736679 626.426941 951.245667
-35.187218 708.263977 876.128845
-297.562897 860.444336 1221.967407
252.288773 694.936951 959.794983
80.253281 785.595154 894.218262
-52.180470 1065.260498 1282.341064
61.432884 611.415466 1052.433838
-268.485657 951.375488 1164.081909
-340.380157 1008.538147 1064.883911
350.903717 474.003662 964.971375
-10.050940 1119.504395 1280.948853
-281.743347 1041.959961 1093.886963
323.479950 632.134338 903.992737
-431.800537 954.343262 998.033081
-24.574888 607.650940 949.518738
-357.854553 910.238342 1090.569946
-91.930176 519.340637 969.514709
295.923737 467.174103 1015.031128
-20.606279 790.144226 780.411255
389.914856 474.376190 930.971802
-132.085205 612.851563 851.664124
79.163605 788.629578 903.090576
29.102623 1040.926514 1298.766724
43.979473 1145.645508 1322.141113
38.567417 757.737671 869.215393
148.910309 761.123840 983.425415
-299.850739 750.984741 1265.786499
-465.121735 886.674988 1024.309570
-335.679535 1017.883789 1057.141602
-141.365417 571.942810 865.324219
291.996887 700.347473 927.779602
-471.821381 862.806824 1058.279541
-60.690071 631.387268 920.004639
-131.130554 539.029724 908.201660
-183.792023 965.694153 1165.883667
-161.067764 711.201904 767.376831
-177.379456 912.442688 1127.309448
-129.934967 574.397461 900.680908
-458.407196 944.347900 994.946533
-146.332626 597.539795 844.171875
-113.929474 1016.906860 1240.189209
382.448456 551.415955 879.782227
-252.572464 831.074280 1069.668457
399.957642 598.090149 846.855103
-500.327850 878.157654 1012.559875
-217.431656 1036.077271 1131.114746
-100.841232 1061.305786 1278.031982
-225.895828 864.849976 1266.433594
282.050354 754.513794 926.013123
-212.620911 1112.289917 1059.099731
69.030090 738.935181 915.511108
404.490631 638.534180 823.783813
-302.958282 1120.758667 1005.870239
-490.308838 914.148682 995.422180
85.326302 827.881958 849.927429
89.265015 1052.334595 1457.665283
-83.086777 708.451599 801.606689
-379.520782 1020.797729 1007.697327
-22.910360 765.296021 808.472595
-35.801041 584.674072 970.229309
-449.175903 813.082947 1151.458740
-411.821686 763.797302 1242.434937
-50.007126 1070.299316 1249.242188
-386.614319 863.779419 1085.028809
-178.184265 1147.020508 1047.515381
258.971100 481.062256 1031.897095
76.859116 783.660339 884.231201
-459.085449 774.166504 1162.965942
-302.278259 854.156250 1082.503906
7.235706 829.024902 791.926086
-127.949799 1172.753662 1058.903076
-351.106476 798.031006 1239.157471
360.377838 469.712067 936.551941
-99.770775 555.729248 948.865967
-328.831940 977.128357 1112.531128
25.311197 579.607239 1013.512512
265.408936 514.193542 1017.050598
-32.453167 699.909790 872.213745
79.928078 720.390991 980.101929
-473.128265 840.413818 1080.175293
26.168652 736.034912 877.318237
99.332268 724.922424 997.855652
-120.015869 647.506226 824.269531
-416.374390 1003.441772 983.786987
-100.131363 1063.133667 1269.432617
-135.504303 1217.784546 1046.273926
326.294861 650.582153 902.605957
-297.954681 808.054749 1256.672485
120.825439 782.398315 929.745300
-425.358063 778.533936 1193.727661
-16.917841 550.073669 1024.307495
398.927155 567.031189 881.221069
286.603271 695.271240 929.087585
-172.799835 811.303223 1431.279419
-10.882764 588.137939 981.990540
-417.557465 806.555115 1147.560181
-93.238960 639.591431 846.291321
33.023987 722.964355 900.295288
-362.195648 710.985046 1283.573486
153.115723 772.991882 991.672302
-162.139114 1062.924072 1115.022095
323.712860 522.832214 966.794373
271.248322 695.095642 928.270508
-71.729729 1059.536621 1267.867310
376.962646 683.071350 850.864929
412.115784 669.888062 833.963867
8.188863 728.197205 853.306641
-406.483765 774.584229 1219.686279
-376.448059 940.153198 1066.272095
-124.743004 478.465332 977.807251
-323.338379 933.694336 1132.515747
418.298584 550.697144 888.997131
80.989410 633.662354 1054.535889
296.782623 641.308838 939.612061
287.558136 655.323975 925.566223
-440.920715 798.486633 1160.884033
74.503433 819.819702 801.964905
-278.365967 1047.865112 1109.697876
-128.849594 745.770691 771.584473
421.007324 508.479279 883.365112
-345.607666 674.332703 1254.264648
-166.435883 1152.106812 1108.512085
-70.308296 720.629578 826.594604
-152.452057 577.048950 853.857056
49.454845 601.404846 1017.130127
285.039703 676.618713 914.409119
-157.413971 600.778870 849.357727
-74.202438 1055.904419 1289.396729
7.024359 336.792389 943.853271
312.530365 520.061951 970.370544
4.211874 794.920471 777.016846
358.896606 578.148438 890.390564
-232.789902 758.854736 1425.273193
462.422791 578.599548 857.952454
-332.598694 672.708435 1235.524170
-389.023773 764.521545 1250.679443
-438.463470 728.906616 1222.948120
-203.201782 1108.829102 1044.873047
10.337153 786.365356 792.982239
-103.519066 610.405396 847.653442
-275.652710 871.152771 1262.427124
-253.027420 886.924255 1158.840088
-127.507957 674.125244 799.674561
-359.384399 966.180115 1087.848145
-191.495651 533.727661 899.817993
-403.688873 848.742676 1170.120850
-352.901978 938.694153 1092.668335
-421.620697 845.612793 1130.350342
56.763786 592.643982 1056.839355
-149.064911 668.361084 799.501831
-101.663246 576.510742 899.832581
-85.452217 625.256531 900.645752
94.165543 584.095764 1079.629028
-162.035782 1022.091919 1111.322998
-116.248924 765.773438 771.724915
363.370483 466.065582 962.372681
-24.784447 576.716553 1030.281860
-461.337280 803.527710 1110.635010
-141.061401 626.525452 829.387817
-143.964493 709.147949 796.916931
-474.452759 805.630188 1118.245850
358.912811 681.927979 846.990234
-270.078796 889.820984 1239.164795
343.369873 551.652649 938.048218
-149.335068 701.598877 761.702820
100.938507 733.091675 966.315552
-418.174896 767.005249 1207.751343
-118.544342 738.013306 775.182007
-51.735344 752.083557 808.193665
-125.934372 598.320740 842.599976
-189.355316 570.284607 874.344299
194.746307 586.359436 1047.378174
-260.017944 819.264832 1251.182739
-181.127060 1081.943726 1111.574463
-80.843040 1087.940552 1210.836304
-189.566238 589.030945 872.576843
106.227219 783.229248 900.028625
245.748428 641.914856 988.138428
-367.723938 1051.432007 992.464966
-195.824463 850.495728 1227.907715
300.002380 543.692932 986.027161
286.360504 506.117035 996.751892
218.094971 680.938416 998.621399
-42.030560 510.731873 1035.435181
240.097885 541.812073 1030.414795
-213.652191 809.351990 1383.162231
130.811295 767.767578 989.444519
47.201183 813.405762 816.535706
-364.012482 835.978821 1198.963257
-77.000458 629.777649 881.882141
-132.969284 489.264099 932.443359
70.636192 778.465088 910.447937
-37.040108 1104.006104 1283.119385
-178.024551 863.317017 1330.893677
337.831604 630.655212 889.007568
241.011383 648.281555 970.914551
-227.278168 1055.108276 1125.864868
50.015259 1117.868408 1326.678833
-176.617676 825.328308 1042.667725
295.383911 691.680420 905.482300
383.610870 643.523010 848.053955
298.239502 535.165894 1001.512085
44.044201 733.505737 940.396484
-455.353546 949.422852 1003.171265
-18.875914 690.624512 904.996521
-15.794381 603.517029 945.943848
260.589722 596.921509 1008.497314
427.618805 489.096588 874.084167
-202.677902 1031.702393 1117.669189
-102.420921 596.340088 861.576233
348.556854 482.577393 945.389709
-67.365005 702.121704 802.112793
-101.916931 686.766846 804.099182
-85.588608 605.187012 891.999695
426.115051 555.266663 852.204285
391.205231 542.483765 882.920837
-175.665665 1078.958618 1095.927246
101.249138 660.854431 1083.813232
-423.625336 735.764771 1239.966675
-173.416519 1085.467896 1099.094238
-234.932846 987.903381 1190.741333
-169.678040 575.962036 872.137695
-328.390533 994.748047 1067.755371
-241.188416 753.298706 1262.630737
-437.208466 926.841553 1012.172668
-200.224304 986.889954 1186.909668
415.617004 541.492676 859.077881
433.852966 566.174011 850.803101
-112.808235 624.789551 829.888794
266.700745 442.728058 1048.073608
347.013916 681.131775 862.883789
126.679657 814.418701 898.685486
-133.697189 718.110229 784.936584
284.791504 639.502869 953.665039
-132.424774 717.079529 771.792114
13.730369 573.744934 1079.163574
48.353680 602.915100 1066.851685
-78.734039 597.849854 900.150513
-145.483032 1078.095459 1088.923584
128.484756 671.372314 1036.032837
280.251617 551.897583 987.481506
114.346405 668.453979 1057.617920
334.132782 592.826233 929.006042
199.076599 531.996643 1082.901733
250.450638 619.124084 979.588318
-457.696136 758.050293 1171.025879
-57.302528 771.214050 783.374390
-91.741089 1035.231445 1283.938110
313.670197 496.891418 985.404114
-214.402573 864.485962 1154.354248
395.441620 514.935974 903.831116
413.674469 488.372772 898.778137
397.302216 484.094788 930.496216
-409.847900 997.945801 996.597900
0.847577 684.493347 911.787415
-389.801056 765.898010 1242.550903
415.564819 532.103455 863.705322
305.362885 570.540894 963.651367
329.927704 581.290588 933.820068
-295.707764 990.669128 1158.485107
-58.052341 770.345398 770.586304
-327.530396 810.753418 1274.756714
-151.678268 666.164551 780.984863
-262.380707 1094.337158 1077.490601
310.796387 672.815125 906.208801
-182.893021 1094.548584 1067.955811
-22.224432 767.909546 795.568115
303.825104 734.553955 857.262390
-164.907501 572.853271 870.983276
-134.475296 683.385864 794.884460
275.433289 479.394836 1029.568970
410.553009 534.247253 867.854370
415.554749 542.799927 861.772461
-132.500687 669.561646 787.116150
-381.330383 895.944641 1039.072144
-34.057812 1065.178467 1283.170654
-171.771362 895.419678 1134.966797
95.269272 594.783691 1071.943115
-165.935791 527.929749 930.374634
83.603310 576.078857 1125.256592
31.628258 585.780090 1043.426025
89.219826 820.940063 821.995483
-15.693635 334.305084 936.181763
23.587830 751.825012 861.727478
-216.197540 1053.451538 1139.655518
-390.295258 952.055969 1060.926147
-206.488617 1074.442017 1126.104492
-293.910278 946.317139 1149.489746
-145.512833 611.810059 833.339417
327.330261 458.827576 995.874939
94.504593 754.825378 962.221252
232.137283 554.173035 1027.980225
91.109505 650.946350 1044.746582
-290.950684 1130.673706 1017.298401
-259.277466 976.734863 1146.253296
316.434235 703.676086 886.381348
-251.186874 747.873169 1399.188477
-305.711304 724.438171 1296.878296
3.176799 791.470825 813.534851
240.469620 608.503723 1028.333130
-481.472961 852.134705 1076.696411
-182.778763 1206.090698 1026.775513
-439.328735 923.018494 1035.615601
255.852722 790.493713 874.528992
-368.189117 830.432922 1232.740845
-249.195908 1055.734375 1085.842407
-336.154144 822.377869 1262.365845
-162.985352 1060.122925 1090.253052
-78.735909 611.601440 887.410461
22.401384 790.124878 815.427429
85.979370 687.147705 978.279236
319.336945 550.276306 948.887817
-245.245621 1052.725220 1125.990112
379.358154 591.514893 896.131409
-55.282948 670.385132 835.156006
-403.099670 709.808777 1295.827515
50.359051 568.867249 1102.240234
-503.316101 830.377319 1039.442993
-182.861542 1111.565063 1081.381226
-229.135956 1002.797180 1149.877808
-392.149384 977.849548 1037.022583
346.128113 582.278687 907.540894
-118.168747 1181.646973 1114.185547
-10.589974 714.501953 858.080505
-18.610506 770.747742 802.526978
351.056976 620.035583 893.003906
254.607117 624.756042 973.815369
-33.840954 768.806213 818.101929
-120.171478 1099.656128 1146.376221
40.283047 697.327820 909.798157
113.877213 687.846252 1049.286499
-84.602402 532.077209 966.149048
-240.236893 757.989380 1404.470337
-207.226028 1192.515259 1021.018494
-72.157776 758.150269 772.559265
312.096588 580.010620 936.031433
-177.868698 681.675903 782.528625
408.033600 606.404968 837.913025
-310.679504 795.986328 1259.372437
413.837524 621.052185 822.678894
355.652832 451.514160 958.208740
-417.757050 857.820923 1122.806030
388.390472 657.475891 838.094910
30.150507 580.307861 1073.244995
25.750837 769.384460 865.019287
303.953979 681.370911 908.947083
283.466156 755.324524 888.864929
-129.744888 644.221375 823.759277
-81.354568 620.119202 876.283203
193.809845 524.941162 1087.002686
-418.758698 827.002380 1149.897095
-111.344559 722.420776 770.107849
310.708405 638.899963 938.987793
44.866741 809.896545 822.372192
-179.109497 971.906311 1160.480957
-313.480408 1099.396851 996.125610
-221.454559 829.848633 1276.668579
-140.952393 1073.470703 1240.439087
-131.056229 596.136902 871.980957
47.992538 710.689270 941.438904
-410.335266 863.729553 1102.509644
-390.212402 931.397156 1037.235229
342.514252 685.368896 876.081116
-281.773712 999.032715 1146.473022
-84.229240 1084.710815 1233.771851
-24.305769 651.930664 887.548767
-20.350449 817.841736 780.758423
-139.327850 519.455261 902.596436
266.099701 486.980133 1019.093201
242.516815 560.637939 1030.186890
83.663612 573.616943 1101.597534
234.920166 511.506195 1053.398071
315.555054 440.171234 1011.338501
-155.916901 1169.450195 1058.132446
114.438568 812.284668 886.476379
-278.727112 779.709534 1276.243164
-113.390572 551.984375 941.551575
217.064438 505.817657 1062.513672
284.122742 629.916931 951.653259
-147.423126 627.200562 823.070374
37.523102 807.221252 842.967834
311.189636 697.922607 892.324463
-135.266678 666.318542 798.311279
-350.051056 1022.768250 1039.044067
-15.424756 709.010681 857.921875
-362.825470 888.041382 1141.898926
-199.343857 1068.712891 1122.750244
-2.933966 775.443176 832.185791
-402.189697 710.108948 1278.526978
-153.124130 1159.274902 1110.739380
-358.587097 999.354248 1030.165039
-479.445892 819.556274 1095.351685
-146.270386 544.862061 894.662842
377.139984 612.824158 859.095276
-75.975967 480.902496 1003.573242
-232.221344 1010.541321 1141.983276
77.090164 728.939209 966.494507
347.100800 624.619202 894.905334
159.392563 777.925903 1008.277832
-212.643829 1092.085327 1106.330688
71.255669 662.688477 980.658569
388.484741 585.770325 873.438599
243.715942 575.512939 1008.514648
-215.470795 1127.033447 1078.017700
-109.386375 707.636230 807.162476
395.969055 553.390503 879.808228
-143.452103 622.407410 824.523804
413.061615 658.882874 834.357971
-257.695923 1109.135498 1065.703003
-399.291534 704.981140 1270.710938
-313.899567 762.430542 1296.725830
-475.064392 845.343262 1054.757690
-433.437683 733.712219 1227.102295
-182.003326 674.587341 805.445801
413.482513 582.336853 843.779236
247.071701 592.496704 1013.802307
287.617737 716.224548 902.419006
-299.909332 874.606201 1200.186279
406.488525 475.443756 912.847351
366.051453 554.824768 907.925537
-324.925110 1079.129150 988.517944
-81.326897 652.828247 848.073303
-266.320068 984.217896 1154.061646
-406.985992 911.323914 1020.750122
144.948395 695.356384 1051.767578
302.229523 563.905701 977.315308
369.700592 405.647308 999.691345
378.549103 656.633362 838.876709
369.365143 657.162598 852.921387
-99.560417 780.982056 760.453674
-164.569885 972.917419 1138.975708
-336.789948 1035.642334 1022.171753
-310.102142 971.418213 1143.060181
-310.208710 1013.611206 1096.327637
-363.471283 725.851196 1272.404907
-6.636852 514.249573 1034.550049
348.829407 664.543274 870.599609
365.143921 535.403381 918.477722
336.823151 469.720947 971.000244
-349.425568 879.683838 1167.061523
-264.379761 921.171692 1184.894409
-266.783600 905.466248 1250.958862
-83.531883 592.487427 900.563477
-27.538298 704.396851 861.002441
-147.630066 657.543579 808.125977
-343.759155 1067.523193 999.308411
391.865326 513.151123 902.168396
-187.098297 1065.061646 1109.420166
-203.705704 1195.160034 1028.169556
-214.925201 966.721436 1230.419922
-208.431076 1006.388794 1226.637085
-386.464722 880.885193 1138.418335
-188.354050 1027.591431 1105.228027
-338.493958 877.498779 1044.627930
-188.423019 1172.311768 1060.567261
-109.001152 777.477905 775.035034
-120.704910 976.633789 1244.841797
-182.634232 510.453064 908.224365
87.175438 1081.022583 1429.817261
-375.346161 879.500610 1021.576721
-24.424421 783.267273 782.724426
-5.498016 803.027039 786.940063
414.187775 468.523865 930.251892
-33.689514 769.655212 795.393372
-169.428940 1013.054138 1139.183716
23.849073 687.630066 906.545105
-276.523895 970.223633 1174.969971
73.527641 728.106995 962.503479
35.235256 666.438782 964.241943
-365.148560 850.357666 1189.628784
-284.860870 772.383972 1254.542725
79.766777 607.229126 1084.284302
313.694916 442.760284 986.481506
362.037872 678.379395 849.523499
-341.280487 1034.948242 1063.279053
-48.934387 627.736450 901.544922
-74.680649 657.151611 847.540771
400.006775 490.347748 925.000671
337.465027 600.332214 912.242554
-388.942993 809.381775 1181.095459
-114.921989 673.171204 801.454468
-134.401306 751.470032 758.368347
-338.380432 857.168396 1104.360474
-420.005280 907.468262 1042.219238
-437.995270 938.908020 1020.491638
-375.432953 978.372681 1075.811768
283.242249 767.832764 873.944397
-30.692284 1107.778320 1263.692383
-364.002106 692.615784 1331.400879
387.060303 526.100098 894.398621
397.201050 573.267883 875.433472
82.544777 657.672913 1001.690735
235.081375 566.274780 1033.701660
-149.583618 580.788818 886.574463
306.090393 452.242371 1000.888000
280.376984 463.199585 1029.146118
411.082336 546.608643 882.463135
222.497269 690.236755 968.569885
-140.952621 1112.654785 1080.189087
37.746143 632.660278 998.641785
-58.938187 707.878296 815.626099
431.504089 541.623535 876.007141
-48.417797 675.460510 840.891724
-192.182724 1154.819946 1065.201782
42.651161 604.070129 1008.968445
94.806892 763.757141 925.852905
-409.259308 893.662598 1086.427002
-302.058838 1047.896118 1042.013916
295.930847 506.881134 988.619324
285.605988 544.019836 993.811584
246.876709 566.119263 1024.570557
-165.605499 1023.362061 1260.689575
-407.628845 703.421265 1282.405518
289.787140 587.558960 952.982422
-57.505184 727.648682 809.587830
113.624817 1125.941772 1405.760864
-37.212021 547.297791 1027.111206
286.606659 600.892029 967.113281
-166.762634 1018.658875 1122.165527
-240.710266 954.805054 1209.206299
-288.216766 705.530396 1379.341309
296.059723 431.671570 1011.235474
-388.595367 936.506775 1057.302856
-333.397552 1077.802124 1002.561646
-131.673508 634.771545 825.190857
-115.528397 478.248138 956.998718
19.033009 805.146362 791.710693
-39.107273 793.146179 781.323730
206.368454 611.152588 1015.465576
-189.550232 1032.530640 1169.983032
-336.630615 755.599854 1311.569336
-58.827221 572.779785 928.086121
-199.540512 1061.666626 1105.329102
72.479828 720.778137 968.014954
368.075104 674.048401 838.530945
-49.548058 790.483459 775.675842
-410.382202 830.933777 1137.130859
20.193232 815.054688 788.185486
348.212341 524.506531 934.940369
-308.944794 747.998230 1283.141357
364.063293 450.079407 962.837952
42.450191 722.068420 912.033020
344.710480 540.544250 933.702820
-257.471771 846.953918 1267.126831
-15.639985 637.593567 934.624146
-303.576050 1054.537231 1028.890015
-193.782257 509.097839 895.763367
33.281452 691.935120 927.299561
-396.807709 788.631958 1213.805054
-61.214802 611.727661 906.726685
-168.749405 768.977356 1442.807861
335.869019 559.482300 930.614380
-78.911293 568.955750 956.012207
-195.411667 982.049805 1162.735474
-317.550873 854.569824 1227.782715
255.045166 716.100708 962.705566
-419.972656 952.688354 1005.822937
-333.842316 885.100769 1190.382080
344.840210 556.609436 919.737488
337.830017 458.424072 981.216614
-379.066040 1012.927734 999.911743
14.359413 561.607361 1047.349365
-62.969387 619.324158 895.716492
324.966217 610.107300 932.135071
-267.914246 870.953430 1259.152100
378.546692 503.458496 908.633240
377.340393 501.050293 937.401672
-150.827042 652.838562 806.849304
-451.211243 973.335388 988.475830
-64.088699 653.622864 845.119690
323.419006 459.133453 986.234985
-166.229660 1022.430969 1229.764038
-273.237000 862.073242 1263.921143
-28.233246 694.468750 843.709900
-313.485565 1025.567261 1101.596924
-153.344574 600.401306 839.359741
372.010010 677.710693 842.037598
293.907928 493.866516 1026.294678
287.453369 743.304749 885.263428
-146.977295 1219.576660 1034.113892
172.414551 753.946960 666.945984
-266.543304 991.542175 1130.299194
321.424072 752.816528 851.436218
66.620850 643.190369 1046.998291
329.308044 643.163574 887.008179
-348.208984 977.673828 1085.717651
-396.755829 882.109924 1056.535522
-356.710449 1000.942383 1055.882813
74.946747 692.297119 988.177185
-387.963959 953.798767 1077.856201
-119.476006 577.639343 879.825562
-369.998505 1016.795532 1045.926636
-235.960129 1124.951172 1033.291138
-336.702637 1066.223267 1034.196899
430.291046 623.675842 827.261047
-315.928650 834.016724 1268.805664
222.764725 572.060486 1047.234863
315.540100 568.418701 961.054382
-98.657936 587.399536 931.700684
288.849091 717.426270 891.690796
-415.198792 835.807251 1143.796021
-184.218018 824.985657 1053.974243
-369.528442 903.962646 1111.867310
-314.501099 777.513672 1302.029053
154.660629 763.190674 1020.679138
-140.096939 734.279968 758.701111
-34.232227 680.537415 851.076111
244.307800 445.162109 1060.352905
-274.736420 960.020569 1183.349731
-255.794922 1056.079834 1104.231934
276.040802 556.803772 979.043823
-322.861023 977.706787 1126.950806
388.647980 518.840759 898.260071
-288.689240 839.265381 1266.018433
-356.499573 1058.438110 1006.375977
260.764923 596.355957 1007.717346
82.086075 663.537354 991.589539
74.055740 717.535645 942.342407
-88.419411 1026.552002 1284.301758
319.753510 668.249207 908.107056
19.270042 731.507507 876.871216
-365.189667 999.056091 1053.515625
-139.305756 1083.609253 1103.128540
-404.977142 902.202271 1091.049438
141.783081 733.454224 1007.195984
364.952148 607.509460 880.359253
-94.888702 667.303345 818.877502
313.080109 618.492798 926.310608
189.797119 581.279907 1048.613037
243.497498 713.104614 962.576477
-327.610870 981.813232 1099.126587
115.803596 755.802917 951.520996
-136.524857 543.958313 903.389526
80.572739 750.857422 920.324036
-187.763397 829.373901 1420.140747
-106.994003 734.565247 773.939636
122.077438 717.214233 1048.931274
-71.888458 1057.699585 1289.237915
-184.673080 636.765076 813.685486
-402.820953 902.800110 1104.074341
374.210419 653.807373 851.788879
-181.358566 1158.864990 1051.716431
127.619911 708.595398 1014.582336
-374.588409 1024.617188 1020.328552
-354.403931 940.109375 1100.432251
-146.961258 1066.510254 1149.715820
-114.205994 536.714417 934.541748
-72.163300 1046.109985 1291.821777
-172.453369 1093.714844 1064.143921
-38.604202 627.545105 912.910950
304.034851 647.976379 914.672546
