ply
format ascii 1.0
element vertex 1385
property float x
property float y
property float z
end_header
-1118.032104 933.012634 433.282227
-624.888428 918.006165 477.550568
-1084.053833 1057.260864 316.694031
-422.540009 883.464722 633.424500
-765.445251 564.811707 463.971710
-682.469910 752.095581 394.297363
-575.930847 805.025330 692.631042
-734.394226 669.470093 457.133453
-456.349213 838.385071 362.336884
-676.753601 832.930298 618.468689
-453.361694 685.195496 790.937439
-1151.542480 789.552002 441.988739
-359.083649 796.775452 695.105469
-711.833984 799.107300 677.465515
-1101.650146 972.170837 313.635040
-496.590576 745.684143 753.309448
-1078.189453 969.047852 563.462463
-1131.217407 807.464050 383.474976
-638.522583 901.223694 450.263855
-603.158142 710.151611 769.079834
-402.217896 853.173706 651.355591
-1087.622070 1055.564087 662.695435
-757.747559 584.216614 486.499664
-1073.405151 1074.012573 399.325714
-431.262299 898.559937 624.142456
-1091.032837 993.476746 309.927795
-747.612183 666.837097 372.593262
-771.048523 558.350220 443.597839
-345.396759 677.560486 804.554504
-406.619781 830.769897 672.008728
-1189.671875 683.675903 639.737915
-691.890747 739.668518 464.985199
-685.284424 858.018799 653.485107
-444.892761 687.122864 797.384033
-1105.286377 991.359192 301.761688
-1115.510742 940.288879 441.002197
-1147.444702 855.902710 274.660858
-753.329041 615.224121 377.238129
-1171.828247 836.473511 765.948181
-703.062866 752.682739 359.017517
-735.627380 602.968018 446.527008
-1048.626099 1108.080322 453.854248
-1035.743774 941.524292 578.359558
-311.119598 848.147034 674.767578
-736.809937 685.433228 433.173035
-745.658752 666.836121 694.448059
-1200.493652 779.818420 762.557983
-1057.732300 896.458862 652.811157
-625.726196 429.409729 659.534546
-1046.048340 1165.728027 430.734711
-709.156250 768.735474 323.637268
-1183.162598 786.450623 451.745636
-754.948181 577.954468 545.574707
-1037.058960 1068.204346 716.480835
-447.656372 796.717224 709.374023
-702.381042 689.421509 449.327271
-1132.993774 893.038330 349.576447
-1148.523193 819.280762 577.987183
-738.095154 666.360046 372.474243
-1148.114014 839.925293 316.477539
-1180.898682 749.842285 603.697571
-516.650940 684.520813 798.073853
-1094.911255 1030.073364 344.792603
-670.232422 808.459717 641.344482
-1134.057617 967.659668 422.189728
-1044.259399 984.247498 625.708801
-1110.732788 1018.687012 323.726868
-1105.812134 789.545166 625.854187
-713.381958 761.125549 345.764435
-1159.737427 790.089233 397.099396
-1084.838867 1059.166504 326.796173
-304.855103 756.361267 732.980896
-1042.391357 1227.222168 811.403381
-1174.358276 831.388977 293.073975
-1115.136108 789.456970 358.571930
-487.503052 808.160095 703.515747
-1106.427734 986.886169 302.646729
-470.148468 717.216003 779.169739
-1165.463501 734.466675 630.405457
-533.772827 683.983337 793.190491
-680.496338 832.221313 566.641235
-1205.717773 651.197021 635.512512
-1095.347778 991.908813 405.171936
-1030.637939 983.015808 468.045044
-347.112030 834.142090 670.150696
-1108.600952 1018.491333 309.515808
-553.905273 740.193481 747.897766
-1071.827881 893.716492 676.147217
-503.384918 655.015747 818.452759
-1067.040405 1082.528809 644.212891
-293.348511 791.529419 702.854980
-685.669312 740.710022 417.766541
-735.885742 681.844116 389.452545
-1036.109497 1148.526489 366.773834
-294.232208 742.277161 748.973572
-776.804199 590.480713 396.239288
-337.992889 864.669189 662.115723
-500.637268 830.855957 684.175476
-1126.666748 863.901428 492.495697
-1202.138306 651.075317 648.704224
-1144.388550 902.915588 261.470184
-726.525818 702.083923 442.978668
-782.194336 609.518555 363.478973
-783.473083 542.208923 443.300659
-576.939148 780.745789 715.287415
-1207.872192 737.262268 528.633545
-1034.352783 1051.185913 423.927643
-1132.682129 935.971191 404.195648
-726.717957 663.148254 383.311188
-1040.638672 1081.002930 343.092773
-663.849548 880.540161 594.145569
-726.283813 752.486633 739.818359
-1151.027954 902.754639 802.920410
-1117.079346 757.912476 625.483032
-665.755798 834.010254 625.330505
-1147.371948 795.688110 416.103516
-489.895081 816.713867 375.752258
-1063.444824 1095.978027 625.030334
-710.528503 698.299927 398.007263
-1149.261597 835.062317 298.086945
-1180.148560 787.548584 713.373779
-378.771149 748.292480 750.241150
-1147.418579 887.625671 501.915314
-560.762512 786.929932 709.370911
-1085.017090 1066.224609 362.393890
-792.734497 527.876953 436.535217
-749.592773 669.366211 334.219177
-1087.382568 910.658264 544.228394
-711.129639 760.598511 737.595154
-1086.442383 1007.081970 329.398499
-1168.395508 798.341003 315.384918
-1214.207520 741.583069 763.454773
-310.107635 750.719238 740.591675
-549.019897 756.671082 734.420166
-745.259888 647.589905 615.626465
-767.523743 561.491394 584.050171
-375.090851 883.727783 636.231812
-412.597076 738.525635 758.149414
-648.225281 826.820374 351.272278
-1159.709106 808.747559 330.125153
-1117.812134 944.335327 364.360046
-723.452332 665.292786 393.986023
-788.403748 508.465729 548.240051
-769.610718 552.226379 592.260681
-1027.142090 1170.858398 369.281525
-524.898193 730.952148 765.394897
-1062.977539 1014.080383 458.038696
-774.188904 537.225403 462.417358
-644.505798 873.235657 581.950134
-508.833374 748.496338 736.028076
-559.396973 826.331116 707.304199
-1065.446289 1069.367065 333.133240
-699.555847 714.961792 375.625458
-1042.094971 1121.594360 506.954071
-1075.194336 776.397583 460.999695
-499.557831 847.593201 668.816467
-610.774780 708.882690 781.138062
-1199.376831 743.095093 416.031006
-682.467285 779.238647 351.452545
-748.522827 687.870483 605.078369
-510.976990 829.827759 677.680054
-417.454376 754.618286 737.897034
-524.844238 842.274902 668.427063
-733.189392 642.976074 516.708374
-517.934875 785.435852 717.837219
-477.508026 764.380310 734.219177
-1178.317383 751.609863 319.607941
-718.685730 694.086731 360.904175
-529.593018 728.280090 772.070862
-1245.626587 653.330994 591.494080
-1223.195190 726.332458 567.804382
-446.989563 836.391235 671.151001
-773.834045 549.562256 635.588074
-358.745117 854.770081 658.529724
-363.141541 784.952271 715.249390
-1199.999756 699.078247 586.938904
-1199.433838 764.058289 285.736603
-490.522858 710.626404 783.203918
-1244.983887 643.739441 644.993774
-720.206543 692.461060 346.287933
-638.267761 847.220337 384.668121
-656.312439 904.020081 585.270081
-288.563446 817.112366 713.120361
-498.736877 755.419861 728.318848
-1006.960876 1224.648804 829.140198
-1144.389160 939.995300 368.887207
-404.386230 837.121094 658.825562
-1170.488037 841.364441 306.738373
-723.370422 702.230286 323.195679
-716.437073 762.889343 297.826752
-701.186646 741.874573 482.762360
-1118.496338 974.726685 400.652466
-1191.841431 754.076111 378.782440
-759.208008 568.603271 521.709595
-729.174927 695.676453 442.025940
-1093.384888 995.872009 424.035553
-274.648346 754.638062 745.925964
-1156.567383 807.877258 617.622314
-1121.133789 969.846558 414.058075
-621.092285 864.866211 396.625793
-384.148407 664.352539 804.725220
-652.902466 861.651062 474.455994
-697.773926 789.677979 421.781525
-802.011047 522.277405 457.652283
-814.039429 517.104736 461.180817
-638.242371 884.880249 519.979858
-757.241394 646.897095 662.255310
-1123.108643 901.906982 507.369537
-361.119507 737.303101 764.370850
-1183.216187 737.413147 355.070038
-1219.321899 684.027710 391.646332
-677.242981 782.129517 586.080505
-376.473541 856.290405 652.594849
-347.873322 731.260193 757.374268
-1140.298096 932.614319 349.197906
-481.567535 803.425659 713.188477
-1162.501465 692.353699 669.261292
-436.561340 654.240601 806.754272
-732.158997 686.707581 691.752930
-1193.618408 787.054932 355.797272
-1121.855713 952.904602 299.476227
-729.952942 630.827026 677.557739
-723.549194 705.759644 635.784912
-744.906311 610.011169 496.748199
-1212.085815 669.456543 327.527344
-764.444336 617.180969 372.437683
-686.848755 750.760864 358.819702
-1226.457153 665.686096 536.079102
-425.556641 726.061646 763.307190
-673.318726 840.684082 679.170959
-1208.657593 721.178406 426.670654
-1166.759888 786.746582 333.312500
-774.919373 547.065063 507.046356
-695.149536 742.833496 530.228699
-991.370911 766.487549 430.755890
-437.369934 871.503052 653.500366
-741.381775 581.245056 557.128174
-394.552368 828.677246 680.462830
-489.593628 808.984619 698.253967
-1142.996460 898.051453 349.317322
-504.306000 831.536133 686.887878
-673.923340 808.484558 518.096802
-740.181519 680.318359 556.643433
-1059.012817 1088.717407 612.165100
-727.367737 741.270020 321.813446
-1123.185547 979.080750 362.930969
-390.829041 871.585022 649.860596
-391.848694 812.860718 686.270630
-1212.245483 671.562317 447.732422
-1051.885010 1103.402222 333.575348
-1174.342041 773.224548 563.911499
-1180.008423 755.448730 248.037796
-502.724823 813.910645 707.069275
-427.088593 628.780151 818.151978
-751.147278 711.297363 734.579895
-1104.585693 999.409241 417.022400
-1229.264404 717.870178 515.999329
-1087.741455 883.304199 557.098816
-726.432312 630.184937 416.481018
-1092.408203 1022.778931 469.040009
-1104.658936 1011.209900 442.489716
-717.312805 747.192078 749.525696
-1186.367432 764.477783 600.623779
-720.129150 731.086731 591.273987
-738.338196 681.385925 422.445801
-714.462891 761.131226 529.985901
-728.441895 681.119446 646.701721
-443.160400 724.508179 767.003418
-1175.253784 855.653992 329.246979
-1117.044312 996.722534 328.961426
-547.082825 803.771179 728.188782
-741.501709 773.447388 313.139618
-1041.369141 1127.879761 358.720245
-1208.935425 712.679932 741.141724
-1198.578613 780.237915 576.536438
-1176.609619 771.762939 299.971954
-745.678345 624.170776 380.609009
-738.851257 628.330994 408.358185
-1105.978638 934.757324 563.137451
-1198.326782 749.616089 530.831787
-1094.880371 840.810547 412.369751
-720.489929 670.598572 374.542542
-1196.688721 713.795837 409.347168
-747.556030 557.913513 609.015747
-770.749573 559.037109 552.063049
-1184.279175 743.846252 592.284058
-1039.098755 1150.124512 403.406036
-1235.768555 710.716492 482.971405
-365.897644 780.217773 704.589600
-745.977051 614.665649 419.979553
-1140.471436 839.360901 398.702515
-773.724121 529.715881 462.268829
-721.197510 658.387695 679.858093
-417.540741 747.849426 751.903381
-699.224304 800.861633 668.268677
-715.258911 683.416809 455.749329
-1018.890381 997.213135 466.041595
-441.527100 802.645996 703.866150
-1118.271851 1012.820068 623.334045
-1205.894531 794.741394 534.696777
-1204.651489 773.033386 578.019592
-1175.444946 801.152710 573.917480
-780.103210 534.813049 516.486877
-406.876312 705.700745 774.541626
-755.340332 618.559326 700.073059
-1199.508789 745.919678 503.708221
-990.188171 1268.595581 796.334229
-420.722137 857.566040 654.932922
-1102.412231 1019.444092 294.641754
-726.918945 618.890015 444.338104
-555.951965 771.175354 746.148132
-664.639771 824.851990 418.506256
-501.052399 677.253296 798.026184
-1166.867798 828.101746 690.756165
-587.568726 722.437866 773.450073
-647.983276 838.516357 434.741486
-464.867889 839.236694 369.756531
-1186.607056 808.672913 812.758728
-1092.394043 1053.678711 337.925507
-1122.395874 917.461853 513.000732
-394.626251 753.853821 741.992493
-1207.250732 717.835571 375.230591
-762.033447 618.333252 441.952545
-589.411682 724.920715 767.085388
-1037.162354 1013.641235 476.519012
-754.903137 594.247070 371.190704
-737.254333 711.640381 698.793457
-716.079468 772.971375 286.128448
-365.501923 871.954773 641.398071
-1035.350464 1079.419434 525.930786
-1026.370117 1070.003418 355.927399
-1193.244629 756.618652 305.339447
-634.200745 895.555969 532.575928
-1224.876831 719.015747 540.610840
-1146.782959 927.666687 299.991150
-569.440186 834.143677 692.914795
-709.689819 744.243286 661.652527
-1207.593750 766.093872 533.188171
-682.314270 818.227966 610.156006
-650.370361 900.787170 538.040344
-1069.566406 889.456116 540.450317
-1171.129761 832.341797 265.574188
-1153.621338 922.660461 372.288574
-1131.453247 944.092163 411.188202
-421.715393 722.329895 764.763428
-677.275024 849.022339 579.120361
-1184.044312 682.641663 666.239807
-1149.120239 847.740784 849.136353
-483.688568 626.682678 827.381409
-1204.932373 728.008301 452.049103
-516.542114 910.442322 596.702576
-734.313171 636.729248 551.872620
-358.938293 807.356323 686.593018
-412.468353 730.017639 765.713074
-538.818665 797.031433 732.206848
-1191.842285 651.314209 633.398621
-1037.086304 1201.670532 845.870483
-1142.632446 904.624084 503.673706
-724.713440 673.165344 610.090576
-1229.122070 668.029602 513.234436
-738.141479 678.995850 337.130829
-669.524719 777.595642 462.512421
-716.442139 660.033203 397.533020
-1187.206177 764.595276 323.948639
-729.157837 663.198792 356.371857
-1149.856689 827.942017 604.527588
-665.490173 799.664368 472.526184
-1158.252441 873.244751 430.257690
-695.125061 718.841309 369.290802
-1095.910278 851.815796 516.679993
-1041.073975 1139.663574 356.630829
-547.968262 820.021179 688.575500
-477.910370 825.563049 686.472168
-509.973267 706.394531 782.381409
-1221.603271 682.717651 404.799225
-1202.518188 770.072510 315.583221
-644.855225 844.201721 379.525970
-739.398682 634.390625 585.503418
-720.102051 775.092651 294.137146
-1000.233337 1242.516357 818.671082
-1155.266846 838.641296 559.157959
-505.743286 658.501282 817.172913
-1108.030640 1004.380615 443.910034
-620.122620 856.831055 401.784241
-347.316925 763.470154 738.259399
-751.639160 564.292297 561.561218
-1111.697998 1001.341187 451.633667
-353.652405 873.391479 648.039124
-1107.296997 1017.854614 414.779266
-721.363220 633.765991 521.467773
-329.648163 685.751892 799.181641
-728.353333 661.489197 446.184631
-477.462646 753.184448 751.589355
-1089.061035 1001.214355 430.585327
-723.348694 634.726257 569.528198
-1159.618164 765.266235 419.413971
-1200.028076 698.177002 407.439453
-432.325439 654.983582 801.397827
-735.732849 634.201294 527.807190
-683.892090 798.773560 429.369995
-1156.867554 866.566406 540.387817
-1016.925781 1047.008667 727.436523
-479.837830 794.633057 720.165955
-688.493469 798.759644 705.620422
-1068.786987 1039.714966 565.926392
-1010.457581 1148.076538 652.301880
-703.884033 721.453430 547.911865
-710.261719 708.508301 491.193054
-377.591217 840.736816 666.162720
-484.284576 793.992310 712.495483
-1213.806641 717.896790 494.818390
-717.763000 752.443604 677.425232
-1129.908081 938.707520 373.899353
-673.710266 839.500977 674.692139
-316.757782 748.859375 737.181641
-373.752258 810.881348 694.851013
-456.057129 653.853943 806.686401
-1159.759277 792.606140 663.582336
-376.292236 792.783142 698.941406
-1217.014526 678.494202 712.218811
-727.328430 787.329407 318.416199
-756.585144 636.352295 615.349487
-553.828491 765.034668 725.846680
-786.901367 503.050964 537.667297
-327.775909 744.066406 749.104797
-738.708923 659.967834 391.614685
-687.440430 810.779602 321.907654
-1114.525391 977.889404 329.588989
-366.618164 846.858826 646.920532
-405.915802 852.141052 652.139893
-732.617310 688.713257 344.119385
-541.857971 838.349854 683.841858
-556.658203 704.508545 770.432983
-1198.773560 783.508545 592.249451
-647.176819 441.160583 644.043518
-777.773804 556.139648 446.217194
-1073.011353 1018.172119 538.126465
-712.476257 690.758057 385.372803
-711.609802 763.120056 600.500549
-1042.332886 851.424011 554.462341
-701.261719 724.946228 380.017731
-1081.437866 1057.158691 349.409668
-1164.144897 797.721069 432.277435
-1215.057617 735.267090 406.809540
-1066.670288 899.950378 686.492432
-456.176910 778.267639 709.503662
-349.372772 689.186279 786.722229
-1203.057129 741.629517 438.180969
-731.544800 651.499268 515.377563
-1211.093628 713.366882 462.293671
-1239.652466 627.393860 590.478516
-473.260498 722.733459 769.209961
-1188.917603 764.660034 607.605347
-996.433594 1032.458862 380.293915
-411.620361 894.963318 617.180481
-509.017517 681.310730 799.946228
-1053.134399 1056.744629 652.233337
-1117.543945 971.264771 411.593262
-1040.434082 1156.507813 382.060638
-1169.108765 663.106689 617.871765
-1035.681519 1148.210815 357.382690
-686.426331 765.733337 362.321747
-691.159912 780.415039 406.548462
-766.739685 622.222290 546.418274
-442.918579 867.688843 648.443115
-1122.685181 839.306580 364.508698
-352.676300 783.684204 731.863159
-459.081055 696.704224 780.903442
-701.100281 698.107300 560.090820
-1102.112427 847.547974 508.582794
-1162.320190 826.722229 318.812225
-679.772034 808.860901 568.902893
-706.581848 767.642029 606.500977
-712.020386 728.576660 644.723572
-1097.851074 1019.934326 388.972839
-554.495850 839.481018 311.398132
-441.364899 893.119019 644.329651
-1015.510376 937.134033 597.420776
-358.508698 871.282837 641.424744
-586.974060 769.886963 749.157349
-1120.560303 912.499268 316.705811
-672.386597 798.386780 463.669128
-769.927795 640.545593 667.279785
-398.093231 762.796936 738.540222
-651.699646 906.189148 534.074097
-685.513733 735.179749 520.386780
-1206.043457 729.742615 508.510681
-654.290039 858.834045 562.933838
-1183.779907 781.811768 294.175995
-710.784058 755.365784 367.154816
-360.867859 777.220947 709.785767
-680.036194 788.902405 505.639496
-508.623535 683.109924 798.371948
-686.293823 822.212402 375.356720
-694.176270 734.842102 478.271942
-1207.657593 725.856018 497.437744
-1164.401978 874.152527 319.784698
-707.145752 732.406067 618.206482
-300.894714 816.272583 713.107971
-1146.268799 814.677002 531.706604
-677.816528 774.304749 549.349609
-1205.462158 683.566101 604.961914
-782.774963 559.841980 560.540161
-742.002014 669.158569 339.334503
-1226.199707 675.289673 567.353027
-457.036743 638.231262 818.687866
-1086.651489 1065.216675 330.175171
-510.918396 854.485962 663.259583
-1188.972778 759.918579 256.802246
-1081.715576 1016.393921 421.934296
-507.004517 793.598877 701.307129
-397.029449 636.749329 828.245178
-1150.577148 914.389160 353.733765
-1052.853271 1130.670776 379.679565
-1165.289063 821.807556 615.090332
-442.198730 720.199951 775.376160
-532.385010 648.942810 812.997009
-510.814209 665.476929 810.814392
-1086.461182 1041.938599 370.776703
-694.718872 744.582825 369.683350
-269.603943 766.449158 749.637573
-696.003723 820.378967 342.192413
-1095.042603 1060.727539 335.285431
-1205.398315 739.754944 458.753082
-753.461548 622.454163 469.157654
-1089.615723 980.339600 491.336060
-1113.116089 1001.479248 437.522583
-1069.946655 1074.108398 394.779175
-1080.520752 1126.526123 632.271912
-809.136047 497.432343 493.567566
-578.117249 776.497986 717.737854
-1097.356445 1020.647278 449.754059
-1237.252197 648.461365 524.072937
-1044.159912 867.358948 640.700378
-568.045776 663.244751 805.060913
-540.789795 751.312256 760.388184
-773.371155 553.903931 535.196228
-367.072235 788.659851 706.035950
-715.401489 689.880859 402.022980
-1163.226807 778.812012 354.409973
-728.439209 750.832214 325.803070
-1018.460327 1067.128784 430.984344
-497.745087 643.622559 818.161438
-1152.428589 881.891907 358.368652
-400.751709 842.512024 652.584839
-1132.660889 832.809387 622.584656
-1102.497314 916.473938 535.693420
-751.184143 649.310486 424.465607
-1106.612305 960.607422 336.925842
-722.208801 729.247742 476.087677
-664.265503 819.814331 690.595947
-745.496460 691.900452 698.840210
-700.049805 730.715271 534.394714
-552.939636 753.030457 748.831848
-805.672424 527.053894 447.964478
-723.799683 679.380981 519.483887
-1163.239136 845.042725 580.862915
-691.761536 782.529541 319.622711
-666.339722 846.187134 380.892242
-462.943970 648.098022 834.316833
-1035.443115 981.655884 503.322174
-735.643494 694.242065 487.465546
-671.567749 836.328369 410.870514
-1168.118774 841.626221 575.076477
-375.755127 872.053040 629.583984
-338.399597 744.392456 762.890259
-727.337952 652.597290 480.814087
-1086.093506 1020.032227 464.233551
-1116.373657 994.058716 453.266846
-714.859680 699.114624 401.408051
-533.799011 863.639587 673.331421
-691.992798 787.878662 425.084595
-377.539917 696.459106 783.117493
-625.699646 823.288330 405.364532
-726.450500 737.350891 315.150940
-1111.574219 924.801453 540.134644
-1214.730347 693.644653 377.528717
-777.159790 610.171509 362.909027
-786.689880 566.677002 413.619720
-726.137329 667.282288 447.883698
-339.825104 816.715088 681.154236
-356.041321 754.830383 744.987488
-1027.186401 1096.602661 369.049103
-1029.117798 836.369446 496.333801
-651.314575 908.535217 642.699463
-1192.913452 759.162598 274.442444
-1110.020142 987.317200 529.380371
-1219.569092 643.626831 448.459595
-1202.103394 731.367249 438.666138
-775.471497 558.995117 392.682953
-723.155029 709.235718 433.093842
-1141.827881 923.474609 507.679321
-448.198151 719.552429 764.812866
-1131.875244 932.983093 331.206268
-1151.579712 776.604431 401.066925
-745.550171 631.128479 361.027344
-660.550720 870.476868 574.015381
-1165.714111 801.729980 617.521973
-585.236023 711.383484 785.251099
-1051.159546 1109.572021 465.843170
-795.408325 504.594971 493.066650
-1040.179810 1052.138916 442.708740
-687.424500 797.728516 582.498779
-1008.296692 1226.149292 725.073364
-1174.502319 877.986145 850.798767
-1046.944336 1145.696167 385.513092
-387.573792 730.304626 753.271790
-1113.017456 976.563049 481.810760
-1051.097656 970.201721 602.595276
-415.370575 894.420227 630.118713
-1052.963379 1101.580811 474.699921
-1226.510254 676.612000 453.341766
-1176.308350 813.053833 532.112854
-723.926575 732.276184 324.562103
-1116.908447 974.441345 356.727417
-1188.556274 762.949463 404.084137
-729.692322 661.845398 555.315247
-387.025116 815.538330 679.928223
-1138.490601 912.054321 292.162567
-1035.682861 1222.699219 726.732849
-1120.400879 962.972046 364.940735
-1217.203003 744.264343 576.920532
-685.231262 788.002991 554.337646
-1146.029297 884.736023 279.060089
-440.585358 829.359802 679.208618
-1170.190918 831.689331 299.688416
-1209.751587 725.397095 446.763153
-1105.585815 976.742371 473.822723
-1052.875000 1144.107666 642.522766
-1194.480835 755.545898 329.526581
-1235.436768 641.845581 513.726257
-1048.532104 1124.094727 646.019958
-735.629395 596.182678 548.329773
-670.665833 774.077148 443.019531
-750.159729 665.249329 535.921387
-1139.307373 912.741882 318.054596
-322.161102 707.848450 774.607544
-784.832642 546.082092 517.267578
-430.869507 701.058472 779.244385
-1027.386475 1152.618408 441.746246
-432.638306 729.060608 760.943359
-1128.638672 934.417725 519.045959
-684.204956 776.769958 514.396851
-1217.155396 689.817261 433.664551
-1216.042847 712.720032 541.971802
-1053.646729 1077.068970 416.998047
-701.312073 754.968079 535.960022
-1127.978760 842.338867 407.739960
-484.993164 877.446777 651.810486
-1096.754517 1048.453979 569.072327
-742.326721 688.351135 322.357697
-1201.075439 731.850647 290.197144
-1156.630249 887.637207 350.489258
-704.601563 751.220520 727.993225
-1080.096558 1044.788330 388.276245
-1156.202026 924.266418 450.263702
-1132.974121 958.243042 501.023926
-1213.690552 714.181274 504.010406
-789.912048 527.117493 639.836121
-1055.549194 1147.030762 425.808716
-673.124878 846.937622 708.046143
-1181.915649 762.202881 316.539612
-732.003723 622.528564 669.513672
-460.498413 827.153687 670.399658
-407.875763 791.805603 694.754639
-1227.394287 722.174438 356.190063
-760.977539 581.892944 533.152832
-706.124268 746.580383 649.070435
-726.517456 635.403564 489.266815
-743.625305 576.459839 468.611176
-1174.124146 810.619690 305.578217
-724.719971 694.020569 412.429443
-1142.402710 941.371948 384.807068
-1081.306030 823.442871 471.718262
-1043.912964 955.920654 493.140076
-1189.413574 737.618042 538.137512
-1221.574097 692.853516 518.323914
-690.877625 748.025330 449.397522
-1029.423584 1166.950073 710.512268
-1191.202026 747.977112 351.320801
-1051.367432 1144.821899 654.135254
-458.957703 895.197510 643.343872
-432.202515 819.934631 683.910950
-734.511963 665.439453 432.721863
-514.131653 745.229553 741.843567
-667.637390 850.779114 657.155701
-1051.647949 1065.999634 650.106506
-1121.189941 962.142273 418.796661
-636.259277 885.477905 446.073578
-1094.337158 1026.159668 437.017151
-441.682648 722.114075 754.696960
-569.349854 872.854858 676.961853
-1214.359863 688.908569 555.007263
-764.465942 555.851501 608.871277
-700.747314 751.680420 529.311646
-1190.386108 754.824280 329.069672
-286.794708 763.364624 737.057373
-359.655731 655.019165 816.848572
-388.531158 717.218689 775.572388
-769.161926 560.162903 531.746399
-1117.012695 968.017822 296.304718
-1116.477417 780.234070 356.054932
-445.496552 607.864197 846.392334
-319.943695 672.059021 816.896606
-1112.952393 981.738708 335.564636
-1145.907227 902.837341 762.016052
-569.435059 801.883789 705.896484
-1225.879028 632.802490 519.012817
-660.700623 803.746033 501.250885
-1215.800049 713.469604 553.814941
-388.227173 849.852173 651.225647
-1213.652954 700.425598 340.111603
-495.364410 871.300110 646.100891
-1022.260681 1187.143555 759.076172
-1184.221802 773.655212 275.110474
-1126.599976 902.174438 352.233826
-1112.031006 1003.228027 345.297821
-661.086914 846.859131 392.928040
-713.165344 748.713135 599.180420
-1037.192871 1159.439331 410.517212
-634.057434 922.076294 522.621887
-1107.990356 948.886597 503.179474
-314.232605 792.933777 734.241089
-1053.667603 1041.483521 515.960144
-749.596252 600.074463 435.733582
-1177.457397 785.946167 803.156738
-1071.766968 1094.836792 662.151184
-1014.792664 1209.373047 721.303528
-455.201019 639.371216 821.358154
-1042.821777 1042.286499 530.982910
-1139.873779 952.939697 417.148682
-1178.444580 774.052490 489.383606
-1152.518311 923.693542 451.187256
-1201.250854 754.779663 562.965698
-1088.895874 1067.313354 513.880737
-1119.071655 965.076172 437.696808
-998.360352 862.418152 560.932983
-1080.488770 1030.541260 351.091064
-1165.161621 833.118652 278.098602
-681.279785 824.354675 580.277954
-1117.755859 999.333740 638.436035
-505.769409 820.278198 684.794189
-444.352783 707.087036 765.359924
-1122.463135 981.101807 277.055695
-681.310913 910.369873 708.506653
-487.803802 749.744629 756.909241
-336.892090 860.057983 654.674744
-524.414490 856.841492 676.296448
-664.785522 830.528870 570.996582
-576.631714 726.470825 771.550354
-360.282288 729.945618 764.729675
-435.247498 867.126221 631.481201
-1137.694702 835.501343 382.207855
-501.684021 631.660828 825.298523
-448.000854 662.640930 812.464539
-670.248108 824.629089 665.232178
-1123.588013 961.165344 453.538147
-759.854248 680.077881 735.070679
-774.338867 545.288757 592.049622
-1078.618164 1034.495239 457.007935
-1004.726868 1254.226074 771.486206
-376.626190 820.739807 672.712769
-1134.637451 798.459412 408.503052
-316.271912 724.711731 761.511963
-464.436707 836.001099 686.926514
-753.611450 633.692810 571.391968
-1033.920410 1096.374390 402.305939
-473.732239 735.163696 765.164429
-655.226074 850.282654 642.372070
-347.562836 781.924988 705.868225
-739.872437 688.630920 726.214722
-554.867432 743.304749 771.158264
-1175.730469 781.631165 532.435547
-735.390869 615.854248 485.454010
-689.358521 792.078003 658.989075
-1114.679199 927.667603 309.790741
-701.268494 763.172302 720.731140
-714.806580 793.462830 316.681488
-1114.024048 975.271301 449.749237
-572.879517 815.912476 726.016968
-399.075928 880.839233 641.840271
-1221.676147 692.115967 493.995087
-704.523682 769.865295 388.255341
-1023.213806 979.732300 635.858276
-344.912537 826.451355 670.687744
-1227.858398 674.260010 452.910980
-1170.923218 783.232117 255.372055
-737.144226 628.863403 418.000977
-366.795563 832.853088 671.606018
-1065.046631 1114.097290 604.942810
-1227.574097 678.486572 532.519531
-1024.078735 1108.425293 406.398224
-801.301636 571.630676 400.003265
-1159.261963 824.153992 317.336334
-1243.285156 639.971558 621.034851
-564.460266 886.075806 663.167114
-776.736206 582.711731 410.474915
-1180.608643 734.339722 660.320068
-804.297241 530.350830 400.758698
-1127.936401 889.002502 535.105347
-386.814453 775.397644 739.726501
-441.302094 646.114563 830.241455
-315.243011 807.637695 695.271301
-1200.263184 764.121826 604.335144
-416.596466 757.650452 733.952209
-1075.122559 1080.472534 431.682281
-735.398438 640.744751 503.064423
-686.452820 780.284973 572.317505
-408.059082 809.484131 695.244141
-707.198486 748.999329 741.919128
-1206.606079 682.862671 485.687622
-1175.727051 792.155762 456.830963
-418.716614 708.142944 764.797485
-638.764587 925.021790 569.899841
-1217.884399 703.581055 569.419739
-1228.183960 700.658691 572.884949
-691.765808 790.540100 708.432861
-534.450256 883.583130 661.076172
-1221.196045 647.466614 522.877563
-1074.023315 976.833130 559.357361
-1222.442505 707.044373 618.168884
-1155.435913 830.558533 448.248688
-643.205261 861.391052 428.284729
-1151.332397 842.332336 386.475250
-1160.152222 896.575806 311.621002
-1099.685181 887.531250 527.846313
-525.474731 858.534302 659.019775
-1114.643799 974.857971 297.940308
-525.013062 776.692871 716.640869
-430.000854 819.474976 687.136414
-373.839508 834.417419 670.148865
-1159.016113 810.484863 306.902405
-426.819183 892.052856 632.317444
-724.400452 684.500854 584.660522
-1130.925415 820.064819 652.621643
-376.823547 648.055603 817.976257
-508.660034 896.922974 622.053040
-1103.008545 1007.096252 383.132172
-758.312256 573.793030 465.412292
-1111.321777 996.607544 539.333252
-763.769287 612.674988 483.908722
-1130.215454 805.934265 414.296082
-370.114532 757.141296 746.246094
-1062.860596 906.501831 519.681824
-1134.305176 923.514648 303.163483
-1141.673462 951.938782 431.424927
-662.678528 798.305542 479.087982
-405.823029 635.992065 834.854187
-729.418274 739.942383 295.730316
-302.920990 801.412964 699.408752
-1076.073608 1051.642822 691.569214
-472.685944 819.524109 693.616211
-1049.348755 1118.904297 439.334747
-397.164124 756.663940 732.677063
-1206.618652 716.972778 291.859497
-759.809143 574.960693 510.516449
-764.373718 661.390442 675.764526
-1138.048462 920.683289 466.592834
-1162.729736 845.785339 399.048523
-1131.580078 970.184326 418.377167
-1171.377319 820.839600 411.355988
-436.659180 716.509827 776.027222
-411.985535 717.345886 770.943726
-1137.671997 928.584778 422.755493
-1217.787598 693.689331 431.797760
-1229.546753 709.653320 417.363251
-639.013489 908.302795 445.586456
-428.529572 753.912354 749.690979
-1150.258057 875.639465 441.068665
-566.603882 767.261169 741.567627
-770.608215 533.736450 475.901733
-721.658264 679.097046 372.916595
-336.930023 840.359009 665.647156
-1205.305298 659.409485 585.765930
-1142.643433 941.200073 481.355377
-1062.464478 1103.286499 323.628204
-478.079987 855.735901 665.406677
-456.129303 847.851624 664.382141
-1129.431763 913.604492 356.056519
-638.750977 877.938110 402.462799
-779.993896 583.925903 534.728516
-1174.936157 823.410522 282.970123
-1190.253296 788.143311 756.572693
-745.167725 675.537720 620.473999
-580.452026 658.815063 807.942383
-1115.907227 986.303894 391.407715
-698.696838 769.859924 318.785553
-777.035828 587.330261 404.050995
-297.412079 771.974304 742.327515
-1042.926392 1134.136108 384.062073
-316.962585 799.422180 713.005615
-306.552124 782.560608 723.606201
-528.319885 894.328247 648.261230
-683.373047 765.586548 417.084259
-734.385864 604.378296 485.914337
-580.311951 782.773132 737.674744
-1007.251892 1262.439575 800.501099
-1135.520752 938.407104 499.211700
-737.873535 630.677368 462.849548
-766.171387 520.316223 524.932068
-1027.296509 1010.246094 441.696320
-716.177917 781.092102 645.752991
-1162.554199 893.284973 329.031891
-1056.001465 1110.451660 676.839355
-743.836914 700.067139 299.515167
-719.909485 711.185974 361.186340
-761.505432 594.517090 419.189178
-704.992981 787.084045 302.138214
-1140.525024 912.357483 509.502014
-405.853302 849.719055 656.114563
-1008.580017 1223.390625 777.453491
-1191.925049 763.474243 545.983887
-725.417725 689.151672 411.929626
-1220.159058 654.961243 550.374023
-764.587097 616.670105 362.442566
-346.906372 776.004395 716.675537
-464.809387 873.214294 630.849854
-1105.726196 1000.807739 363.675201
-772.365601 537.254089 569.337708
-406.044312 781.029297 718.743652
-1057.083374 1092.807251 321.277893
-448.474915 770.135986 746.016541
-584.659729 829.115295 717.626648
-1089.049072 812.598938 393.388336
-778.049438 658.812866 331.574799
-706.017761 767.496826 323.974579
-1189.459351 776.635742 635.824402
-410.092133 772.615662 712.854553
-1166.683594 814.146851 290.432526
-665.759338 789.885498 509.355591
-534.963745 845.452026 671.665771
-368.219574 668.533447 796.409546
-1165.211304 831.817932 562.534668
-1164.365845 925.482117 762.536926
-1048.648560 797.094604 689.899170
-1208.562988 703.524780 598.874207
-455.895996 878.800293 638.714355
-1057.706055 1056.838379 585.804565
-1115.344238 966.678467 300.267914
-1046.945923 1044.037720 429.673126
-719.306030 794.587280 319.982483
-1148.763184 849.776428 481.474213
-380.619751 716.715149 763.314880
-732.323792 643.740417 565.507629
-1048.362305 1118.941284 372.769318
-1095.675293 1055.728271 348.671082
-1205.797852 684.845093 475.627869
-1073.221924 961.586182 502.629059
-738.284302 673.680481 584.757507
-727.983521 650.512573 486.797272
-366.297485 782.324280 714.089600
-471.328735 769.872925 721.859863
-1172.049927 817.830994 324.868530
-1057.463989 1116.883789 398.491913
-1023.115540 844.716614 550.117310
-1153.866577 803.505676 446.837250
-702.789856 732.059448 393.014404
-564.161560 849.636230 667.726074
-659.708069 881.162720 583.913025
-360.205933 827.690735 672.559692
-721.624634 644.018616 411.089386
-1068.319092 973.300964 520.820313
-359.963226 634.075500 832.132385
-531.195190 863.804810 647.959229
-442.298889 624.797668 835.034485
-1043.563110 1149.177979 454.889984
-1098.396240 851.289185 631.267456
-1191.657593 741.169617 603.541626
-742.395020 636.517822 635.042114
-760.317444 645.861816 566.535034
-797.940674 565.017944 381.456909
-1213.230469 675.346680 439.556152
-801.891724 564.817200 399.107483
-1155.036987 896.102661 823.023438
-733.043640 647.370300 368.279327
-1146.113892 920.948547 453.582733
-1122.611816 851.744873 432.138641
-1111.286865 765.704834 615.787598
-739.710327 595.517517 700.267639
-1210.494751 760.717285 506.881836
-707.140320 683.241211 431.124359
-573.573547 747.792358 762.615662
-1111.650635 1010.783020 309.848816
-1170.841431 779.006165 321.055176
-571.651184 684.059631 790.332275
-1106.238525 1012.850647 440.614746
-549.630249 899.847290 636.043640
-731.853149 638.987000 450.610870
-1068.861206 1102.167480 457.861176
-721.911682 654.492859 637.357178
-1049.061523 917.416687 525.513062
-712.423035 679.820007 392.751953
-1178.958252 822.300964 540.956116
-1064.276855 1116.675171 629.845093
-687.148621 772.145447 354.985107
-1203.705933 725.453308 427.683746
-410.196045 793.517029 710.925354
-589.459534 783.691772 705.117920
-718.084412 686.940186 583.889526
-755.146790 686.694153 658.704651
-1034.306885 1158.608643 386.604889
-1171.559082 810.955811 258.617188
-1133.422852 894.454651 376.790955
-1077.390381 1032.811157 376.485016
-1158.301147 835.798645 481.942993
-798.141846 495.624725 536.255127
-737.339172 660.999878 423.075317
-1144.299072 849.432129 594.463135
-806.075806 617.271606 375.008453
-1111.801758 1001.801636 407.079620
-444.796021 885.188416 613.085876
-295.029938 770.693359 721.722046
-689.446167 790.807373 497.708862
-1177.082031 753.952820 585.309021
-697.659546 775.096069 584.671021
-363.714355 830.042664 658.650024
-1169.361084 778.300720 529.829834
-1090.557251 945.475342 575.605103
-1181.574463 754.371704 506.030426
-711.196228 727.620483 427.768555
-421.879761 692.379150 794.668884
-444.723633 760.683960 724.618530
-1073.236572 967.413635 527.363159
-463.768250 888.522705 638.655090
-574.899597 780.938293 738.644958
-1131.265259 795.604553 387.349457
-1109.188599 1008.292053 423.215546
-1188.235352 793.550903 499.082062
-1096.104614 986.660400 466.115387
-1138.563354 859.503479 599.398254
-472.969849 670.697205 798.364319
-364.656738 666.816895 804.230103
-708.660034 706.869873 533.851624
-467.058746 875.851440 441.262238
-1228.240234 700.354248 499.329407
-1214.861816 713.365173 621.766907
-1184.673584 849.568420 760.590942
-1155.765259 929.923218 752.875610
-1017.589783 1036.778320 735.692627
-1221.338623 680.690552 493.444672
-1230.423584 665.257080 597.303345
-1155.290649 858.703064 267.594330
-660.147400 873.910156 430.733124
-720.996521 649.497314 514.720398
-686.060547 729.305115 433.919739
-772.102173 539.181763 536.730408
-373.321411 830.132385 672.115234
-470.108337 730.505737 770.494263
-1136.624634 842.314758 613.695374
-735.249084 630.877869 535.199158
-640.863037 829.839783 404.945740
-681.707581 804.482300 550.514526
-752.399109 634.312256 324.311096
-768.060791 595.085999 558.600403
-1088.644775 1018.861694 433.740356
-1063.324585 1062.435913 375.754822
-696.734741 830.663391 647.002991
-717.036255 677.183350 363.059082
-727.056946 631.504639 559.242859
-673.595215 796.654419 495.621490
-1027.500000 1171.261597 378.758209
-1127.203369 971.629700 302.872314
-328.254608 788.784851 701.986389
-737.189941 597.919067 585.984741
-424.683716 837.207764 660.504944
-611.565063 693.199829 783.625305
-550.578979 674.520142 797.689636
-1162.346436 798.523743 415.219482
-1145.684082 811.035095 357.866211
-723.883057 672.470215 396.244446
-695.458923 803.114258 466.312378
-740.765259 675.369873 530.808655
-749.591797 605.339966 547.122864
-737.773682 702.181580 726.121948
-1071.399902 1078.989990 386.512970
-1217.432617 648.829712 390.522858
-735.309143 696.477234 619.168945
-800.572571 504.637604 495.635620
-775.717896 546.408203 570.424194
-1057.162354 959.238892 547.257507
-1239.375366 653.328979 581.574707
-513.592285 851.815735 674.263428
-323.605377 768.013672 757.295654
-666.941162 813.322449 521.856567
-665.694153 844.771423 433.433350
-697.116516 814.490967 339.797729
-476.116791 686.512085 783.444397
-1120.323975 988.181580 287.152863
-460.323364 863.396606 644.238647
-305.208710 757.003845 735.832275
-1142.282715 795.462158 634.671326
-1180.044434 835.329834 549.739075
-316.381897 813.959167 680.856445
-1121.110962 996.958435 323.115662
-1111.285767 973.632080 295.337555
-1222.086426 681.684021 376.023682
-589.184448 825.356628 718.108704
-1168.125122 757.784424 438.657928
-1173.106812 796.310425 353.563110
-402.373077 756.496704 731.379639
-1052.838135 895.280945 546.306763
-1121.243774 988.238770 442.127197
-1202.319092 787.079468 426.815521
-714.452332 685.085571 440.671021
-1032.165771 1074.640869 496.141785
-1180.748291 754.852966 475.645844
-472.775696 801.489624 707.541870
-702.768433 751.423218 594.093872
-1114.688110 776.824829 610.791565
-434.831421 801.187012 698.299194
-1148.952881 709.481201 596.564575
-369.895691 708.732300 764.064636
-430.289398 897.895691 607.793945
-536.193176 786.739441 731.259399
-385.462433 637.967468 824.921265
-790.212585 550.310486 513.599426
-1028.247559 1162.194214 854.744202
-322.300629 859.061035 666.464355
-1207.467651 730.616028 477.618896
-1062.087524 1138.550781 629.030823
-726.075745 751.153564 319.625305
-1177.898926 780.694641 405.567657
-1045.712646 1121.776611 505.059937
-1006.026550 1110.729248 645.385071
-463.958160 819.449158 679.839966
-1212.479736 775.963257 447.595581
-1160.426758 780.670532 371.429443
-711.470825 722.156921 534.869629
-340.897095 744.284729 742.897461
-1214.371094 666.662292 371.690216
-444.490753 826.967224 668.698914
-477.613403 769.184998 718.510681
-1060.094116 1070.757690 687.060120
-820.881104 482.097382 510.538666
-1147.998901 912.835754 492.599121
-604.737610 779.701843 747.707642
-466.838074 833.325989 412.486816
-566.717834 676.870300 810.968445
-436.841003 771.282654 713.577698
-1148.937866 894.036682 450.882813
-1048.187378 1096.895020 359.036407
-736.340515 639.441101 608.356018
-1173.745728 843.293762 570.551819
-725.193481 680.196899 363.923798
-1150.053833 837.822754 494.724152
-1128.475342 846.199829 359.276703
-776.112793 578.515320 418.417023
-1068.812866 1093.181030 369.069031
-1076.255127 943.573120 530.884460
-1105.288696 1057.923462 638.278931
-758.587524 636.029419 403.905334
-475.323547 820.207520 394.208282
-1214.516235 697.304626 395.791046
-475.409912 849.211731 337.136475
-498.825287 794.890259 698.888367
-497.832367 710.304138 774.773254
-1226.292725 662.472351 569.279053
-713.735229 692.792847 413.380554
-726.898560 636.431152 595.673889
-1170.839355 763.366516 334.698730
-1167.497437 771.297058 366.890686
-807.302307 488.306122 506.223602
-1164.782227 862.190430 279.696075
-1138.508301 782.843811 440.384796
-457.254913 641.054016 824.900269
-1131.208618 971.354980 447.628113
-697.588501 766.047852 655.153076
-526.454651 917.757507 631.212585
-745.293091 607.739136 586.952515
-651.147949 914.192749 567.872864
-338.342682 679.102783 799.106934
-1039.482788 1022.797852 480.525543
-1184.035889 763.120850 295.916473
-1064.364502 1089.365967 363.060516
-1148.104492 896.364685 441.869446
-1149.824951 939.128845 453.060486
-1135.397949 932.772583 311.752563
-1146.553833 900.069031 450.199524
-1058.560303 1099.097412 515.177002
-649.276184 878.109558 509.492157
-1076.200562 1108.720215 626.459778
-1232.279175 593.120178 632.181763
-1140.900269 898.050232 272.905396
-332.326263 720.318237 769.089233
-738.134216 625.137817 540.754578
-506.147644 699.080383 777.498352
-1198.623535 766.800293 525.362854
-437.508301 872.344849 432.405884
-1115.125244 770.407349 345.275299
-544.723083 795.948181 725.667419
-1219.651367 698.929504 504.758484
-707.837708 754.849609 737.624817
-304.756195 793.937500 726.368164
-807.155640 547.575378 394.172424
-741.260986 667.021057 628.341064
-740.942932 735.971313 296.807617
-1112.117432 999.201355 412.703430
-579.584778 731.599182 741.239258
-436.050720 758.162659 726.269897
-1114.604614 925.127991 510.677063
-1157.622925 903.402283 407.130737
-1153.109619 881.561951 355.264526
-1139.622314 882.816467 478.016052
-1079.631592 1071.783081 561.018738
-1216.603516 709.322998 511.131012
-1160.868164 894.142395 362.597565
-685.566650 807.180054 676.103455
-579.219238 642.118591 825.722656
-1205.094971 634.070251 617.466980
-1112.281738 1017.156311 338.398468
-1221.924438 687.007202 437.353027
-1045.525635 1124.395264 661.488281
-302.614227 823.026917 688.765686
-688.456970 843.394714 589.657776
-1212.186646 641.744141 696.190125
-1129.666626 909.243530 508.085388
-757.419128 616.974426 380.815399
-375.489349 625.292419 835.246765
-1045.489380 846.250122 463.870941
-1122.550903 824.605164 618.828796
-1214.376465 760.339355 355.891357
-689.307312 796.359558 661.318481
-1139.806763 874.596802 406.097351
-462.685822 883.482788 629.711487
-1225.186768 680.612305 536.064331
-1185.830566 865.719604 813.386902
-1126.847900 956.986084 429.130798
-1189.748901 774.128601 277.156708
-727.196350 651.681763 425.104279
-748.174927 562.674927 508.430939
-1202.081787 777.654297 285.526306
-1161.749390 771.180908 347.585022
-1074.614746 1031.020020 422.882721
-1125.480103 935.079956 487.984741
-728.208191 742.731812 329.949829
-1225.340210 717.762634 367.908569
-708.676025 738.820129 458.956757
-526.220337 725.758728 765.894531
-1014.469910 1045.438599 737.185303
-716.478699 678.328003 517.768738
-1159.977539 895.837097 417.429077
-1207.059204 729.362488 576.641602
-743.095398 779.872742 298.979004
-419.899414 828.590881 668.596558
-1046.226685 869.843872 582.896362
-1118.500977 993.967651 443.959137
-1151.580322 839.654053 447.022552
-1221.863159 738.774658 486.495239
-656.730896 829.898376 578.661804
-429.368835 680.979553 787.609924
-399.434753 789.500000 696.759705
-1117.142334 930.080322 374.735657
-1144.684570 925.951599 504.442596
-743.399109 711.474609 324.842834
-1060.871704 1113.922485 362.784607
-549.816223 871.910889 658.567566
-1098.207886 1040.692993 359.088226
-967.668335 778.408691 456.904236
-672.475586 822.792236 599.277283
-1044.452759 1125.967407 354.804993
-1227.797241 667.606628 515.735168
-696.359131 754.266479 337.139496
-1105.009521 912.323669 571.811890
-512.541931 735.653015 760.503845
-743.992004 616.218628 600.280334
-519.264404 877.325195 641.770142
-689.803284 786.907410 392.101837
-568.466675 721.320129 774.845520
-331.137787 780.217651 705.972839
-1185.933838 751.836853 473.578003
-535.674744 825.593689 323.316437
-1082.848755 1037.891479 405.976105
-492.814117 735.982300 765.322571
-304.715881 817.137634 679.238220
-750.645935 689.976501 330.217285
-488.358765 629.510193 835.210388
-727.490051 622.844910 441.515076
-1103.865112 1006.078308 413.466949
-332.877960 820.291870 684.670898
-1058.314819 878.675598 619.234436
-516.719482 760.408630 741.059326
-1221.414307 738.255310 541.197083
-644.737183 901.040710 543.239319
-710.860291 718.557922 644.245178
-1235.068848 680.625488 492.772339
-711.440063 694.682556 424.330475
-1046.169800 1135.461792 475.026398
-422.912872 793.275513 705.995178
-827.503479 509.105835 485.345215
-728.845947 703.153870 594.289490
-1232.100342 694.245544 516.498047
-718.124695 715.780884 631.606323
-404.347778 655.468567 832.058472
-389.854736 766.634583 721.899353
-1111.231567 974.583740 456.688049
-547.067505 706.624939 771.601868
-1094.360474 1029.021240 444.518555
-698.203003 733.171143 376.216949
-334.182404 673.705750 796.382019
-1055.783203 1057.725586 702.109192
-573.073547 632.451965 819.765442
-1159.521118 826.902161 339.188019
-1158.869995 852.710876 559.141785
-1193.498291 739.770264 626.261230
-1192.739014 751.499939 283.921478
-1101.575195 1013.085144 451.703156
-755.729431 644.099304 506.459961
-376.489349 850.973328 648.610962
-657.884277 908.142883 602.447754
-702.134705 685.331848 425.885620
-735.692627 680.983765 461.661469
-357.343048 781.133118 724.358521
-468.868591 892.666992 641.669556
-1052.877808 1105.979614 332.580109
-336.004059 863.506409 638.016052
-1219.210571 651.256042 598.155457
-697.677002 710.806885 575.459351
-345.269745 745.173828 757.450684
-1087.757690 898.234985 761.727783
-654.697327 844.760071 596.837402
-511.472870 667.965515 811.118347
-378.423126 790.803162 710.943359
-378.904022 842.804932 672.775024
-425.159882 868.530334 640.979797
-1037.002441 958.965576 499.863373
-1053.985352 1116.051880 662.482971
-730.860657 696.767944 729.975098
-383.864685 784.679504 704.504761
-784.462585 555.439392 558.067017
-699.487427 795.431824 624.337280
-744.860901 607.242493 478.319916
-664.989441 808.399841 483.784607
-1163.009644 869.183960 275.178070
-720.695801 695.204346 542.194702
-1099.734131 1000.305298 489.962555
-1118.981079 924.125916 303.721924
-680.776245 798.128906 461.077301
-519.513733 826.044434 688.441895
-353.878357 723.528015 767.546326
-707.805969 683.993774 416.592621
-1074.960938 1108.146851 632.066956
-1074.926270 1070.381836 329.987396
-777.893677 534.244324 496.149384
-587.018250 658.652893 826.690125
-1187.386475 808.892761 273.510071
-1139.111328 908.450195 317.812866
-467.977051 832.595398 664.224487
-1216.707886 660.131042 595.991821
-778.952454 516.764893 578.804016
-1121.927734 844.462402 424.217712
-1150.265137 839.512146 404.607880
-692.871155 734.957642 581.878357
-1117.456543 941.599426 491.127258
-717.045471 760.363647 316.518463
-721.893127 698.206909 701.636841
-1105.893311 1007.365601 376.709534
-722.267639 681.370605 480.519409
-1137.318237 928.223022 410.734100
-730.636658 696.551514 704.523621
-771.753418 610.297058 409.805389
-1060.124756 1064.617310 384.908600
-1021.147583 899.178040 551.339233
-1027.144409 1087.730347 480.712585
-513.633850 692.856262 806.382263
-782.794617 515.122253 590.284729
-1239.198120 638.955383 539.300110
-517.546997 774.890625 734.692383
-1143.282104 924.531677 405.007263
-482.188080 842.230225 405.721771
-719.746948 697.700623 406.459015
-1040.369995 1029.097534 469.764587
-655.305481 836.380737 604.326294
-773.174744 580.497131 342.888702
-1021.121826 1004.077087 449.768921
-1183.686401 804.892029 373.600128
-1083.325317 1024.244507 431.712463
-325.226532 855.156311 667.441284
-753.338989 655.912292 344.158417
-747.159180 664.544434 578.616882
-755.258240 696.272461 321.983612
-1222.499634 743.808777 390.736572
-1101.167969 885.960388 685.821655
-474.968719 847.864258 677.283264
-1101.430542 1019.652222 439.693115
-702.224365 754.314514 492.287476
