ply
format ascii 1.0
element vertex 647
property double x
property double y
property double z
property double intensity
end_header
-2.645886000000000 0.952519000000000 -2.963392000000000 0.100346360000000
-2.645886000000000 0.952519000000000 -2.857557000000000 0.128273280000000
-2.645886000000000 0.952519000000000 -2.751721000000000 0.161606370000000
-2.645886000000000 0.952519000000000 -2.645886000000000 0.198749880000000
-2.645886000000000 0.952519000000000 -2.540051000000000 0.239396890000000
-2.645886000000000 0.952519000000000 -2.434215000000000 0.312574030000000
-2.645886000000000 0.952519000000000 -2.328380000000000 0.536651640000000
-2.645886000000000 0.952519000000000 -2.222544000000000 0.901580730000000
-2.645886000000000 0.952519000000000 -2.116709000000000 0.840868940000000
-2.645886000000000 0.952519000000000 -2.010873000000000 0.486168920000000
-2.645886000000000 0.952519000000000 -1.905038000000000 0.311908530000000
-2.645886000000000 0.952519000000000 -1.799203000000000 0.244698680000000
-2.645886000000000 0.952519000000000 -1.693367000000000 0.195179400000000
-2.645886000000000 0.952519000000000 -1.587532000000000 0.150001440000000
-2.645886000000000 0.952519000000000 -1.481696000000000 0.112443000000000
-2.645886000000000 1.058354000000000 -2.857557000000000 0.118324340000000
-2.645886000000000 1.058354000000000 -2.751721000000000 0.147871250000000
-2.645886000000000 1.058354000000000 -2.645886000000000 0.181835140000000
-2.645886000000000 1.058354000000000 -2.540051000000000 0.218419300000000
-2.645886000000000 1.058354000000000 -2.434215000000000 0.260041200000000
-2.645886000000000 1.058354000000000 -2.328380000000000 0.318317650000000
-2.645886000000000 1.058354000000000 -2.222544000000000 0.380473800000000
-2.645886000000000 1.058354000000000 -2.116709000000000 0.382742780000000
-2.645886000000000 1.058354000000000 -2.010873000000000 0.332059930000000
-2.645886000000000 1.058354000000000 -1.905038000000000 0.281216700000000
-2.645886000000000 1.058354000000000 -1.799203000000000 0.234111080000000
-2.645886000000000 1.058354000000000 -1.693367000000000 0.186326760000000
-2.645886000000000 1.058354000000000 -1.587532000000000 0.142141110000000
-2.645886000000000 1.058354000000000 -1.481696000000000 0.105745910000000
-2.645886000000000 1.164190000000000 -2.857557000000000 0.104005290000000
-2.645886000000000 1.164190000000000 -2.751721000000000 0.129137960000000
-2.645886000000000 1.164190000000000 -2.645886000000000 0.158873440000000
-2.645886000000000 1.164190000000000 -2.540051000000000 0.192341430000000
-2.645886000000000 1.164190000000000 -2.434215000000000 0.227516250000000
-2.645886000000000 1.164190000000000 -2.328380000000000 0.261821990000000
-2.645886000000000 1.164190000000000 -2.222544000000000 0.288990420000000
-2.645886000000000 1.164190000000000 -2.116709000000000 0.298503070000000
-2.645886000000000 1.164190000000000 -2.010873000000000 0.286365870000000
-2.645886000000000 1.164190000000000 -1.905038000000000 0.256871150000000
-2.645886000000000 1.164190000000000 -1.799203000000000 0.216162980000000
-2.645886000000000 1.164190000000000 -1.693367000000000 0.171801480000000
-2.645886000000000 1.164190000000000 -1.587532000000000 0.130829760000000
-2.645886000000000 1.270025000000000 -2.751721000000000 0.107937150000000
-2.645886000000000 1.270025000000000 -2.645886000000000 0.132756110000000
-2.645886000000000 1.270025000000000 -2.540051000000000 0.161727680000000
-2.645886000000000 1.270025000000000 -2.434215000000000 0.193205410000000
-2.645886000000000 1.270025000000000 -2.328380000000000 0.223561830000000
-2.645886000000000 1.270025000000000 -2.222544000000000 0.247233730000000
-2.645886000000000 1.270025000000000 -2.116709000000000 0.257815540000000
-2.645886000000000 1.270025000000000 -2.010873000000000 0.251033330000000
-2.645886000000000 1.270025000000000 -1.905038000000000 0.227444740000000
-2.645886000000000 1.270025000000000 -1.799203000000000 0.192466750000000
-2.645886000000000 1.270025000000000 -1.693367000000000 0.153696010000000
-2.645886000000000 1.270025000000000 -1.587532000000000 0.117395050000000
-2.645886000000000 1.375861000000000 -2.645886000000000 0.106890620000000
-2.645886000000000 1.375861000000000 -2.540051000000000 0.130704180000000
-2.645886000000000 1.375861000000000 -2.434215000000000 0.157218400000000
-2.645886000000000 1.375861000000000 -2.328380000000000 0.183530820000000
-2.645886000000000 1.375861000000000 -2.222544000000000 0.204924690000000
-2.645886000000000 1.375861000000000 -2.116709000000000 0.215949970000000
-2.645886000000000 1.375861000000000 -2.010873000000000 0.212625370000000
-2.645886000000000 1.375861000000000 -1.905038000000000 0.194777270000000
-2.645886000000000 1.375861000000000 -1.799203000000000 0.166516830000000
-2.645886000000000 1.375861000000000 -1.693367000000000 0.134075140000000
-2.645886000000000 1.375861000000000 -1.587532000000000 0.102862400000000
-2.645886000000000 1.481696000000000 -2.540051000000000 0.102593230000000
-2.645886000000000 1.481696000000000 -2.434215000000000 0.124088180000000
-2.645886000000000 1.481696000000000 -2.328380000000000 0.145901150000000
-2.645886000000000 1.481696000000000 -2.222544000000000 0.164471110000000
-2.645886000000000 1.481696000000000 -2.116709000000000 0.175400320000000
-2.645886000000000 1.481696000000000 -2.010873000000000 0.175026740000000
-2.645886000000000 1.481696000000000 -1.905038000000000 0.162456910000000
-2.645886000000000 1.481696000000000 -1.799203000000000 0.140442570000000
-2.645886000000000 1.481696000000000 -1.693367000000000 0.113973280000000
-2.645886000000000 1.587532000000000 -2.328380000000000 0.113187450000000
-2.645886000000000 1.587532000000000 -2.222544000000000 0.128683160000000
-2.645886000000000 1.587532000000000 -2.116709000000000 0.138691530000000
-2.645886000000000 1.587532000000000 -2.010873000000000 0.140036720000000
-2.645886000000000 1.587532000000000 -1.905038000000000 0.131472470000000
-2.645886000000000 1.587532000000000 -1.799203000000000 0.114755500000000
-2.645886000000000 1.693367000000000 -2.116709000000000 0.106043620000000
-2.645886000000000 1.693367000000000 -2.010873000000000 0.107931370000000
-2.645886000000000 1.693367000000000 -1.905038000000000 0.102220400000000
-2.540051000000000 -0.529177000000000 0.000000000000000 0.101773210000000
-2.540051000000000 -0.529177000000000 0.105835000000000 0.119856690000000
-2.540051000000000 -0.529177000000000 0.211671000000000 0.132398630000000
-2.540051000000000 -0.529177000000000 0.317506000000000 0.136469670000000
-2.540051000000000 -0.529177000000000 0.423342000000000 0.130981030000000
-2.540051000000000 -0.529177000000000 0.529177000000000 0.117213040000000
-2.540051000000000 -0.423342000000000 -0.105835000000000 0.104869520000000
-2.540051000000000 -0.423342000000000 0.000000000000000 0.132468510000000
-2.540051000000000 -0.423342000000000 0.105835000000000 0.157777870000000
-2.540051000000000 -0.423342000000000 0.211671000000000 0.175678140000000
-2.540051000000000 -0.423342000000000 0.317506000000000 0.181780830000000
-2.540051000000000 -0.423342000000000 0.423342000000000 0.174366460000000
-2.540051000000000 -0.423342000000000 0.529177000000000 0.155281760000000
-2.540051000000000 -0.423342000000000 0.635013000000000 0.129061130000000
-2.540051000000000 -0.423342000000000 0.740848000000000 0.100931030000000
-2.540051000000000 -0.317506000000000 -2.434215000000000 0.103728130000000
-2.540051000000000 -0.317506000000000 -2.328380000000000 0.103929260000000
-2.540051000000000 -0.317506000000000 -0.105835000000000 0.128286720000000
-2.540051000000000 -0.317506000000000 0.000000000000000 0.164006870000000
-2.540051000000000 -0.317506000000000 0.105835000000000 0.197363850000000
-2.540051000000000 -0.317506000000000 0.211671000000000 0.221435400000000
-2.540051000000000 -0.317506000000000 0.317506000000000 0.230047520000000
-2.540051000000000 -0.317506000000000 0.423342000000000 0.220648690000000
-2.540051000000000 -0.317506000000000 0.529177000000000 0.195729810000000
-2.540051000000000 -0.317506000000000 0.635013000000000 0.161542250000000
-2.540051000000000 -0.317506000000000 0.740848000000000 0.125153570000000
-2.540051000000000 -0.211671000000000 -2.645886000000000 0.102993950000000
-2.540051000000000 -0.211671000000000 -2.540051000000000 0.127210280000000
-2.540051000000000 -0.211671000000000 -2.434215000000000 0.142481180000000
-2.540051000000000 -0.211671000000000 -2.328380000000000 0.143123240000000
-2.540051000000000 -0.211671000000000 -2.222544000000000 0.130237470000000
-2.540051000000000 -0.211671000000000 -2.116709000000000 0.110028300000000
-2.540051000000000 -0.211671000000000 -0.211671000000000 0.109596940000000
-2.540051000000000 -0.211671000000000 -0.105835000000000 0.148584570000000
-2.540051000000000 -0.211671000000000 0.000000000000000 0.191796590000000
-2.540051000000000 -0.211671000000000 0.105835000000000 0.232829610000000
-2.540051000000000 -0.211671000000000 0.211671000000000 0.263009760000000
-2.540051000000000 -0.211671000000000 0.317506000000000 0.274318590000000
-2.540051000000000 -0.211671000000000 0.423342000000000 0.263275220000000
-2.540051000000000 -0.211671000000000 0.529177000000000 0.232959460000000
-2.540051000000000 -0.211671000000000 0.635013000000000 0.191325040000000
-2.540051000000000 -0.211671000000000 0.740848000000000 0.147252460000000
-2.540051000000000 -0.211671000000000 0.846684000000000 0.107370460000000
-2.540051000000000 -0.105835000000000 -2.645886000000000 0.127997410000000
-2.540051000000000 -0.105835000000000 -2.540051000000000 0.159606110000000
-2.540051000000000 -0.105835000000000 -2.434215000000000 0.180279300000000
-2.540051000000000 -0.105835000000000 -2.328380000000000 0.182399190000000
-2.540051000000000 -0.105835000000000 -2.222544000000000 0.166991920000000
-2.540051000000000 -0.105835000000000 -2.116709000000000 0.141806470000000
-2.540051000000000 -0.105835000000000 -2.010873000000000 0.114559960000000
-2.540051000000000 -0.105835000000000 -0.211671000000000 0.118899430000000
-2.540051000000000 -0.105835000000000 -0.105835000000000 0.162123770000000
-2.540051000000000 -0.105835000000000 0.000000000000000 0.210616680000000
-2.540051000000000 -0.105835000000000 0.105835000000000 0.257275090000000
-2.540051000000000 -0.105835000000000 0.211671000000000 0.292147230000000
-2.540051000000000 -0.105835000000000 0.317506000000000 0.305784370000000
-2.540051000000000 -0.105835000000000 0.423342000000000 0.293905090000000
-2.540051000000000 -0.105835000000000 0.529177000000000 0.259930660000000
-2.540051000000000 -0.105835000000000 0.635013000000000 0.213036390000000
-2.540051000000000 -0.105835000000000 0.740848000000000 0.163448260000000
-2.540051000000000 -0.105835000000000 0.846684000000000 0.118696460000000
-2.540051000000000 0.000000000000000 -2.751721000000000 0.110545100000000
-2.540051000000000 0.000000000000000 -2.645886000000000 0.148100110000000
-2.540051000000000 0.000000000000000 -2.540051000000000 0.184953700000000
-2.540051000000000 0.000000000000000 -2.434215000000000 0.210356990000000
-2.540051000000000 0.000000000000000 -2.328380000000000 0.215637710000000
-2.540051000000000 0.000000000000000 -2.222544000000000 0.200859240000000
-2.540051000000000 0.000000000000000 -2.116709000000000 0.173587330000000
-2.540051000000000 0.000000000000000 -2.010873000000000 0.142281970000000
-2.540051000000000 0.000000000000000 -1.905038000000000 0.112340380000000
-2.540051000000000 0.000000000000000 -0.211671000000000 0.121710550000000
-2.540051000000000 0.000000000000000 -0.105835000000000 0.166126150000000
-2.540051000000000 0.000000000000000 0.000000000000000 0.216308810000000
-2.540051000000000 0.000000000000000 0.105835000000000 0.264985200000000
-2.540051000000000 0.000000000000000 0.211671000000000 0.301790830000000
-2.540051000000000 0.000000000000000 0.317506000000000 0.316738560000000
-2.540051000000000 0.000000000000000 0.423342000000000 0.305139050000000
-2.540051000000000 0.000000000000000 0.529177000000000 0.270361990000000
-2.540051000000000 0.000000000000000 0.635013000000000 0.221887380000000
-2.540051000000000 0.000000000000000 0.740848000000000 0.170389980000000
-2.540051000000000 0.000000000000000 0.846684000000000 0.123774080000000
-2.540051000000000 0.105835000000000 -2.751721000000000 0.121996540000000
-2.540051000000000 0.105835000000000 -2.645886000000000 0.162300600000000
-2.540051000000000 0.105835000000000 -2.540051000000000 0.202357430000000
-2.540051000000000 0.105835000000000 -2.434215000000000 0.232007000000000
-2.540051000000000 0.105835000000000 -2.328380000000000 0.242247560000000
-2.540051000000000 0.105835000000000 -2.222544000000000 0.231319800000000
-2.540051000000000 0.105835000000000 -2.116709000000000 0.204932020000000
-2.540051000000000 0.105835000000000 -2.010873000000000 0.171292700000000
-2.540051000000000 0.105835000000000 -1.905038000000000 0.137025240000000
-2.540051000000000 0.105835000000000 -1.799203000000000 0.106200090000000
-2.540051000000000 0.105835000000000 -0.211671000000000 0.117540380000000
-2.540051000000000 0.105835000000000 -0.105835000000000 0.159759340000000
-2.540051000000000 0.105835000000000 0.000000000000000 0.207528270000000
-2.540051000000000 0.105835000000000 0.105835000000000 0.253979530000000
-2.540051000000000 0.105835000000000 0.211671000000000 0.289337860000000
-2.540051000000000 0.105835000000000 0.317506000000000 0.304161750000000
-2.540051000000000 0.105835000000000 0.423342000000000 0.293897580000000
-2.540051000000000 0.105835000000000 0.529177000000000 0.261477750000000
-2.540051000000000 0.105835000000000 0.635013000000000 0.215635310000000
-2.540051000000000 0.105835000000000 0.740848000000000 0.166420930000000
-2.540051000000000 0.105835000000000 0.846684000000000 0.121464240000000
-2.540051000000000 0.211671000000000 -2.751721000000000 0.130493330000000
-2.540051000000000 0.211671000000000 -2.645886000000000 0.172542110000000
-2.540051000000000 0.211671000000000 -2.540051000000000 0.215258690000000
-2.540051000000000 0.211671000000000 -2.434215000000000 0.249454760000000
-2.540051000000000 0.211671000000000 -2.328380000000000 0.265871510000000
-2.540051000000000 0.211671000000000 -2.222544000000000 0.260538330000000
-2.540051000000000 0.211671000000000 -2.116709000000000 0.236624030000000
-2.540051000000000 0.211671000000000 -2.010873000000000 0.201595470000000
-2.540051000000000 0.211671000000000 -1.905038000000000 0.163279770000000
-2.540051000000000 0.211671000000000 -1.799203000000000 0.127530630000000
-2.540051000000000 0.211671000000000 -0.211671000000000 0.107340630000000
-2.540051000000000 0.211671000000000 -0.105835000000000 0.144507080000000
-2.540051000000000 0.211671000000000 0.000000000000000 0.186400140000000
-2.540051000000000 0.211671000000000 0.105835000000000 0.227036820000000
-2.540051000000000 0.211671000000000 0.211671000000000 0.258035260000000
-2.540051000000000 0.211671000000000 0.317506000000000 0.271368410000000
-2.540051000000000 0.211671000000000 0.423342000000000 0.263089700000000
-2.540051000000000 0.211671000000000 0.529177000000000 0.235465240000000
-2.540051000000000 0.211671000000000 0.635013000000000 0.195697650000000
-2.540051000000000 0.211671000000000 0.740848000000000 0.152344650000000
-2.540051000000000 0.211671000000000 0.846684000000000 0.112173540000000
-2.540051000000000 0.317506000000000 -2.751721000000000 0.137074010000000
-2.540051000000000 0.317506000000000 -2.645886000000000 0.180799790000000
-2.540051000000000 0.317506000000000 -2.540051000000000 0.226392830000000
-2.540051000000000 0.317506000000000 -2.434215000000000 0.265241740000000
-2.540051000000000 0.317506000000000 -2.328380000000000 0.287736240000000
-2.540051000000000 0.317506000000000 -2.222544000000000 0.288038070000000
-2.540051000000000 0.317506000000000 -2.116709000000000 0.266993000000000
-2.540051000000000 0.317506000000000 -2.010873000000000 0.231281150000000
-2.540051000000000 0.317506000000000 -1.905038000000000 0.189660380000000
-2.540051000000000 0.317506000000000 -1.799203000000000 0.149402780000000
-2.540051000000000 0.317506000000000 -1.693367000000000 0.114847710000000
-2.540051000000000 0.317506000000000 -0.105835000000000 0.123553120000000
-2.540051000000000 0.317506000000000 0.000000000000000 0.157572250000000
-2.540051000000000 0.317506000000000 0.105835000000000 0.190367330000000
-2.540051000000000 0.317506000000000 0.211671000000000 0.215353700000000
-2.540051000000000 0.317506000000000 0.317506000000000 0.226315730000000
-2.540051000000000 0.317506000000000 0.423342000000000 0.220152290000000
-2.540051000000000 0.317506000000000 0.529177000000000 0.198432030000000
-2.540051000000000 0.317506000000000 0.635013000000000 0.166539820000000
-2.540051000000000 0.317506000000000 0.740848000000000 0.131130930000000
-2.540051000000000 0.423342000000000 -2.857557000000000 0.104318520000000
-2.540051000000000 0.423342000000000 -2.751721000000000 0.142086030000000
-2.540051000000000 0.423342000000000 -2.645886000000000 0.187059250000000
-2.540051000000000 0.423342000000000 -2.540051000000000 0.234704500000000
-2.540051000000000 0.423342000000000 -2.434215000000000 0.276950380000000
-2.540051000000000 0.423342000000000 -2.328380000000000 0.304997680000000
-2.540051000000000 0.423342000000000 -2.222544000000000 0.311528390000000
-2.540051000000000 0.423342000000000 -2.116709000000000 0.293394980000000
-2.540051000000000 0.423342000000000 -2.010873000000000 0.256903710000000
-2.540051000000000 0.423342000000000 -1.905038000000000 0.213186750000000
-2.540051000000000 0.423342000000000 -1.799203000000000 0.169989910000000
-2.540051000000000 0.423342000000000 -1.693367000000000 0.131717580000000
-2.540051000000000 0.423342000000000 -1.587532000000000 0.100561070000000
-2.540051000000000 0.423342000000000 -0.105835000000000 0.100570710000000
-2.540051000000000 0.423342000000000 0.000000000000000 0.126335450000000
-2.540051000000000 0.423342000000000 0.105835000000000 0.150955000000000
-2.540051000000000 0.423342000000000 0.211671000000000 0.169644880000000
-2.540051000000000 0.423342000000000 0.317506000000000 0.177957630000000
-2.540051000000000 0.423342000000000 0.423342000000000 0.173640070000000
-2.540051000000000 0.423342000000000 0.529177000000000 0.157676720000000
-2.540051000000000 0.423342000000000 0.635013000000000 0.133780350000000
-2.540051000000000 0.423342000000000 0.740848000000000 0.106742930000000
-2.540051000000000 0.529177000000000 -2.857557000000000 0.107584290000000
-2.540051000000000 0.529177000000000 -2.751721000000000 0.145200460000000
-2.540051000000000 0.529177000000000 -2.645886000000000 0.189955590000000
-2.540051000000000 0.529177000000000 -2.540051000000000 0.237470920000000
-2.540051000000000 0.529177000000000 -2.434215000000000 0.282667340000000
-2.540051000000000 0.529177000000000 -2.328380000000000 0.323595980000000
-2.540051000000000 0.529177000000000 -2.222544000000000 0.348814230000000
-2.540051000000000 0.529177000000000 -2.116709000000000 0.332140260000000
-2.540051000000000 0.529177000000000 -2.010873000000000 0.283304530000000
-2.540051000000000 0.529177000000000 -1.905038000000000 0.232793880000000
-2.540051000000000 0.529177000000000 -1.799203000000000 0.187561120000000
-2.540051000000000 0.529177000000000 -1.693367000000000 0.146912390000000
-2.540051000000000 0.529177000000000 -1.587532000000000 0.112524270000000
-2.540051000000000 0.529177000000000 0.105835000000000 0.114311820000000
-2.540051000000000 0.529177000000000 0.211671000000000 0.127398500000000
-2.540051000000000 0.529177000000000 0.317506000000000 0.133249550000000
-2.540051000000000 0.529177000000000 0.423342000000000 0.130331090000000
-2.540051000000000 0.529177000000000 0.529177000000000 0.119214000000000
-2.540051000000000 0.529177000000000 0.635013000000000 0.102299650000000
-2.540051000000000 0.635013000000000 -2.857557000000000 0.109563610000000
-2.540051000000000 0.635013000000000 -2.751721000000000 0.146000230000000
-2.540051000000000 0.635013000000000 -2.645886000000000 0.188776510000000
-2.540051000000000 0.635013000000000 -2.540051000000000 0.234457520000000
-2.540051000000000 0.635013000000000 -2.434215000000000 0.287200380000000
-2.540051000000000 0.635013000000000 -2.328380000000000 0.371288650000000
-2.540051000000000 0.635013000000000 -2.222544000000000 0.467123390000000
-2.540051000000000 0.635013000000000 -2.116709000000000 0.443490350000000
-2.540051000000000 0.635013000000000 -2.010873000000000 0.331806720000000
-2.540051000000000 0.635013000000000 -1.905038000000000 0.252466190000000
-2.540051000000000 0.635013000000000 -1.799203000000000 0.202177650000000
-2.540051000000000 0.635013000000000 -1.693367000000000 0.159724750000000
-2.540051000000000 0.635013000000000 -1.587532000000000 0.122581670000000
-2.540051000000000 0.740848000000000 -2.857557000000000 0.109808040000000
-2.540051000000000 0.740848000000000 -2.751721000000000 0.144298800000000
-2.540051000000000 0.740848000000000 -2.645886000000000 0.184222120000000
-2.540051000000000 0.740848000000000 -2.540051000000000 0.227582030000000
-2.540051000000000 0.740848000000000 -2.434215000000000 0.289500040000000
-2.540051000000000 0.740848000000000 -2.328380000000000 0.432250280000000
-2.540051000000000 0.740848000000000 -2.222544000000000 0.634842330000000
-2.540051000000000 0.740848000000000 -2.116709000000000 0.598144670000000
-2.540051000000000 0.740848000000000 -2.010873000000000 0.390551330000000
-2.540051000000000 0.740848000000000 -1.905038000000000 0.271758420000000
-2.540051000000000 0.740848000000000 -1.799203000000000 0.214703250000000
-2.540051000000000 0.740848000000000 -1.693367000000000 0.170039880000000
-2.540051000000000 0.740848000000000 -1.587532000000000 0.130237910000000
-2.540051000000000 0.846684000000000 -2.857557000000000 0.107704630000000
-2.540051000000000 0.846684000000000 -2.751721000000000 0.139898820000000
-2.540051000000000 0.846684000000000 -2.645886000000000 0.177171850000000
-2.540051000000000 0.846684000000000 -2.540051000000000 0.217961980000000
-2.540051000000000 0.846684000000000 -2.434215000000000 0.275442190000000
-2.540051000000000 0.846684000000000 -2.328380000000000 0.400913440000000
-2.540051000000000 0.846684000000000 -2.222544000000000 0.573976530000000
-2.540051000000000 0.846684000000000 -2.116709000000000 0.551171680000000
-2.540051000000000 0.846684000000000 -2.010873000000000 0.383269090000000
-2.540051000000000 0.846684000000000 -1.905038000000000 0.280203960000000
-2.540051000000000 0.846684000000000 -1.799203000000000 0.224401920000000
-2.540051000000000 0.846684000000000 -1.693367000000000 0.177492410000000
-2.540051000000000 0.846684000000000 -1.587532000000000 0.135092970000000
-2.540051000000000 0.846684000000000 -1.481696000000000 0.100358530000000
-2.540051000000000 0.952519000000000 -2.857557000000000 0.102691720000000
-2.540051000000000 0.952519000000000 -2.751721000000000 0.132372680000000
-2.540051000000000 0.952519000000000 -2.645886000000000 0.167443660000000
-2.540051000000000 0.952519000000000 -2.540051000000000 0.206291750000000
-2.540051000000000 0.952519000000000 -2.434215000000000 0.252353940000000
-2.540051000000000 0.952519000000000 -2.328380000000000 0.320052190000000
-2.540051000000000 0.952519000000000 -2.222544000000000 0.394384510000000
-2.540051000000000 0.952519000000000 -2.116709000000000 0.396378300000000
-2.540051000000000 0.952519000000000 -2.010873000000000 0.335770930000000
-2.540051000000000 0.952519000000000 -1.905038000000000 0.278825810000000
-2.540051000000000 0.952519000000000 -1.799203000000000 0.229477950000000
-2.540051000000000 0.952519000000000 -1.693367000000000 0.180959320000000
-2.540051000000000 0.952519000000000 -1.587532000000000 0.136709950000000
-2.540051000000000 0.952519000000000 -1.481696000000000 0.100616210000000
-2.540051000000000 1.058354000000000 -2.751721000000000 0.121439580000000
-2.540051000000000 1.058354000000000 -2.645886000000000 0.154113770000000
-2.540051000000000 1.058354000000000 -2.540051000000000 0.191701080000000
-2.540051000000000 1.058354000000000 -2.434215000000000 0.232815250000000
-2.540051000000000 1.058354000000000 -2.328380000000000 0.276356160000000
-2.540051000000000 1.058354000000000 -2.222544000000000 0.313582010000000
-2.540051000000000 1.058354000000000 -2.116709000000000 0.325590070000000
-2.540051000000000 1.058354000000000 -2.010873000000000 0.308533400000000
-2.540051000000000 1.058354000000000 -1.905038000000000 0.273430400000000
-2.540051000000000 1.058354000000000 -1.799203000000000 0.227952400000000
-2.540051000000000 1.058354000000000 -1.693367000000000 0.179285830000000
-2.540051000000000 1.058354000000000 -1.587532000000000 0.134827330000000
-2.540051000000000 1.164190000000000 -2.751721000000000 0.107555710000000
-2.540051000000000 1.164190000000000 -2.645886000000000 0.137028700000000
-2.540051000000000 1.164190000000000 -2.540051000000000 0.172344550000000
-2.540051000000000 1.164190000000000 -2.434215000000000 0.211624610000000
-2.540051000000000 1.164190000000000 -2.328380000000000 0.250738550000000
-2.540051000000000 1.164190000000000 -2.222544000000000 0.282440790000000
-2.540051000000000 1.164190000000000 -2.116709000000000 0.297415200000000
-2.540051000000000 1.164190000000000 -2.010873000000000 0.289914890000000
-2.540051000000000 1.164190000000000 -1.905038000000000 0.261367000000000
-2.540051000000000 1.164190000000000 -1.799203000000000 0.218992740000000
-2.540051000000000 1.164190000000000 -1.693367000000000 0.172467860000000
-2.540051000000000 1.164190000000000 -1.587532000000000 0.129647780000000
-2.540051000000000 1.270025000000000 -2.645886000000000 0.117551390000000
-2.540051000000000 1.270025000000000 -2.540051000000000 0.148992350000000
-2.540051000000000 1.270025000000000 -2.434215000000000 0.184960880000000
-2.540051000000000 1.270025000000000 -2.328380000000000 0.221581100000000
-2.540051000000000 1.270025000000000 -2.222544000000000 0.252263090000000
-2.540051000000000 1.270025000000000 -2.116709000000000 0.268996600000000
-2.540051000000000 1.270025000000000 -2.010873000000000 0.265714970000000
-2.540051000000000 1.270025000000000 -1.905038000000000 0.242095690000000
-2.540051000000000 1.270025000000000 -1.799203000000000 0.204345450000000
-2.540051000000000 1.270025000000000 -1.693367000000000 0.161694190000000
-2.540051000000000 1.270025000000000 -1.587532000000000 0.121709250000000
-2.540051000000000 1.375861000000000 -2.540051000000000 0.124483250000000
-2.540051000000000 1.375861000000000 -2.434215000000000 0.155744530000000
-2.540051000000000 1.375861000000000 -2.328380000000000 0.188554100000000
-2.540051000000000 1.375861000000000 -2.222544000000000 0.217612730000000
-2.540051000000000 1.375861000000000 -2.116709000000000 0.235827010000000
-2.540051000000000 1.375861000000000 -2.010873000000000 0.236798620000000
-2.540051000000000 1.375861000000000 -1.905038000000000 0.218720470000000
-2.540051000000000 1.375861000000000 -1.799203000000000 0.186301690000000
-2.540051000000000 1.375861000000000 -1.693367000000000 0.148039290000000
-2.540051000000000 1.375861000000000 -1.587532000000000 0.111428090000000
-2.540051000000000 1.481696000000000 -2.540051000000000 0.101083840000000
-2.540051000000000 1.481696000000000 -2.434215000000000 0.127393450000000
-2.540051000000000 1.481696000000000 -2.328380000000000 0.155789710000000
-2.540051000000000 1.481696000000000 -2.222544000000000 0.182373850000000
-2.540051000000000 1.481696000000000 -2.116709000000000 0.201126090000000
-2.540051000000000 1.481696000000000 -2.010873000000000 0.205520890000000
-2.540051000000000 1.481696000000000 -1.905038000000000 0.192447470000000
-2.540051000000000 1.481696000000000 -1.799203000000000 0.165197250000000
-2.540051000000000 1.481696000000000 -1.693367000000000 0.131565540000000
-2.540051000000000 1.587532000000000 -2.434215000000000 0.101302330000000
-2.540051000000000 1.587532000000000 -2.328380000000000 0.124955460000000
-2.540051000000000 1.587532000000000 -2.222544000000000 0.147973850000000
-2.540051000000000 1.587532000000000 -2.116709000000000 0.165465490000000
-2.540051000000000 1.587532000000000 -2.010873000000000 0.171421820000000
-2.540051000000000 1.587532000000000 -1.905038000000000 0.162277610000000
-2.540051000000000 1.587532000000000 -1.799203000000000 0.140240970000000
-2.540051000000000 1.587532000000000 -1.693367000000000 0.112048640000000
-2.540051000000000 1.693367000000000 -2.222544000000000 0.114966680000000
-2.540051000000000 1.693367000000000 -2.116709000000000 0.129361710000000
-2.540051000000000 1.693367000000000 -2.010873000000000 0.135000800000000
-2.540051000000000 1.693367000000000 -1.905038000000000 0.128818500000000
-2.540051000000000 1.693367000000000 -1.799203000000000 0.112240300000000
-2.434215000000000 -1.058354000000000 2.434215000000000 0.105747780000000
-2.434215000000000 -1.058354000000000 2.540051000000000 0.105941210000000
-2.434215000000000 -0.952519000000000 2.328380000000000 0.106852970000000
-2.434215000000000 -0.952519000000000 2.434215000000000 0.115608630000000
-2.434215000000000 -0.952519000000000 2.540051000000000 0.115867170000000
-2.434215000000000 -0.952519000000000 2.645886000000000 0.107407910000000
-2.434215000000000 -0.846684000000000 2.328380000000000 0.108187720000000
-2.434215000000000 -0.846684000000000 2.434215000000000 0.117048140000000
-2.434215000000000 -0.846684000000000 2.540051000000000 0.117303880000000
-2.434215000000000 -0.846684000000000 2.645886000000000 0.108726530000000
-2.434215000000000 -0.740848000000000 2.328380000000000 0.101615870000000
-2.434215000000000 -0.740848000000000 2.434215000000000 0.109716860000000
-2.434215000000000 -0.740848000000000 2.540051000000000 0.109902770000000
-2.434215000000000 -0.740848000000000 2.645886000000000 0.101968270000000
-2.434215000000000 -0.635013000000000 0.105835000000000 0.101269120000000
-2.434215000000000 -0.635013000000000 0.211671000000000 0.112491570000000
-2.434215000000000 -0.635013000000000 0.317506000000000 0.116792510000000
-2.434215000000000 -0.635013000000000 0.423342000000000 0.113126510000000
-2.434215000000000 -0.635013000000000 0.529177000000000 0.102400950000000
-2.434215000000000 -0.529177000000000 0.000000000000000 0.116204550000000
-2.434215000000000 -0.529177000000000 0.105835000000000 0.139226740000000
-2.434215000000000 -0.529177000000000 0.211671000000000 0.156074620000000
-2.434215000000000 -0.529177000000000 0.317506000000000 0.162750170000000
-2.434215000000000 -0.529177000000000 0.423342000000000 0.157474610000000
-2.434215000000000 -0.529177000000000 0.529177000000000 0.141634460000000
-2.434215000000000 -0.529177000000000 0.635013000000000 0.119118740000000
-2.434215000000000 -0.423342000000000 -0.105835000000000 0.117004680000000
-2.434215000000000 -0.423342000000000 0.000000000000000 0.150794730000000
-2.434215000000000 -0.423342000000000 0.105835000000000 0.182954030000000
-2.434215000000000 -0.423342000000000 0.211671000000000 0.207051720000000
-2.434215000000000 -0.423342000000000 0.317506000000000 0.216987960000000
-2.434215000000000 -0.423342000000000 0.423342000000000 0.209861870000000
-2.434215000000000 -0.423342000000000 0.529177000000000 0.187668930000000
-2.434215000000000 -0.423342000000000 0.635013000000000 0.156248820000000
-2.434215000000000 -0.423342000000000 0.740848000000000 0.122373890000000
-2.434215000000000 -0.317506000000000 -2.540051000000000 0.117994340000000
-2.434215000000000 -0.317506000000000 -2.434215000000000 0.131976250000000
-2.434215000000000 -0.317506000000000 -2.328380000000000 0.130213930000000
-2.434215000000000 -0.317506000000000 -2.222544000000000 0.114797510000000
-2.434215000000000 -0.317506000000000 -0.211671000000000 0.103562720000000
-2.434215000000000 -0.317506000000000 -0.105835000000000 0.142186040000000
-2.434215000000000 -0.317506000000000 0.000000000000000 0.185600760000000
-2.434215000000000 -0.317506000000000 0.105835000000000 0.227859140000000
-2.434215000000000 -0.317506000000000 0.211671000000000 0.260310830000000
-2.434215000000000 -0.317506000000000 0.317506000000000 0.274282020000000
-2.434215000000000 -0.317506000000000 0.423342000000000 0.265401570000000
-2.434215000000000 -0.317506000000000 0.529177000000000 0.236301940000000
-2.434215000000000 -0.317506000000000 0.635013000000000 0.195112260000000
-2.434215000000000 -0.317506000000000 0.740848000000000 0.151130520000000
-2.434215000000000 -0.317506000000000 0.846684000000000 0.111231680000000
-2.434215000000000 -0.211671000000000 -2.645886000000000 0.127664880000000
-2.434215000000000 -0.211671000000000 -2.540051000000000 0.163392550000000
-2.434215000000000 -0.211671000000000 -2.434215000000000 0.185293450000000
-2.434215000000000 -0.211671000000000 -2.328380000000000 0.182523310000000
-2.434215000000000 -0.211671000000000 -2.222544000000000 0.158974830000000
-2.434215000000000 -0.211671000000000 -2.116709000000000 0.127295980000000
-2.434215000000000 -0.211671000000000 -0.211671000000000 0.117664890000000
-2.434215000000000 -0.211671000000000 -0.105835000000000 0.163127930000000
-2.434215000000000 -0.211671000000000 0.000000000000000 0.215115540000000
-2.434215000000000 -0.211671000000000 0.105835000000000 0.266715290000000
-2.434215000000000 -0.211671000000000 0.211671000000000 0.307216990000000
-2.434215000000000 -0.211671000000000 0.317506000000000 0.325427240000000
-2.434215000000000 -0.211671000000000 0.423342000000000 0.315428580000000
-2.434215000000000 -0.211671000000000 0.529177000000000 0.280292040000000
-2.434215000000000 -0.211671000000000 0.635013000000000 0.230231080000000
-2.434215000000000 -0.211671000000000 0.740848000000000 0.176972690000000
-2.434215000000000 -0.211671000000000 0.846684000000000 0.129027140000000
-2.434215000000000 -0.105835000000000 -2.751721000000000 0.111794550000000
-2.434215000000000 -0.105835000000000 -2.645886000000000 0.156983690000000
-2.434215000000000 -0.105835000000000 -2.540051000000000 0.203097460000000
-2.434215000000000 -0.105835000000000 -2.434215000000000 0.232474520000000
-2.434215000000000 -0.105835000000000 -2.328380000000000 0.229978930000000
-2.434215000000000 -0.105835000000000 -2.222544000000000 0.200844210000000
-2.434215000000000 -0.105835000000000 -2.116709000000000 0.161314380000000
-2.434215000000000 -0.105835000000000 -2.010873000000000 0.123729830000000
-2.434215000000000 -0.105835000000000 -0.211671000000000 0.126132430000000
-2.434215000000000 -0.105835000000000 -0.105835000000000 0.175867470000000
-2.434215000000000 -0.105835000000000 0.000000000000000 0.233426170000000
-2.434215000000000 -0.105835000000000 0.105835000000000 0.291358950000000
-2.434215000000000 -0.105835000000000 0.211671000000000 0.337644980000000
-2.434215000000000 -0.105835000000000 0.317506000000000 0.359369980000000
-2.434215000000000 -0.105835000000000 0.423342000000000 0.349386470000000
-2.434215000000000 -0.105835000000000 0.529177000000000 0.310763550000000
-2.434215000000000 -0.105835000000000 0.635013000000000 0.254935890000000
-2.434215000000000 -0.105835000000000 0.740848000000000 0.195323100000000
-2.434215000000000 -0.105835000000000 0.846684000000000 0.141706700000000
-2.434215000000000 0.000000000000000 -2.751721000000000 0.125571110000000
-2.434215000000000 0.000000000000000 -2.645886000000000 0.175027430000000
-2.434215000000000 0.000000000000000 -2.540051000000000 0.225290800000000
-2.434215000000000 0.000000000000000 -2.434215000000000 0.258397760000000
-2.434215000000000 0.000000000000000 -2.328380000000000 0.259336640000000
-2.434215000000000 0.000000000000000 -2.222544000000000 0.231518930000000
-2.434215000000000 0.000000000000000 -2.116709000000000 0.190320190000000
-2.434215000000000 0.000000000000000 -2.010873000000000 0.148941340000000
-2.434215000000000 0.000000000000000 -1.905038000000000 0.113264780000000
-2.434215000000000 0.000000000000000 -0.211671000000000 0.127320590000000
-2.434215000000000 0.000000000000000 -0.105835000000000 0.177723570000000
-2.434215000000000 0.000000000000000 0.000000000000000 0.236376280000000
-2.434215000000000 0.000000000000000 0.105835000000000 0.295855490000000
-2.434215000000000 0.000000000000000 0.211671000000000 0.344011890000000
-2.434215000000000 0.000000000000000 0.317506000000000 0.367563580000000
-2.434215000000000 0.000000000000000 0.423342000000000 0.358791190000000
-2.434215000000000 0.000000000000000 0.529177000000000 0.320289210000000
-2.434215000000000 0.000000000000000 0.635013000000000 0.263470900000000
-2.434215000000000 0.000000000000000 0.740848000000000 0.202173710000000
-2.434215000000000 0.000000000000000 0.846684000000000 0.146696090000000
-2.434215000000000 0.000000000000000 0.952519000000000 0.101923090000000
-2.434215000000000 0.105835000000000 -2.751721000000000 0.132467030000000
-2.434215000000000 0.105835000000000 -2.645886000000000 0.181252210000000
-2.434215000000000 0.105835000000000 -2.540051000000000 0.230440830000000
-2.434215000000000 0.105835000000000 -2.434215000000000 0.264750110000000
-2.434215000000000 0.105835000000000 -2.328380000000000 0.271363920000000
-2.434215000000000 0.105835000000000 -2.222544000000000 0.250520190000000
-2.434215000000000 0.105835000000000 -2.116709000000000 0.213434800000000
-2.434215000000000 0.105835000000000 -2.010873000000000 0.172102800000000
-2.434215000000000 0.105835000000000 -1.905038000000000 0.133601760000000
-2.434215000000000 0.105835000000000 -1.799203000000000 0.100825720000000
-2.434215000000000 0.105835000000000 -0.211671000000000 0.121049520000000
-2.434215000000000 0.105835000000000 -0.105835000000000 0.168358390000000
-2.434215000000000 0.105835000000000 0.000000000000000 0.223353220000000
-2.434215000000000 0.105835000000000 0.105835000000000 0.279169050000000
-2.434215000000000 0.105835000000000 0.211671000000000 0.324706850000000
-2.434215000000000 0.105835000000000 0.317506000000000 0.347762380000000
-2.434215000000000 0.105835000000000 0.423342000000000 0.340930390000000
-2.434215000000000 0.105835000000000 0.529177000000000 0.306089880000000
-2.434215000000000 0.105835000000000 0.635013000000000 0.253410250000000
-2.434215000000000 0.105835000000000 0.740848000000000 0.195674790000000
-2.434215000000000 0.105835000000000 0.846684000000000 0.142725200000000
-2.434215000000000 0.211671000000000 -2.751721000000000 0.134597750000000
-2.434215000000000 0.211671000000000 -2.645886000000000 0.180780600000000
-2.434215000000000 0.211671000000000 -2.540051000000000 0.227525130000000
-2.434215000000000 0.211671000000000 -2.434215000000000 0.262932210000000
-2.434215000000000 0.211671000000000 -2.328380000000000 0.275977310000000
-2.434215000000000 0.211671000000000 -2.222544000000000 0.263996200000000
-2.434215000000000 0.211671000000000 -2.116709000000000 0.233397640000000
-2.434215000000000 0.211671000000000 -2.010873000000000 0.193911880000000
-2.434215000000000 0.211671000000000 -1.905038000000000 0.153579040000000
-2.434215000000000 0.211671000000000 -1.799203000000000 0.117396670000000
-2.434215000000000 0.211671000000000 -0.211671000000000 0.108656460000000
-2.434215000000000 0.211671000000000 -0.105835000000000 0.149889980000000
-2.434215000000000 0.211671000000000 0.000000000000000 0.197511170000000
-2.434215000000000 0.211671000000000 0.105835000000000 0.245579490000000
-2.434215000000000 0.211671000000000 0.211671000000000 0.284828380000000
-2.434215000000000 0.211671000000000 0.317506000000000 0.305184480000000
-2.434215000000000 0.211671000000000 0.423342000000000 0.300387170000000
-2.434215000000000 0.211671000000000 0.529177000000000 0.271637050000000
-2.434215000000000 0.211671000000000 0.635013000000000 0.227020790000000
-2.434215000000000 0.211671000000000 0.740848000000000 0.177109710000000
-2.434215000000000 0.211671000000000 0.846684000000000 0.130445290000000
-2.434215000000000 0.317506000000000 -2.751721000000000 0.134348050000000
-2.434215000000000 0.317506000000000 -2.645886000000000 0.178396000000000
-2.434215000000000 0.317506000000000 -2.540051000000000 0.223778660000000
-2.434215000000000 0.317506000000000 -2.434215000000000 0.261041280000000
-2.434215000000000 0.317506000000000 -2.328380000000000 0.280188650000000
-2.434215000000000 0.317506000000000 -2.222544000000000 0.276257220000000
-2.434215000000000 0.317506000000000 -2.116709000000000 0.251775720000000
-2.434215000000000 0.317506000000000 -2.010873000000000 0.214395560000000
-2.434215000000000 0.317506000000000 -1.905038000000000 0.172762550000000
-2.434215000000000 0.317506000000000 -1.799203000000000 0.133619090000000
-2.434215000000000 0.317506000000000 -1.693367000000000 0.100704670000000
-2.434215000000000 0.317506000000000 -0.105835000000000 0.126011000000000
-2.434215000000000 0.317506000000000 0.000000000000000 0.164341040000000
-2.434215000000000 0.317506000000000 0.105835000000000 0.202651230000000
-2.434215000000000 0.317506000000000 0.211671000000000 0.233777150000000
-2.434215000000000 0.317506000000000 0.317506000000000 0.250151540000000
-2.434215000000000 0.317506000000000 0.423342000000000 0.247058630000000
-2.434215000000000 0.317506000000000 0.529177000000000 0.225191260000000
-2.434215000000000 0.317506000000000 0.635013000000000 0.190343960000000
-2.434215000000000 0.317506000000000 0.740848000000000 0.150431550000000
-2.434215000000000 0.317506000000000 0.846684000000000 0.112253150000000
-2.434215000000000 0.423342000000000 -2.751721000000000 0.132753140000000
-2.434215000000000 0.423342000000000 -2.645886000000000 0.175401690000000
-2.434215000000000 0.423342000000000 -2.540051000000000 0.220327280000000
-2.434215000000000 0.423342000000000 -2.434215000000000 0.259427130000000
-2.434215000000000 0.423342000000000 -2.328380000000000 0.283366190000000
-2.434215000000000 0.423342000000000 -2.222544000000000 0.285821180000000
-2.434215000000000 0.423342000000000 -2.116709000000000 0.266564520000000
-2.434215000000000 0.423342000000000 -2.010873000000000 0.231620810000000
-2.434215000000000 0.423342000000000 -1.905038000000000 0.189820130000000
-2.434215000000000 0.423342000000000 -1.799203000000000 0.148777100000000
-2.434215000000000 0.423342000000000 -1.693367000000000 0.113209790000000
-2.434215000000000 0.423342000000000 -0.105835000000000 0.100681900000000
-2.434215000000000 0.423342000000000 0.000000000000000 0.129572430000000
-2.434215000000000 0.423342000000000 0.105835000000000 0.158119950000000
-2.434215000000000 0.423342000000000 0.211671000000000 0.181140190000000
-2.434215000000000 0.423342000000000 0.317506000000000 0.193349750000000
-2.434215000000000 0.423342000000000 0.423342000000000 0.191487030000000
-2.434215000000000 0.423342000000000 0.529177000000000 0.175912790000000
-2.434215000000000 0.423342000000000 0.635013000000000 0.150457690000000
-2.434215000000000 0.423342000000000 0.740848000000000 0.120609280000000
-2.434215000000000 0.529177000000000 -2.751721000000000 0.129852600000000
-2.434215000000000 0.529177000000000 -2.645886000000000 0.170884670000000
-2.434215000000000 0.529177000000000 -2.540051000000000 0.214760300000000
-2.434215000000000 0.529177000000000 -2.434215000000000 0.254526580000000
-2.434215000000000 0.529177000000000 -2.328380000000000 0.282328120000000
-2.434215000000000 0.529177000000000 -2.222544000000000 0.291055780000000
-2.434215000000000 0.529177000000000 -2.116709000000000 0.276852200000000
-2.434215000000000 0.529177000000000 -2.010873000000000 0.244457060000000
-2.434215000000000 0.529177000000000 -1.905038000000000 0.203736850000000
-2.434215000000000 0.529177000000000 -1.799203000000000 0.162289060000000
-2.434215000000000 0.529177000000000 -1.693367000000000 0.124903480000000
-2.434215000000000 0.529177000000000 0.105835000000000 0.117660520000000
-2.434215000000000 0.529177000000000 0.211671000000000 0.133713970000000
-2.434215000000000 0.529177000000000 0.317506000000000 0.142270790000000
-2.434215000000000 0.529177000000000 0.423342000000000 0.141195890000000
-2.434215000000000 0.529177000000000 0.529177000000000 0.130655200000000
-2.434215000000000 0.529177000000000 0.635013000000000 0.113048650000000
-2.434215000000000 0.635013000000000 -2.751721000000000 0.125631460000000
-2.434215000000000 0.635013000000000 -2.645886000000000 0.164251490000000
-2.434215000000000 0.635013000000000 -2.540051000000000 0.205887850000000
-2.434215000000000 0.635013000000000 -2.434215000000000 0.245492430000000
-2.434215000000000 0.635013000000000 -2.328380000000000 0.278536780000000
-2.434215000000000 0.635013000000000 -2.222544000000000 0.296717810000000
-2.434215000000000 0.635013000000000 -2.116709000000000 0.287848440000000
-2.434215000000000 0.635013000000000 -2.010873000000000 0.255920540000000
-2.434215000000000 0.635013000000000 -1.905038000000000 0.215746340000000
-2.434215000000000 0.635013000000000 -1.799203000000000 0.174531350000000
-2.434215000000000 0.635013000000000 -1.693367000000000 0.135803420000000
-2.434215000000000 0.635013000000000 -1.587532000000000 0.102738950000000
-2.434215000000000 0.635013000000000 0.317506000000000 0.100580030000000
-2.434215000000000 0.740848000000000 -2.751721000000000 0.120365730000000
-2.434215000000000 0.740848000000000 -2.645886000000000 0.156205470000000
-2.434215000000000 0.740848000000000 -2.540051000000000 0.195306680000000
-2.434215000000000 0.740848000000000 -2.434215000000000 0.234788250000000
-2.434215000000000 0.740848000000000 -2.328380000000000 0.273814130000000
-2.434215000000000 0.740848000000000 -2.222544000000000 0.302960910000000
-2.434215000000000 0.740848000000000 -2.116709000000000 0.300012300000000
-2.434215000000000 0.740848000000000 -2.010873000000000 0.268063820000000
-2.434215000000000 0.740848000000000 -1.905038000000000 0.227953170000000
-2.434215000000000 0.740848000000000 -1.799203000000000 0.186523760000000
-2.434215000000000 0.740848000000000 -1.693367000000000 0.146117850000000
-2.434215000000000 0.740848000000000 -1.587532000000000 0.110540910000000
-2.434215000000000 0.846684000000000 -2.751721000000000 0.114292060000000
-2.434215000000000 0.846684000000000 -2.645886000000000 0.147747110000000
-2.434215000000000 0.846684000000000 -2.540051000000000 0.185150630000000
-2.434215000000000 0.846684000000000 -2.434215000000000 0.224489420000000
-2.434215000000000 0.846684000000000 -2.328380000000000 0.265146500000000
-2.434215000000000 0.846684000000000 -2.222544000000000 0.298070750000000
-2.434215000000000 0.846684000000000 -2.116709000000000 0.302077870000000
-2.434215000000000 0.846684000000000 -2.010873000000000 0.277168300000000
-2.434215000000000 0.846684000000000 -1.905038000000000 0.240191130000000
-2.434215000000000 0.846684000000000 -1.799203000000000 0.198273560000000
-2.434215000000000 0.846684000000000 -1.693367000000000 0.155584140000000
-2.434215000000000 0.846684000000000 -1.587532000000000 0.117296390000000
-2.434215000000000 0.952519000000000 -2.751721000000000 0.107255890000000
-2.434215000000000 0.952519000000000 -2.645886000000000 0.138896770000000
-2.434215000000000 0.952519000000000 -2.540051000000000 0.175632540000000
-2.434215000000000 0.952519000000000 -2.434215000000000 0.215314330000000
-2.434215000000000 0.952519000000000 -2.328380000000000 0.255032560000000
-2.434215000000000 0.952519000000000 -2.222544000000000 0.286799060000000
-2.434215000000000 0.952519000000000 -2.116709000000000 0.297191490000000
-2.434215000000000 0.952519000000000 -2.010873000000000 0.282626700000000
-2.434215000000000 0.952519000000000 -1.905038000000000 0.250389210000000
-2.434215000000000 0.952519000000000 -1.799203000000000 0.208017980000000
-2.434215000000000 0.952519000000000 -1.693367000000000 0.163122600000000
-2.434215000000000 0.952519000000000 -1.587532000000000 0.122457260000000
-2.434215000000000 1.058354000000000 -2.645886000000000 0.128772640000000
-2.434215000000000 1.058354000000000 -2.540051000000000 0.164911280000000
-2.434215000000000 1.058354000000000 -2.434215000000000 0.205284760000000
